# .PCD v.7 - Point Cloud Data file format
VERSION .7
FIELDS x y z intensity ring timestamp
SIZE 4 4 4 4 2 8
TYPE F F F F U D
COUNT 1 1 1 1 1 1
WIDTH 907
HEIGHT 1
VIEWPOINT 0 0 0 1 0 0 0
POINTS 907
DATA ascii
-1.497572 -0.678386 0.847471 45.000000 8 340.342094
-1.471804 -0.666404 0.651140 51.000000 6 340.342096
-1.420062 -0.642081 0.156543 38.000000 0 340.342104
-0.046962 -0.011313 3.984122 11.000000 31 340.342115
-0.523497 -0.220267 3.611022 15.000000 28 340.342117
-0.689649 -0.289207 3.618834 6.000000 27 340.342120
-1.178446 -0.521593 4.164550 9.000000 25 340.342122
-1.353574 -0.608059 3.555368 2.000000 23 340.342125
-1.844642 -0.829032 3.771968 15.000000 21 340.342127
-1.740839 -0.782378 2.875745 22.000000 19 340.342130
-1.662666 -0.747243 2.258307 30.000000 17 340.342133
-0.211774 -0.077447 3.728161 16.000000 30 340.342140
-0.357508 -0.140671 3.534486 21.000000 29 340.342143
-1.254833 -0.561077 3.792170 3.000000 24 340.342148
-1.710975 -0.765734 3.937982 97.000000 22 340.342151
-1.796301 -0.804291 3.289455 17.000000 20 340.342153
-1.702436 -0.762261 2.543822 29.000000 18 340.342156
-1.637879 -0.733353 2.023731 34.000000 16 340.342158
-1.612947 -0.727266 1.818507 35.000000 15 340.342116
-1.571350 -0.708507 1.471754 38.000000 13 340.342119
-1.534483 -0.691562 1.188115 39.000000 11 340.342121
-1.507850 -0.679556 0.951940 39.000000 9 340.342124
-1.484375 -0.668665 0.746085 42.000000 7 340.342126
-0.449399 -0.202254 0.137106 12.000000 1 340.342134
-1.594149 -0.715778 1.637000 37.000000 14 340.342142
-1.551070 -0.696433 1.321568 39.000000 12 340.342144
-1.523822 -0.683880 1.066722 40.000000 10 340.342147
-1.508212 -0.676871 0.851667 45.000000 8 340.342149
-1.482738 -0.665128 0.654426 51.000000 6 340.342152
-1.435972 -0.643247 0.157148 36.000000 0 340.342160
-0.047045 -0.011156 3.989122 11.000000 31 340.342170
-0.523545 -0.218140 3.606082 15.000000 28 340.342173
-0.692536 -0.287578 3.628624 7.000000 27 340.342175
-1.178892 -0.516876 4.159778 7.000000 25 340.342178
-1.373537 -0.611273 3.601393 3.000000 23 340.342180
-1.856280 -0.826486 3.789523 15.000000 21 340.342183
-1.748700 -0.778586 2.884011 22.000000 19 340.342186
-1.671121 -0.744042 2.265981 29.000000 17 340.342188
-0.212043 -0.076707 3.728161 16.000000 30 340.342196
-0.357499 -0.139229 3.529515 21.000000 29 340.342198
-1.266251 -0.560886 3.820327 3.000000 24 340.342204
-1.715628 -0.760640 3.942483 97.000000 22 340.342206
-1.806250 -0.801188 3.302253 17.000000 20 340.342209
-1.710597 -0.758758 2.551801 28.000000 18 340.342211
-1.646627 -0.730381 2.031082 34.000000 16 340.342214
-1.618732 -0.723085 1.822011 35.000000 15 340.342171
-1.580923 -0.706193 1.478030 38.000000 13 340.342174
-1.540706 -0.687906 1.190856 39.000000 11 340.342177
-1.514259 -0.676095 0.954258 40.000000 9 340.342179
-1.490933 -0.665369 0.747958 40.000000 7 340.342182
-0.445554 -0.198656 0.136660 12.000000 1 340.342189
-1.603462 -0.713245 1.643649 37.000000 14 340.342197
-1.557185 -0.692658 1.324511 38.000000 12 340.342200
-1.534079 -0.682059 1.071787 40.000000 10 340.342202
-1.514713 -0.673446 0.853765 46.000000 8 340.342205
-1.489367 -0.661866 0.656068 51.000000 6 340.342207
-1.456475 -0.646336 0.157954 29.000000 0 340.342215
-0.047127 -0.010998 3.994121 10.000000 31 340.342226
-0.523585 -0.216015 3.601143 17.000000 28 340.342228
-0.694477 -0.285545 3.633519 9.000000 27 340.342231
-1.168359 -0.507405 4.116833 3.000000 25 340.342233
-1.359573 -0.599382 3.559971 5.000000 23 340.342236
-1.874498 -0.826769 3.820243 16.000000 21 340.342239
-1.759132 -0.775884 2.896409 22.000000 19 340.342241
-1.679575 -0.740792 2.273655 30.000000 17 340.342244
-0.212309 -0.075967 3.728161 15.000000 30 340.342251
-0.357983 -0.137981 3.529515 21.000000 29 340.342254
-1.253979 -0.550223 3.778091 3.000000 24 340.342259
-1.718273 -0.754646 3.942483 97.000000 22 340.342262
-1.813811 -0.796977 3.310784 17.000000 20 340.342264
-1.718753 -0.755207 2.559780 28.000000 18 340.342267
-1.655374 -0.727356 2.038432 34.000000 16 340.342269
-1.627769 -0.720317 1.829020 35.000000 15 340.342227
-1.586938 -0.702246 1.481168 38.000000 13 340.342230
-1.550746 -0.685907 1.196339 38.000000 11 340.342232
-1.524712 -0.674389 0.958894 40.000000 9 340.342235
-1.497487 -0.662035 0.749831 40.000000 7 340.342237
-1.474673 -0.651641 0.563532 33.000000 5 340.342240
-0.441689 -0.195087 0.136214 12.000000 1 340.342245
-1.612776 -0.710655 1.650299 37.000000 14 340.342253
-1.566990 -0.690477 1.330397 38.000000 12 340.342255
-1.540396 -0.678438 1.074319 40.000000 10 340.342258
-1.521208 -0.669984 0.855863 45.000000 8 340.342260
-1.495990 -0.658566 0.657711 49.000000 6 340.342263
-1.454149 -0.639238 0.157752 12.000000 0 340.342271
-0.047206 -0.010848 3.999121 12.000000 31 340.342281
-0.523579 -0.213984 3.596204 16.000000 28 340.342284
-0.697307 -0.284008 3.643310 9.000000 27 340.342286
-1.148084 -0.494083 4.040485 3.000000 25 340.342289
-1.366924 -0.597217 3.573778 8.000000 23 340.342291
-1.888205 -0.825346 3.842186 19.000000 21 340.342294
-1.769430 -0.773427 2.908808 22.000000 19 340.342296
-1.687897 -0.737786 2.281329 29.000000 17 340.342299
-0.212560 -0.075262 3.728161 16.000000 30 340.342307
-0.358438 -0.136793 3.529515 20.000000 29 340.342309
-1.239971 -0.539180 3.731164 3.000000 24 340.342314
-1.722762 -0.749813 3.946984 97.000000 22 340.342317
-1.823618 -0.794081 3.323582 16.000000 20 340.342319
-1.726775 -0.751910 2.567759 28.000000 18 340.342322
-1.663993 -0.724569 2.045782 33.000000 16 340.342325
-1.636681 -0.717780 1.836029 35.000000 15 340.342282
-1.596388 -0.700107 1.487443 38.000000 13 340.342285
-1.556841 -0.682439 1.199081 38.000000 11 340.342287
-1.530998 -0.671108 0.961212 39.000000 9 340.342290
-1.503920 -0.658926 0.751705 40.000000 7 340.342293
-1.476826 -0.646748 0.563532 33.000000 5 340.342295
-0.437772 -0.191625 0.135768 12.000000 1 340.342300
-1.621968 -0.708292 1.656949 37.000000 14 340.342308
-1.572976 -0.686895 1.333341 38.000000 12 340.342311
-1.546589 -0.675051 1.076851 40.000000 10 340.342313
-1.531740 -0.668567 0.860059 43.000000 8 340.342316
-1.502494 -0.655490 0.659354 47.000000 6 340.342318
-0.047200 -0.010677 3.994121 12.000000 31 340.342337
-0.523602 -0.211864 3.591265 16.000000 28 340.342339
-0.700183 -0.282333 3.653100 7.000000 27 340.342342
-1.141558 -0.486559 4.011855 3.000000 25 340.342344
-1.361829 -0.589338 3.555368 6.000000 23 340.342347
-1.897670 -0.821605 3.855352 21.000000 21 340.342349
-1.782449 -0.771718 2.925340 22.000000 19 340.342352
-1.696346 -0.734437 2.289002 29.000000 17 340.342354
-0.212547 -0.074425 3.723169 16.000000 30 340.342362
-0.358914 -0.135541 3.529515 21.000000 29 340.342365
-1.241846 -0.534849 3.731164 5.000000 24 340.342370
-1.725369 -0.743795 3.946984 97.000000 22 340.342372
-1.831168 -0.789776 3.332114 16.000000 20 340.342375
-1.737692 -0.749458 2.579727 28.000000 18 340.342378
-1.672738 -0.721442 2.053133 34.000000 16 340.342380
-1.645718 -0.714904 1.843039 35.000000 15 340.342338
-1.602393 -0.696081 1.490581 37.000000 13 340.342340
-1.566885 -0.680331 1.204564 38.000000 11 340.342343
-1.537395 -0.667524 0.963530 40.000000 9 340.342345
-1.510464 -0.655518 0.753578 40.000000 7 340.342348
-1.483476 -0.643498 0.564941 37.000000 5 340.342351
-0.433869 -0.188114 0.135321 12.000000 1 340.342356
-1.627858 -0.704108 1.660274 37.000000 14 340.342363
-1.582784 -0.684609 1.339227 38.000000 12 340.342366
-1.556850 -0.673070 1.081916 40.000000 10 340.342369
-1.538231 -0.665017 0.862157 42.000000 8 340.342371
-1.509108 -0.652114 0.660996 47.000000 6 340.342374
-0.047151 -0.010500 3.984122 12.000000 31 340.342392
-0.523617 -0.209747 3.586325 21.000000 28 340.342395
-0.702110 -0.280264 3.657995 7.000000 27 340.342397
-1.106097 -0.466893 3.883018 3.000000 25 340.342400
-1.372856 -0.588429 3.578381 3.000000 23 340.342402
-1.900526 -0.814976 3.855352 22.000000 21 340.342405
-1.792891 -0.768818 2.937739 21.000000 19 340.342407
-1.704792 -0.731038 2.296676 29.000000 17 340.342410
-0.212806 -0.073683 3.723169 16.000000 30 340.342418
-0.358884 -0.134101 3.524543 21.000000 29 340.342420
-1.240531 -0.529156 3.721778 6.000000 24 340.342425
-1.729958 -0.738623 3.951485 97.000000 22 340.342428
-1.841109 -0.786453 3.344912 16.000000 20 340.342431
-1.745841 -0.745756 2.587706 28.000000 18 340.342433
-1.681481 -0.718262 2.060483 33.000000 16 340.342436
-1.654755 -0.711974 1.850048 35.000000 15 340.342393
-1.611965 -0.693560 1.496856 37.000000 13 340.342396
-1.573092 -0.676510 1.207305 38.000000 11 340.342398
-1.543785 -0.663904 0.965848 40.000000 9 340.342401
-1.517002 -0.652072 0.755451 40.000000 7 340.342404
-1.490121 -0.640209 0.566351 43.000000 5 340.342406
-0.429947 -0.184634 0.134875 12.000000 1 340.342411
-1.637171 -0.701363 1.666923 37.000000 14 340.342419
-1.588879 -0.680672 1.342170 38.000000 12 340.342422
-1.563153 -0.669328 1.084449 40.000000 10 340.342424
-1.544715 -0.661430 0.864255 47.000000 8 340.342427
-1.515717 -0.648701 0.662639 47.000000 6 340.342429
-0.047144 -0.010330 3.979122 12.000000 31 340.342448
-0.522901 -0.207346 3.576447 26.000000 28 340.342450
-0.704979 -0.278559 3.667786 7.000000 27 340.342453
-1.056732 -0.441721 3.706464 6.000000 25 340.342455
-1.387490 -0.588977 3.610599 3.000000 23 340.342458
-1.905565 -0.809274 3.859741 25.000000 21 340.342460
-1.803334 -0.765855 2.950138 20.000000 19 340.342463
-1.716186 -0.728843 2.308187 28.000000 17 340.342465
-0.213062 -0.072940 3.723169 16.000000 30 340.342473
-0.359350 -0.132847 3.524543 21.000000 29 340.342476
-1.239191 -0.523480 3.712393 8.000000 24 340.342481
-1.732526 -0.732580 3.951485 97.000000 22 340.342483
-1.851048 -0.783070 3.357709 15.000000 20 340.342486
-1.753985 -0.742006 2.595685 27.000000 18 340.342489
-1.690223 -0.715030 2.067833 33.000000 16 340.342491
-1.663792 -0.708990 1.857057 35.000000 15 340.342449
-1.617957 -0.689455 1.499994 37.000000 13 340.342451
-1.583137 -0.674291 1.212788 38.000000 11 340.342454
-1.554245 -0.661983 0.970484 40.000000 9 340.342457
-1.527800 -0.650404 0.759197 40.000000 7 340.342459
-1.501175 -0.638760 0.569169 52.000000 5 340.342462
-0.384199 -0.163482 0.170745 6.000000 3 340.342464
-0.426006 -0.181183 0.134429 12.000000 1 340.342467
-1.643047 -0.697102 1.670248 37.000000 14 340.342475
-1.594967 -0.676700 1.345113 38.000000 12 340.342477
-1.573418 -0.667234 1.089514 40.000000 10 340.342480
-1.551193 -0.657806 0.866353 47.000000 8 340.342482
-1.522320 -0.645249 0.664282 47.000000 6 340.342485
-0.047180 -0.010165 3.979122 12.000000 31 340.342503
-0.522175 -0.204952 3.566568 27.000000 28 340.342506
-0.706895 -0.276467 3.672681 11.000000 27 340.342508
-1.044467 -0.432319 3.658747 11.000000 25 340.342511
-1.394940 -0.586401 3.624406 3.000000 23 340.342513
-1.910586 -0.803546 3.864130 30.000000 21 340.342516
-1.816372 -0.763919 2.966669 20.000000 19 340.342518
-1.724630 -0.725333 2.315861 28.000000 17 340.342521
-0.213315 -0.072196 3.723169 16.000000 30 340.342529
-0.359310 -0.131410 3.519572 20.000000 29 340.342531
-1.252155 -0.523813 3.745242 9.000000 24 340.342536
-1.737081 -0.727369 3.955986 96.000000 22 340.342539
-1.858582 -0.778619 3.366241 15.000000 20 340.342542
-1.762124 -0.738208 2.603664 27.000000 18 340.342544
-1.698962 -0.711745 2.075184 33.000000 16 340.342547
-1.672828 -0.705951 1.864066 35.000000 15 340.342504
-1.627527 -0.686831 1.506270 37.000000 13 340.342507
-1.589334 -0.670386 1.215530 38.000000 11 340.342509
-1.560629 -0.658275 0.972802 40.000000 9 340.342512
-1.534333 -0.646868 0.761070 40.000000 7 340.342515
-1.507816 -0.635379 0.570578 52.000000 5 340.342517
-0.375714 -0.158324 0.168880 7.000000 3 340.342520
-0.426636 -0.179695 0.134429 11.000000 1 340.342522
-1.652356 -0.694256 1.676898 37.000000 14 340.342530
-1.604772 -0.674260 1.350999 38.000000 12 340.342533
-1.579713 -0.663407 1.092046 40.000000 10 340.342535
-1.557664 -0.654145 0.868451 45.000000 8 340.342538
-1.533272 -0.643587 0.667567 47.000000 6 340.342540
-0.047172 -0.009995 3.974122 12.000000 31 340.342559
-0.520713 -0.202286 3.551751 31.000000 28 340.342561
-0.707856 -0.273997 3.672681 10.000000 27 340.342564
-1.048733 -0.429803 3.668291 11.000000 25 340.342566
-1.391568 -0.579276 3.610599 3.000000 23 340.342569
-1.917803 -0.798714 3.872907 32.000000 21 340.342571
-1.826821 -0.760820 2.979068 20.000000 19 340.342574
-1.733071 -0.721774 2.323535 28.000000 17 340.342577
-0.213566 -0.071451 3.723169 16.000000 30 340.342584
-0.359766 -0.130155 3.519572 20.000000 29 340.342587
-1.265136 -0.524061 3.778091 11.000000 24 340.342592
-1.739609 -0.721301 3.955986 97.000000 22 340.342595
-1.868515 -0.775125 3.379039 14.000000 20 340.342597
-1.773042 -0.735517 2.615633 26.000000 18 340.342600
-1.707699 -0.708408 2.082534 33.000000 16 340.342602
-1.681863 -0.702857 1.871075 35.000000 15 340.342560
-1.637099 -0.684147 1.512545 37.000000 13 340.342562
-1.599382 -0.668058 1.221013 38.000000 11 340.342565
-1.571093 -0.656239 0.977438 40.000000 9 340.342568
-1.540859 -0.643295 0.762943 39.000000 7 340.342570
-1.514452 -0.631960 0.571987 52.000000 5 340.342573
-0.376264 -0.157012 0.168880 8.000000 3 340.342575
-0.422664 -0.176287 0.133983 11.000000 1 340.342578
-1.661665 -0.691353 1.683547 37.000000 14 340.342586
-1.610847 -0.670207 1.353943 38.000000 12 340.342588
-1.589980 -0.661199 1.097111 40.000000 10 340.342591
-1.568319 -0.652189 0.872647 45.000000 8 340.342593
-1.539870 -0.640043 0.669210 44.000000 6 340.342596
-0.047206 -0.009830 3.974122 12.000000 31 340.342614
-0.519966 -0.199910 3.541872 34.000000 28 340.342617
-0.708808 -0.271525 3.672681 11.000000 27 340.342619
-1.052995 -0.427263 3.677834 8.000000 25 340.342622
-1.426094 -0.587816 3.693444 4.000000 23 340.342624
-1.925009 -0.793841 3.881685 33.000000 21 340.342627
-1.837270 -0.757657 2.991467 20.000000 19 340.342629
-1.744471 -0.719386 2.335046 28.000000 17 340.342632
-0.213814 -0.070705 3.723169 16.000000 30 340.342640
-0.359715 -0.128719 3.514601 20.000000 29 340.342642
-1.282923 -0.526190 3.825019 10.000000 24 340.342647
-1.742117 -0.715224 3.955986 97.000000 22 340.342650
-1.878447 -0.771570 3.391837 14.000000 20 340.342653
-1.781174 -0.731614 2.623612 27.000000 18 340.342655
-1.716434 -0.705019 2.089884 32.000000 16 340.342658
-1.690897 -0.699709 1.878084 34.000000 15 340.342615
-1.643074 -0.679917 1.515683 37.000000 13 340.342618
-1.609432 -0.665667 1.226496 38.000000 11 340.342621
-1.577468 -0.652444 0.979756 40.000000 9 340.342623
-1.551664 -0.641454 0.766689 39.000000 7 340.342626
-1.525516 -0.630333 0.574806 52.000000 5 340.342628
-0.363190 -0.150070 0.166082 11.000000 3 340.342631
-0.423277 -0.174811 0.133983 11.000000 1 340.342633
-1.670974 -0.688393 1.690197 37.000000 14 340.342641
-1.620652 -0.667659 1.359829 38.000000 12 340.342644
-1.596265 -0.657287 1.099643 40.000000 10 340.342646
-1.574783 -0.648438 0.874746 45.000000 8 340.342649
-1.546462 -0.636461 0.670852 47.000000 6 340.342651
-0.047284 -0.009671 3.979122 12.000000 31 340.342670
-0.519207 -0.197543 3.531994 37.000000 28 340.342672
-0.709751 -0.269049 3.672681 9.000000 27 340.342675
-1.044779 -0.419688 3.644432 5.000000 25 340.342677
-1.460696 -0.596121 3.776289 8.000000 23 340.342680
-1.932204 -0.788928 3.890462 34.000000 21 340.342682
-1.847719 -0.754430 3.003866 19.000000 19 340.342685
-1.752908 -0.715716 2.342720 28.000000 17 340.342688
-0.214060 -0.069958 3.723169 16.000000 30 340.342695
-0.360162 -0.127463 3.514601 20.000000 29 340.342698
-1.284752 -0.521709 3.825019 10.000000 24 340.342703
-1.746620 -0.709959 3.960486 96.000000 22 340.342706
-1.890792 -0.768938 3.408901 15.000000 20 340.342708
-1.792093 -0.728798 2.635580 26.000000 18 340.342711
-1.725165 -0.701578 2.097235 33.000000 16 340.342713
-1.699929 -0.696507 1.885093 34.000000 15 340.342671
-1.652641 -0.677129 1.521959 37.000000 13 340.342673
-1.615615 -0.661629 1.229237 39.000000 11 340.342676
-1.587935 -0.650291 0.984392 40.000000 9 340.342679
-1.558184 -0.637790 0.768562 40.000000 7 340.342681
-1.532147 -0.626821 0.576215 50.000000 5 340.342684
-0.368258 -0.150661 0.167014 11.000000 3 340.342686
-0.423885 -0.173332 0.133983 11.000000 1 340.342689
-1.680282 -0.685377 1.696847 37.000000 14 340.342697
-1.626715 -0.663525 1.362772 38.000000 12 340.342699
-1.606534 -0.654966 1.104708 40.000000 10 340.342702
-1.585442 -0.646364 0.878942 47.000000 8 340.342704
-1.553047 -0.632841 0.672495 47.000000 6 340.342707
-0.047317 -0.009505 3.979122 12.000000 31 340.342725
-0.519166 -0.195456 3.527054 39.000000 28 340.342728
-0.710686 -0.266570 3.672681 9.000000 27 340.342730
-1.060116 -0.421556 3.692149 4.000000 25 340.342733
-1.509864 -0.610047 3.895955 12.000000 23 340.342735
-1.941610 -0.784872 3.903628 35.000000 21 340.342738
-1.858168 -0.751140 3.016265 20.000000 19 340.342741
-1.764312 -0.713198 2.354231 27.000000 17 340.342743
-0.214302 -0.069210 3.723169 16.000000 30 340.342751
-0.360605 -0.126205 3.514601 20.000000 29 340.342753
-1.280161 -0.514646 3.806248 11.000000 24 340.342759
-1.749088 -0.703857 3.960486 97.000000 22 340.342761
-1.900723 -0.765256 3.421699 14.000000 20 340.342764
-1.803014 -0.725915 2.647549 26.000000 18 340.342766
-1.733893 -0.698084 2.104585 33.000000 16 340.342769
-1.708959 -0.693250 1.892102 34.000000 15 340.342726
-1.658602 -0.672820 1.525097 37.000000 13 340.342729
-1.625665 -0.659128 1.234720 38.000000 11 340.342732
-1.594301 -0.646409 0.986710 39.000000 9 340.342734
-1.564697 -0.634088 0.770435 40.000000 7 340.342737
-1.538772 -0.623270 0.577624 52.000000 5 340.342739
-0.391547 -0.158596 0.171677 7.000000 3 340.342742
-0.429103 -0.173720 0.134429 12.000000 1 340.342744
-1.686127 -0.680906 1.700172 36.000000 14 340.342752
-1.636517 -0.660869 1.368658 37.000000 12 340.342755
-1.612809 -0.650968 1.107241 39.000000 10 340.342757
-1.591897 -0.642525 0.881040 47.000000 8 340.342760
-1.559626 -0.629183 0.674138 47.000000 6 340.342762
-0.047350 -0.009340 3.979122 12.000000 31 340.342781
-0.519845 -0.193642 3.527054 42.000000 28 340.342783
-0.710658 -0.263734 3.667786 9.000000 27 340.342786
-1.047683 -0.412384 3.644432 3.000000 25 340.342788
-1.511985 -0.604773 3.895955 12.000000 23 340.342791
-1.951011 -0.780760 3.916794 36.000000 21 340.342793
-1.868616 -0.747785 3.028664 20.000000 19 340.342796
-1.772744 -0.709417 2.361904 27.000000 17 340.342799
-0.214266 -0.068375 3.718178 16.000000 30 340.342806
-0.360539 -0.124772 3.509629 20.000000 29 340.342809
-1.283553 -0.510813 3.810941 10.000000 24 340.342814
-1.751534 -0.697748 3.960486 97.000000 22 340.342817
-1.910651 -0.761513 3.434496 14.000000 20 340.342819
-1.813936 -0.722964 2.659517 26.000000 18 340.342822
-1.742618 -0.694537 2.111935 32.000000 16 340.342824
-1.717988 -0.689938 1.899111 34.000000 15 340.342782
-1.668166 -0.669928 1.531372 37.000000 13 340.342785
-1.635716 -0.656565 1.240203 38.000000 11 340.342787
-1.600659 -0.642490 0.989028 39.000000 9 340.342790
-1.571204 -0.630349 0.772308 40.000000 7 340.342792
-1.549844 -0.621466 0.580442 45.000000 5 340.342795
-0.429707 -0.172221 0.134429 12.000000 1 340.342800
-1.695429 -0.677788 1.706821 36.000000 14 340.342808
-1.646320 -0.658153 1.374545 38.000000 12 340.342810
-1.623078 -0.648533 1.112305 40.000000 10 340.342813
-1.602559 -0.640332 0.885236 45.000000 8 340.342815
-1.570585 -0.627238 0.677423 45.000000 6 340.342818
-0.533428 -0.212711 0.116841 6.000000 0 340.342826
-0.047382 -0.009175 3.979122 12.000000 31 340.342836
-0.521248 -0.192095 3.531994 42.000000 28 340.342839
-0.711574 -0.261251 3.667786 9.000000 27 340.342841
-1.053291 -0.410351 3.658747 3.000000 25 340.342844
-1.526802 -0.604526 3.928173 33.000000 23 340.342846
-1.960406 -0.776592 3.929960 38.000000 21 340.342849
-1.879064 -0.744367 3.041062 20.000000 19 340.342852
-1.781171 -0.705586 2.369578 27.000000 17 340.342854
-0.214504 -0.067627 3.718178 16.000000 30 340.342862
-0.360972 -0.123512 3.509629 19.000000 29 340.342864
-1.283723 -0.505697 3.806248 9.000000 24 340.342870
-1.753959 -0.691629 3.960486 92.000000 22 340.342872
-1.920575 -0.757710 3.447294 15.000000 20 340.342875
-1.822056 -0.718840 2.667496 25.000000 18 340.342877
-1.751339 -0.690938 2.119286 32.000000 16 340.342880
-1.727014 -0.686572 1.906120 34.000000 15 340.342837
-1.674111 -0.665539 1.534510 37.000000 13 340.342840
-1.641884 -0.652395 1.242944 38.000000 11 340.342843
-1.611126 -0.640171 0.993664 39.000000 9 340.342845
-1.582012 -0.628283 0.776054 42.000000 7 340.342848
-1.556463 -0.617822 0.581852 45.000000 5 340.342850
-0.430306 -0.170720 0.134429 12.000000 1 340.342855
-1.704729 -0.674614 1.713471 36.000000 14 340.342863
-1.656125 -0.655377 1.380431 38.000000 12 340.342866
-1.629341 -0.644449 1.114838 39.000000 10 340.342868
-1.609005 -0.636403 0.887334 47.000000 8 340.342871
-1.577156 -0.623488 0.679066 45.000000 6 340.342873
-0.510932 -0.201677 0.115834 10.000000 0 340.342881
-0.047414 -0.009009 3.979122 12.000000 31 340.342892
-0.522645 -0.190540 3.536933 38.000000 28 340.342894
-0.711524 -0.258419 3.662891 9.000000 27 340.342897
-1.527084 -0.598480 3.923570 38.000000 23 340.342902
-1.969796 -0.772368 3.943125 39.000000 21 340.342905
-1.892130 -0.741913 3.057594 19.000000 19 340.342907
-1.792577 -0.702875 2.381089 27.000000 17 340.342910
-0.214739 -0.066878 3.718178 16.000000 30 340.342917
-0.360895 -0.122082 3.504658 19.000000 29 340.342920
-0.965783 -0.364562 4.009187 3.000000 26 340.342923
-1.283872 -0.500586 3.801555 9.000000 24 340.342925
-1.758391 -0.686294 3.964987 91.000000 22 340.342928
-1.928067 -0.752899 3.455826 13.000000 20 340.342930
-1.832976 -0.715765 2.679465 25.000000 18 340.342933
-1.763214 -0.688520 2.130311 32.000000 16 340.342935
-1.736037 -0.683151 1.913130 34.000000 15 340.342893
-1.683669 -0.662542 1.540785 37.000000 13 340.342896
-1.651934 -0.649721 1.248427 38.000000 11 340.342898
-1.617474 -0.636164 0.995982 39.000000 9 340.342901
-1.588510 -0.624453 0.777927 40.000000 7 340.342903
-1.567540 -0.615894 0.584670 40.000000 5 340.342906
-0.426263 -0.167397 0.133983 11.000000 1 340.342911
-1.714028 -0.671383 1.720121 36.000000 14 340.342919
-1.665929 -0.652541 1.386317 38.000000 12 340.342921
-1.639610 -0.641901 1.119903 40.000000 10 340.342924
-1.619669 -0.634092 0.891530 45.000000 8 340.342926
-1.583721 -0.619700 0.680709 47.000000 6 340.342929
-0.506980 -0.198074 0.115632 14.000000 0 340.342937
-0.047445 -0.008844 3.979122 12.000000 31 340.342948
-0.524769 -0.189240 3.546811 34.000000 28 340.342951
-0.712422 -0.255934 3.662891 9.000000 27 340.342953
-1.534628 -0.595265 3.937377 71.000000 23 340.342958
-1.979181 -0.768088 3.956292 43.000000 21 340.342961
-1.902579 -0.738358 3.069993 19.000000 19 340.342963
-1.800997 -0.698933 2.388763 27.000000 17 340.342966
-0.214971 -0.066128 3.718178 16.000000 30 340.342974
-0.361319 -0.120821 3.504658 18.000000 29 340.342976
-0.962336 -0.359429 3.989830 3.000000 26 340.342979
-1.284002 -0.495480 3.796863 9.000000 24 340.342981
-1.760776 -0.680152 3.964987 91.000000 22 340.342984
-1.928251 -0.745224 3.451560 11.000000 20 340.342986
-1.843897 -0.712621 2.691433 25.000000 18 340.342989
-1.771931 -0.684806 2.137661 32.000000 16 340.342992
-1.745057 -0.679676 1.920139 34.000000 15 340.342949
-1.693227 -0.659486 1.547061 37.000000 13 340.342952
-1.661985 -0.646984 1.253910 38.000000 11 340.342954
-1.627941 -0.633729 1.000618 39.000000 9 340.342957
-1.599321 -0.622266 0.781673 40.000000 7 340.342960
-1.574152 -0.612157 0.586079 39.000000 5 340.342962
-0.426845 -0.165908 0.133983 11.000000 1 340.342967
-1.723325 -0.668096 1.726771 36.000000 14 340.342975
-1.675734 -0.649644 1.392204 38.000000 12 340.342978
-1.645861 -0.637732 1.122435 40.000000 10 340.342980
-1.626105 -0.630074 0.893628 45.000000 8 340.342983
-1.590278 -0.615873 0.682351 47.000000 6 340.342985
-0.503008 -0.194501 0.115431 15.000000 0 340.342993
-0.047476 -0.008678 3.979122 12.000000 31 340.343004
-0.526891 -0.187928 3.556690 27.000000 28 340.343006
-0.712351 -0.253105 3.657995 9.000000 27 340.343009
-1.536696 -0.589904 3.937377 85.000000 23 340.343014
-1.986323 -0.762892 3.965069 40.000000 21 340.343016
-1.913025 -0.734739 3.082392 18.000000 19 340.343019
-1.812404 -0.696091 2.400274 26.000000 17 340.343021
-0.215200 -0.065377 3.718178 16.000000 30 340.343029
-0.361231 -0.119392 3.499686 18.000000 29 340.343032
-0.963585 -0.356068 3.989830 3.000000 26 340.343034
-1.282499 -0.489764 3.787477 8.000000 24 340.343037
-1.765174 -0.674780 3.969488 92.000000 22 340.343039
-1.930841 -0.738489 3.451560 8.000000 20 340.343042
-1.857634 -0.710487 2.707391 25.000000 18 340.343045
-1.780643 -0.681038 2.145012 31.000000 16 340.343047
-1.754074 -0.676146 1.927148 34.000000 15 340.343005
-1.702783 -0.656372 1.553337 37.000000 13 340.343007
-1.672037 -0.644185 1.259393 38.000000 11 340.343010
-1.634277 -0.629635 1.002936 40.000000 9 340.343012
-1.605809 -0.618345 0.783546 40.000000 7 340.343015
-1.580756 -0.608381 0.587488 37.000000 5 340.343018
-0.422774 -0.162629 0.133536 11.000000 1 340.343023
-1.732620 -0.664752 1.733420 36.000000 14 340.343030
-1.685539 -0.646686 1.398090 38.000000 12 340.343033
-1.652102 -0.633527 1.124967 39.000000 10 340.343036
-1.636769 -0.627644 0.897824 43.000000 8 340.343038
-1.596828 -0.612008 0.683994 44.000000 6 340.343041
-0.499018 -0.190959 0.115229 16.000000 0 340.343048
-0.047506 -0.008512 3.979122 10.000000 31 340.343059
-0.530475 -0.187120 3.576447 18.000000 28 340.343062
-0.713231 -0.250617 3.657995 9.000000 27 340.343064
-1.542399 -0.585924 3.946583 91.000000 23 340.343069
-1.993453 -0.757656 3.973846 41.000000 21 340.343072
-1.923470 -0.731056 3.094791 18.000000 19 340.343074
-1.820816 -0.692038 2.407948 25.000000 17 340.343077
-0.215427 -0.064625 3.718178 16.000000 30 340.343085
-0.361138 -0.117966 3.494715 18.000000 29 340.343087
-0.961278 -0.351407 3.975312 3.000000 26 340.343090
-1.282587 -0.484674 3.782784 9.000000 24 340.343092
-1.767518 -0.668614 3.969488 92.000000 22 340.343095
-1.933407 -0.731744 3.451560 7.000000 20 340.343098
-1.868559 -0.707199 2.719360 25.000000 18 340.343100
-1.792522 -0.678419 2.156037 31.000000 16 340.343103
-1.763088 -0.672561 1.934157 34.000000 15 340.343060
-1.712338 -0.653199 1.559612 37.000000 13 340.343063
-1.678183 -0.639835 1.262135 38.000000 11 340.343065
-1.644745 -0.627083 1.007573 39.000000 9 340.343068
-1.616622 -0.616038 0.787292 42.000000 7 340.343071
-1.587353 -0.604567 0.588898 35.000000 5 340.343073
-0.423339 -0.161152 0.133536 12.000000 1 340.343078
-1.741912 -0.661351 1.740070 36.000000 14 340.343086
-1.691565 -0.642233 1.401033 38.000000 12 340.343089
-1.662365 -0.630815 1.130032 39.000000 10 340.343091
-1.643194 -0.623537 0.899922 42.000000 8 340.343094
-1.607785 -0.609780 0.687279 46.000000 6 340.343096
-0.495010 -0.187446 0.115028 15.000000 0 340.343104
-0.047535 -0.008347 3.979122 10.000000 31 340.343115
-0.528924 -0.184501 3.561629 13.000000 28 340.343117
-0.713139 -0.247792 3.653100 10.000000 27 340.343120
-1.544435 -0.580537 3.946583 91.000000 23 340.343125
-1.998327 -0.751536 3.978235 41.000000 21 340.343127
-1.933912 -0.727309 3.107190 17.000000 19 340.343130
-1.832223 -0.689063 2.419459 25.000000 17 340.343132
-0.215373 -0.063792 3.713186 16.000000 30 340.343140
-0.361547 -0.116705 3.494715 18.000000 29 340.343143
-0.979060 -0.354035 4.043061 4.000000 26 340.343145
-1.282654 -0.479590 3.778091 9.000000 24 340.343148
-1.769841 -0.662440 3.969488 92.000000 22 340.343150
-1.933507 -0.724076 3.447294 7.000000 20 340.343153
-1.879484 -0.703843 2.731328 24.000000 18 340.343156
-1.801229 -0.674535 2.163388 31.000000 16 340.343158
-1.772097 -0.668921 1.941166 33.000000 15 340.343116
-1.721892 -0.649967 1.565888 37.000000 13 340.343118
-1.688231 -0.636925 1.267617 38.000000 11 340.343121
-1.651069 -0.622902 1.009891 39.000000 9 340.343124
-1.623100 -0.612027 0.789165 42.000000 7 340.343126
-1.598432 -0.602406 0.591716 32.000000 5 340.343129
-0.423899 -0.159674 0.133536 11.000000 1 340.343134
-1.751201 -0.657893 1.746720 36.000000 14 340.343142
-1.701365 -0.639168 1.406920 38.000000 12 340.343144
-1.668593 -0.626524 1.132565 39.000000 10 340.343147
-1.653858 -0.620988 0.904118 42.000000 8 340.343149
-1.614326 -0.605823 0.688922 44.000000 6 340.343152
-0.490983 -0.183964 0.114826 16.000000 0 340.343159
-0.047608 -0.008184 3.984122 12.000000 31 340.343170
-0.528095 -0.182148 3.551751 8.000000 28 340.343173
-0.714000 -0.245301 3.653100 10.000000 27 340.343175
-1.548283 -0.575823 3.951185 91.000000 23 340.343180
-2.003184 -0.745392 3.982624 40.000000 21 340.343183
-1.944351 -0.723498 3.119588 17.000000 19 340.343185
-1.843631 -0.686017 2.430969 25.000000 17 340.343188
-0.215595 -0.063040 3.713186 16.000000 30 340.343196
-0.361444 -0.115281 3.489744 17.000000 29 340.343198
-0.986212 -0.352732 4.067257 5.000000 26 340.343201
-1.282702 -0.474511 3.773399 9.000000 24 340.343203
-1.774185 -0.657014 3.973989 91.000000 22 340.343206
-1.936022 -0.717323 3.447294 6.000000 20 340.343209
-1.893234 -0.701467 2.747286 25.000000 18 340.343211
-1.809930 -0.670599 2.170738 31.000000 16 340.343214
-1.781103 -0.665227 1.948175 33.000000 15 340.343171
-1.731444 -0.646677 1.572163 37.000000 13 340.343174
-1.698278 -0.633952 1.273100 38.000000 11 340.343176
-1.661534 -0.620233 1.014527 39.000000 9 340.343179
-1.633914 -0.609598 0.792911 44.000000 7 340.343182
-1.609515 -0.600175 0.594534 27.000000 5 340.343184
-0.419787 -0.156454 0.133090 11.000000 1 340.343189
-1.760488 -0.654378 1.753369 35.000000 14 340.343197
-1.711163 -0.636041 1.412806 38.000000 12 340.343200
-1.678853 -0.623698 1.137630 39.000000 10 340.343202
-1.660270 -0.616792 0.906216 45.000000 8 340.343205
-1.625285 -0.603472 0.692207 46.000000 6 340.343207
-0.491622 -0.182249 0.114826 16.000000 0 340.343215
-0.047636 -0.008018 3.984122 12.000000 31 340.343226
-0.527256 -0.179803 3.541872 7.000000 28 340.343228
-0.714852 -0.242807 3.653100 11.000000 27 340.343231
-1.550283 -0.570415 3.951185 91.000000 23 340.343236
-2.017015 -0.742533 4.004567 39.000000 21 340.343238
-1.954787 -0.719623 3.131987 17.000000 19 340.343241
-1.855040 -0.682900 2.442480 25.000000 17 340.343244
-0.215813 -0.062287 3.713186 16.000000 30 340.343251
-0.361334 -0.113859 3.484772 16.000000 29 340.343254
-0.999296 -0.353479 4.115649 7.000000 26 340.343256
-1.282730 -0.469437 3.768706 9.000000 24 340.343259
-1.776468 -0.650817 3.973989 91.000000 22 340.343262
-1.945861 -0.713253 3.460092 6.000000 20 340.343264
-1.904161 -0.697966 2.759255 24.000000 18 340.343267
-1.821809 -0.667778 2.181763 31.000000 16 340.343269
-1.790105 -0.661478 1.955184 33.000000 15 340.343227
-1.740994 -0.643328 1.578439 35.000000 13 340.343229
-1.704403 -0.629469 1.275842 37.000000 11 340.343232
-1.667844 -0.615965 1.016845 39.000000 9 340.343235
-1.640381 -0.605496 0.794784 42.000000 7 340.343237
-1.616101 -0.596214 0.595944 22.000000 5 340.343240
-0.420331 -0.154988 0.133090 11.000000 1 340.343245
-1.769771 -0.650806 1.760019 35.000000 14 340.343253
-1.720960 -0.632854 1.418692 38.000000 12 340.343255
-1.689113 -0.620809 1.142694 39.000000 10 340.343258
-1.670933 -0.614124 0.910412 43.000000 8 340.343260
-1.631814 -0.599423 0.693850 44.000000 6 340.343263
-0.487564 -0.178812 0.114625 15.000000 0 340.343270
-0.047707 -0.007856 3.989122 12.000000 31 340.343281
-0.527144 -0.177713 3.536933 7.000000 28 340.343284
-0.715695 -0.240311 3.653100 10.000000 27 340.343286
-1.552265 -0.565000 3.951185 91.000000 23 340.343291
-2.024097 -0.737128 4.013344 35.000000 21 340.343294
-1.965219 -0.715683 3.144386 17.000000 19 340.343296
-1.866449 -0.679712 2.453991 25.000000 17 340.343299
-0.216019 -0.061571 3.713186 16.000000 30 340.343307
-0.361200 -0.112502 3.479801 16.000000 29 340.343309
-1.005211 -0.351825 4.135006 11.000000 26 340.343312
-1.282657 -0.464593 3.764013 9.000000 24 340.343314
-1.778729 -0.644612 3.973989 91.000000 22 340.343317
-1.948338 -0.706456 3.460092 6.000000 20 340.343320
-1.915086 -0.694397 2.771223 23.000000 18 340.343322
-1.830387 -0.664045 2.189114 30.000000 16 340.343325
-1.799102 -0.657674 1.962193 33.000000 15 340.343282
-1.750541 -0.639920 1.584714 35.000000 13 340.343285
-1.714445 -0.626386 1.281325 37.000000 11 340.343288
-1.678307 -0.613180 1.021481 39.000000 9 340.343290
-1.646734 -0.601644 0.796657 42.000000 7 340.343293
-1.636094 -0.597433 0.601580 17.000000 5 340.343295
-0.420869 -0.153519 0.133090 11.000000 1 340.343300
-1.779051 -0.647178 1.766669 35.000000 14 340.343308
-1.730755 -0.629607 1.424579 38.000000 12 340.343311
-1.695213 -0.616678 1.145227 39.000000 10 340.343313
-1.677225 -0.610131 0.912510 42.000000 8 340.343316
-1.638231 -0.595623 0.695493 45.000000 6 340.343318
-0.488155 -0.177194 0.114625 14.000000 0 340.343326
-0.047733 -0.007697 3.989122 12.000000 31 340.343337
-0.526256 -0.175474 3.527054 8.000000 28 340.343339
-0.716488 -0.237936 3.653100 10.000000 27 340.343342
-1.554130 -0.559850 3.951185 92.000000 23 340.343347
-2.073861 -0.747470 4.105506 26.000000 21 340.343349
-1.975524 -0.712025 3.156785 17.000000 19 340.343352
-1.877741 -0.676780 2.465502 24.000000 17 340.343355
-0.215953 -0.060739 3.708194 16.000000 30 340.343362
-0.361080 -0.111085 3.474829 15.000000 29 340.343365
-1.012377 -0.350370 4.159203 7.000000 26 340.343367
-1.282647 -0.459531 3.759320 9.000000 24 340.343370
-1.780856 -0.638710 3.973989 92.000000 22 340.343373
-1.980128 -0.710562 3.511283 7.000000 20 340.343375
-1.925889 -0.691096 2.783192 23.000000 18 340.343378
-1.842267 -0.661087 2.200139 29.000000 16 340.343380
-1.807980 -0.654131 1.969202 33.000000 15 340.343338
-1.759975 -0.636760 1.590990 37.000000 13 340.343340
-1.720445 -0.622119 1.284066 37.000000 11 340.343343
-1.684497 -0.609117 1.023799 39.000000 9 340.343346
-1.653184 -0.597468 0.798530 42.000000 7 340.343348
-1.629146 -0.588459 0.598762 13.000000 5 340.343351
-0.421376 -0.152123 0.133090 11.000000 1 340.343356
-1.788214 -0.643805 1.773318 35.000000 14 340.343364
-1.736637 -0.625233 1.427522 38.000000 12 340.343366
-1.705469 -0.613676 1.150292 39.000000 10 340.343369
-1.687886 -0.607346 0.916707 42.000000 8 340.343371
-1.649188 -0.593097 0.698778 45.000000 6 340.343374
-0.484068 -0.173801 0.114423 14.000000 0 340.343382
-0.047759 -0.007531 3.989122 12.000000 31 340.343392
-0.526127 -0.173393 3.522115 8.000000 28 340.343395
-0.717314 -0.235433 3.653100 13.000000 27 340.343397
-1.557915 -0.555077 3.955788 92.000000 23 340.343402
-2.117077 -0.754707 4.184502 11.000000 21 340.343405
-1.985949 -0.707959 3.169184 16.000000 19 340.343408
-1.889152 -0.673451 2.477013 24.000000 17 340.343410
-0.216164 -0.059985 3.708194 16.000000 30 340.343418
-0.361465 -0.109824 3.474829 14.000000 29 340.343420
-1.013594 -0.346834 4.159203 7.000000 26 340.343423
-1.282616 -0.454475 3.754628 9.000000 24 340.343426
-1.785128 -0.633218 3.978490 92.000000 22 340.343428
-2.017005 -0.715858 3.571006 10.000000 20 340.343431
-1.939651 -0.688402 2.799150 23.000000 18 340.343433
-1.850953 -0.656920 2.207490 30.000000 16 340.343436
-1.816968 -0.650219 1.976211 33.000000 15 340.343393
-1.769518 -0.633236 1.597265 36.000000 13 340.343396
-1.730481 -0.618926 1.289549 37.000000 11 340.343399
-1.694956 -0.606217 1.028435 39.000000 9 340.343401
-1.663990 -0.594815 0.802276 40.000000 7 340.343404
-1.635708 -0.584383 0.600171 9.000000 5 340.343406
-0.421904 -0.150651 0.133090 11.000000 1 340.343411
-1.797486 -0.640064 1.779968 35.000000 14 340.343419
-1.746424 -0.621879 1.433408 38.000000 12 340.343422
-1.711662 -0.609164 1.152824 39.000000 10 340.343424
-1.694271 -0.602972 0.918805 42.000000 8 340.343427
-1.655697 -0.588919 0.700421 45.000000 6 340.343429
-0.484672 -0.172110 0.114423 14.000000 0 340.343437
-0.047785 -0.007364 3.989122 12.000000 31 340.343448
-0.525990 -0.171315 3.517176 11.000000 28 340.343450
-0.718131 -0.232928 3.653100 13.000000 27 340.343453
-1.559843 -0.549635 3.955788 91.000000 23 340.343458
-2.144553 -0.756074 4.232777 10.000000 21 340.343460
-1.996370 -0.703830 3.181583 16.000000 19 340.343463
-1.900561 -0.670050 2.488523 24.000000 17 340.343466
-0.216372 -0.059230 3.708194 16.000000 30 340.343473
-0.361335 -0.108409 3.469858 14.000000 29 340.343476
-1.014798 -0.343294 4.159203 10.000000 26 340.343478
-1.280938 -0.448854 3.745242 9.000000 24 340.343481
-1.787327 -0.626983 3.978490 92.000000 22 340.343484
-2.066248 -0.725223 3.652059 15.000000 20 340.343486
-1.950574 -0.684621 2.811118 23.000000 18 340.343489
-1.862831 -0.653823 2.218515 30.000000 16 340.343491
-1.829312 -0.647442 1.986725 32.000000 15 340.343449
-1.779057 -0.629653 1.603541 36.000000 13 340.343452
-1.740515 -0.615670 1.295032 37.000000 11 340.343454
-1.701238 -0.601775 1.030753 39.000000 9 340.343457
-1.670427 -0.590548 0.804149 40.000000 7 340.343459
-1.660354 -0.586661 0.607217 5.000000 5 340.343462
-0.422428 -0.149177 0.133090 11.000000 1 340.343467
-1.810277 -0.637507 1.789943 35.000000 14 340.343475
-1.756209 -0.618464 1.439294 38.000000 12 340.343477
-1.721912 -0.606049 1.157889 39.000000 10 340.343480
-1.704928 -0.600068 0.923001 43.000000 8 340.343482
-1.666653 -0.586270 0.703706 48.000000 6 340.343485
-0.480556 -0.168762 0.114222 14.000000 0 340.343493
-0.047767 -0.007194 3.984122 12.000000 31 340.343503
-0.525845 -0.169241 3.512237 14.000000 28 340.343506
-0.718940 -0.230420 3.653100 13.000000 27 340.343508
-1.085031 -0.371389 3.711236 2.000000 25 340.343511
-1.563597 -0.544830 3.960390 83.000000 23 340.343513
-2.147179 -0.748584 4.232777 10.000000 21 340.343516
-2.009443 -0.700562 3.198114 16.000000 19 340.343519
-1.911970 -0.666578 2.500035 24.000000 17 340.343521
-0.216298 -0.058401 3.703203 16.000000 30 340.343529
-0.361711 -0.107147 3.469858 13.000000 29 340.343531
-1.015990 -0.339749 4.159203 12.000000 26 340.343534
-1.280866 -0.443815 3.740550 9.000000 24 340.343537
-1.789505 -0.620740 3.978490 90.000000 22 340.343539
-2.076159 -0.720572 3.664857 13.000000 20 340.343542
-1.964341 -0.681761 2.827076 23.000000 18 340.343544
-1.871508 -0.649540 2.225865 30.000000 16 340.343547
-1.838293 -0.643409 1.993734 32.000000 15 340.343504
-1.792267 -0.627297 1.612954 36.000000 13 340.343507
-1.746600 -0.610972 1.297774 37.000000 11 340.343510
-1.711692 -0.598758 1.035389 38.000000 9 340.343512
-1.681231 -0.587773 0.807896 40.000000 7 340.343515
-0.422946 -0.147702 0.133090 11.000000 1 340.343522
-1.819544 -0.633641 1.796592 35.000000 14 340.343530
-1.765992 -0.614989 1.445181 38.000000 12 340.343533
-1.732160 -0.602868 1.162954 39.000000 10 340.343535
-1.711298 -0.595605 0.925099 40.000000 8 340.343538
-1.677610 -0.583552 0.706991 48.000000 6 340.343540
-0.481142 -0.167084 0.114222 13.000000 0 340.343548
-0.047792 -0.007027 3.984122 12.000000 31 340.343559
-0.525692 -0.167169 3.507297 13.000000 28 340.343561
-0.719740 -0.227909 3.653100 13.000000 27 340.343564
-1.082077 -0.366164 3.696921 2.000000 25 340.343566
-1.565489 -0.539369 3.960390 84.000000 23 340.343569
-2.165634 -0.746549 4.263498 10.000000 21 340.343572
-2.019858 -0.696295 3.210513 15.000000 19 340.343574
-1.923378 -0.663034 2.511545 23.000000 17 340.343577
-0.216500 -0.057645 3.703203 16.000000 30 340.343584
-0.361570 -0.105735 3.464886 13.000000 29 340.343587
-1.015976 -0.335806 4.154363 11.000000 26 340.343590
-1.280775 -0.438781 3.735857 10.000000 24 340.343592
-1.793720 -0.615196 3.982990 90.000000 22 340.343595
-2.098396 -0.720092 3.698984 13.000000 20 340.343597
-1.975261 -0.677835 2.839045 22.000000 18 340.343600
-1.883384 -0.646304 2.236891 29.000000 16 340.343602
-1.847268 -0.639321 2.000743 32.000000 15 340.343560
-1.801803 -0.623583 1.619230 36.000000 13 340.343563
-1.756626 -0.607605 1.303257 37.000000 11 340.343565
-1.717958 -0.594228 1.037707 38.000000 9 340.343568
-1.687654 -0.583416 0.809769 40.000000 7 340.343570
-0.423459 -0.146225 0.133090 11.000000 1 340.343578
-1.828807 -0.629717 1.803242 35.000000 14 340.343586
-1.775771 -0.611453 1.451067 37.000000 12 340.343588
-1.738331 -0.598221 1.165486 38.000000 10 340.343591
-1.721950 -0.592582 0.929295 40.000000 8 340.343593
-1.688568 -0.580764 0.710277 48.000000 6 340.343596
-0.476997 -0.163781 0.114020 14.000000 0 340.343604
-0.047816 -0.006860 3.984122 12.000000 31 340.343614
-0.525531 -0.165101 3.502358 13.000000 28 340.343617
-0.719559 -0.225092 3.648205 13.000000 27 340.343619
-1.567363 -0.533901 3.960390 92.000000 23 340.343624
-2.184100 -0.744395 4.294219 13.000000 21 340.343627
-2.030267 -0.691964 3.222912 15.000000 19 340.343629
-1.934784 -0.659419 2.523056 23.000000 17 340.343632
-0.216700 -0.056889 3.703203 16.000000 30 340.343640
-0.361937 -0.104472 3.464886 12.000000 29 340.343642
-1.017142 -0.332258 4.154363 8.000000 26 340.343645
-1.280664 -0.433755 3.731164 10.000000 24 340.343647
-1.795857 -0.608931 3.982990 92.000000 22 340.343650
-2.110776 -0.716115 3.716048 13.000000 20 340.343652
-1.989032 -0.674809 2.855003 21.000000 18 340.343655
-1.895260 -0.642993 2.247916 28.000000 16 340.343658
-1.859611 -0.636333 2.011257 32.000000 15 340.343615
-1.811335 -0.619811 1.625505 36.000000 13 340.343618
-1.766649 -0.604176 1.308739 37.000000 11 340.343620
-1.728406 -0.591094 1.042343 38.000000 9 340.343623
-1.698454 -0.580520 0.813515 40.000000 7 340.343626
-0.423967 -0.144746 0.133090 11.000000 1 340.343633
-1.841599 -0.626940 1.813217 35.000000 14 340.343641
-1.785548 -0.607855 1.456953 37.000000 12 340.343644
-1.748571 -0.594927 1.170551 39.000000 10 340.343646
-1.728305 -0.588029 0.931393 40.000000 8 340.343649
-1.699527 -0.577907 0.713562 48.000000 6 340.343651
-0.477566 -0.162115 0.114020 14.000000 0 340.343659
-0.047796 -0.006691 3.979122 12.000000 31 340.343670
-0.526847 -0.163495 3.507297 13.000000 28 340.343672
-0.720341 -0.222579 3.648205 12.000000 27 340.343675
-1.086025 -0.359069 3.701693 2.000000 25 340.343677
-1.571068 -0.529050 3.964993 92.000000 23 340.343680
-2.202578 -0.742122 4.324939 16.000000 21 340.343682
-2.043336 -0.688466 3.239444 15.000000 19 340.343685
-1.946189 -0.655732 2.534567 23.000000 17 340.343687
-0.216897 -0.056132 3.703203 16.000000 30 340.343695
-0.362299 -0.103208 3.464886 12.000000 29 340.343698
-1.015901 -0.327933 4.144685 7.000000 26 340.343700
-1.280534 -0.428734 3.726471 10.000000 24 340.343703
-1.800037 -0.603351 3.987491 92.000000 22 340.343705
-2.128099 -0.713718 3.741644 13.000000 20 340.343708
-1.999948 -0.670737 2.866971 21.000000 18 340.343711
-1.903921 -0.638529 2.255267 28.000000 16 340.343713
-1.868577 -0.632123 2.018266 31.000000 15 340.343671
-1.820863 -0.615979 1.631781 36.000000 13 340.343673
-1.776669 -0.600684 1.314222 37.000000 11 340.343676
-1.738853 -0.587895 1.046979 38.000000 9 340.343678
-1.704862 -0.576072 0.815388 40.000000 7 340.343681
-0.419751 -0.141672 0.132644 11.000000 1 340.343689
-1.850855 -0.622890 1.819866 35.000000 14 340.343696
-1.795320 -0.604198 1.462840 37.000000 12 340.343699
-1.758810 -0.591569 1.175616 39.000000 10 340.343702
-1.738950 -0.584886 0.935589 40.000000 8 340.343704
-1.706010 -0.573476 0.715205 46.000000 6 340.343707
-0.478129 -0.160447 0.114020 14.000000 0 340.343714
-0.047820 -0.006524 3.979122 12.000000 31 340.343725
-0.527414 -0.161655 3.507297 16.000000 28 340.343728
-0.721113 -0.220063 3.648205 12.000000 27 340.343730
-1.572905 -0.523563 3.964993 92.000000 23 340.343735
-2.221066 -0.739728 4.355660 26.000000 21 340.343738
-2.053737 -0.683997 3.251843 14.000000 19 340.343740
-1.957591 -0.651974 2.546078 23.000000 17 340.343743
-0.217092 -0.055375 3.703203 17.000000 30 340.343751
-0.362657 -0.101943 3.464886 12.000000 29 340.343753
-1.015841 -0.324003 4.139845 6.000000 26 340.343756
-1.280385 -0.423719 3.721778 10.000000 24 340.343758
-1.802132 -0.597064 3.987491 91.000000 22 340.343761
-2.145431 -0.711209 3.767239 13.000000 20 340.343764
-2.013720 -0.667545 2.882929 21.000000 18 340.343766
-1.915792 -0.635080 2.266292 28.000000 16 340.343769
-1.880919 -0.628990 2.028780 31.000000 15 340.343726
-1.830386 -0.612089 1.638057 36.000000 13 340.343729
-1.786687 -0.597129 1.319705 37.000000 11 340.343731
-1.749298 -0.584631 1.051615 38.000000 9 340.343734
-1.715657 -0.573055 0.819134 40.000000 7 340.343737
-0.420243 -0.140206 0.132644 11.000000 1 340.343744
-1.860105 -0.618783 1.826516 34.000000 14 340.343752
-1.805089 -0.600479 1.468726 37.000000 12 340.343755
-1.769046 -0.588146 1.180681 38.000000 10 340.343757
-1.745288 -0.580244 0.937687 40.000000 8 340.343760
-1.716965 -0.570495 0.718490 48.000000 6 340.343762
-0.478686 -0.158777 0.114020 14.000000 0 340.343770
-0.047886 -0.006359 3.984122 12.000000 31 340.343781
-0.528719 -0.160038 3.512237 17.000000 28 340.343783
-0.721877 -0.217544 3.648205 12.000000 27 340.343786
-1.576579 -0.518679 3.969595 91.000000 23 340.343791
-2.221359 -0.731221 4.351272 29.000000 21 340.343793
-2.064131 -0.679464 3.264241 14.000000 19 340.343796
-1.968990 -0.648144 2.557589 21.000000 17 340.343798
-0.217284 -0.054617 3.703203 17.000000 30 340.343806
-0.363011 -0.100676 3.464886 12.000000 29 340.343809
-1.014567 -0.319699 4.130167 5.000000 26 340.343811
-1.280216 -0.418711 3.717086 10.000000 24 340.343814
-1.806275 -0.591447 3.991992 93.000000 22 340.343816
-2.160292 -0.707775 3.788569 13.000000 20 340.343819
-2.027495 -0.664265 2.898887 20.000000 18 340.343822
-1.924441 -0.630500 2.273643 28.000000 16 340.343824
-1.893261 -0.625778 2.039293 31.000000 15 340.343782
-1.839903 -0.608139 1.644332 36.000000 13 340.343784
-1.796701 -0.593512 1.325188 37.000000 11 340.343787
-1.759741 -0.581300 1.056251 38.000000 9 340.343790
-1.726451 -0.569969 0.822880 40.000000 7 340.343792
-0.420729 -0.138738 0.132644 11.000000 1 340.343800
-1.872896 -0.615785 1.836491 34.000000 14 340.343808
-1.814854 -0.596699 1.474612 37.000000 12 340.343810
-1.779280 -0.584659 1.185746 38.000000 10 340.343813
-1.755926 -0.576982 0.941883 39.000000 8 340.343815
-1.723432 -0.565972 0.720133 46.000000 6 340.343818
-0.479238 -0.157105 0.114020 13.000000 0 340.343825
-0.047907 -0.006192 3.984122 12.000000 31 340.343836
-0.529274 -0.158191 3.512237 17.000000 28 340.343839
-0.722632 -0.215023 3.648205 12.000000 27 340.343841
-1.578380 -0.513173 3.969595 91.000000 23 340.343846
-2.226176 -0.724204 4.355660 33.000000 21 340.343849
-2.077194 -0.675737 3.280774 14.000000 19 340.343851
-1.980386 -0.644242 2.569099 20.000000 17 340.343854
-0.217473 -0.053858 3.703203 16.000000 30 340.343862
-0.363360 -0.099408 3.464886 12.000000 29 340.343864
-1.013274 -0.315408 4.120489 5.000000 26 340.343867
-1.281670 -0.414239 3.717086 11.000000 24 340.343869
-1.808328 -0.585139 3.991992 93.000000 22 340.343872
-2.177637 -0.705050 3.814165 13.000000 20 340.343875
-2.038404 -0.659969 2.910856 20.000000 18 340.343877
-1.936306 -0.626911 2.284668 28.000000 16 340.343880
-1.902214 -0.621380 2.046302 31.000000 15 340.343837
-1.849416 -0.604130 1.650608 36.000000 13 340.343840
-1.806712 -0.589832 1.330671 36.000000 11 340.343842
-1.770182 -0.577904 1.060887 38.000000 9 340.343845
-1.737244 -0.566815 0.826626 39.000000 7 340.343848
-0.416476 -0.135726 0.132198 11.000000 1 340.343855
-1.882138 -0.611552 1.843140 35.000000 14 340.343863
-1.824614 -0.592858 1.480499 37.000000 12 340.343866
-1.789511 -0.581107 1.190811 38.000000 10 340.343868
-1.766563 -0.573653 0.946079 40.000000 8 340.343871
-1.734381 -0.562868 0.723418 46.000000 6 340.343873
-0.475030 -0.153891 0.113818 14.000000 0 340.343881
-0.047972 -0.006027 3.989122 12.000000 31 340.343892
-0.529823 -0.156343 3.512237 14.000000 28 340.343894
-0.723378 -0.212499 3.648205 13.000000 27 340.343897
-1.113724 -0.351053 3.778040 2.000000 25 340.343899
-1.580162 -0.507660 3.969595 92.000000 23 340.343902
-2.228690 -0.716429 4.355660 37.000000 21 340.343904
-2.087577 -0.671065 3.293172 14.000000 19 340.343907
-1.991780 -0.640268 2.580610 20.000000 17 340.343910
-0.217660 -0.053099 3.703203 16.000000 30 340.343917
-0.363705 -0.098139 3.464886 12.000000 29 340.343920
-1.014369 -0.311870 4.120489 6.000000 26 340.343922
-1.281464 -0.409238 3.712393 11.000000 24 340.343925
-1.812434 -0.579486 3.996493 94.000000 22 340.343928
-2.192505 -0.701418 3.835494 12.000000 20 340.343930
-2.052177 -0.656523 2.926814 20.000000 18 340.343933
-1.948169 -0.623247 2.295693 27.000000 16 340.343935
-1.914553 -0.618023 2.056816 31.000000 15 340.343893
