# .PCD v.7 - Point Cloud Data file format
VERSION .7
FIELDS x y z intensity ring timestamp
SIZE 4 4 4 4 2 8
TYPE F F F F U D
COUNT 1 1 1 1 1 1
WIDTH 907
HEIGHT 1
VIEWPOINT 0 0 0 1 0 0 0
POINTS 907
DATA ascii
-0.358680 -0.116892 3.469858 12.000000 29 340.243193
-0.967432 -0.352890 3.999508 3.000000 26 340.243195
-1.281310 -0.483170 3.778091 9.000000 24 340.243198
-1.772059 -0.668918 3.978490 91.000000 22 340.243200
-1.936357 -0.731316 3.455826 7.000000 20 340.243203
-1.863413 -0.703765 2.711381 25.000000 18 340.243206
-1.783480 -0.673574 2.145012 31.000000 16 340.243208
-1.756891 -0.668792 1.927148 34.000000 15 340.243166
-1.705518 -0.649234 1.553337 37.000000 13 340.243168
-1.670813 -0.635689 1.256652 38.000000 11 340.243171
-1.636901 -0.622784 1.002936 40.000000 9 340.243174
-1.604052 -0.609966 0.781673 40.000000 7 340.243176
-1.587775 -0.603459 0.588898 5.000000 5 340.243179
-0.423451 -0.160857 0.133536 11.000000 1 340.243184
-1.735389 -0.657488 1.733420 36.000000 14 340.243192
-1.688233 -0.639620 1.398090 38.000000 12 340.243194
-1.654741 -0.626601 1.124967 39.000000 10 340.243197
-1.635140 -0.619175 0.895726 43.000000 8 340.243199
-1.599377 -0.605314 0.683994 44.000000 6 340.243202
-0.504487 -0.190633 0.115431 13.000000 0 340.243209
-0.047411 -0.008301 3.964123 12.000000 31 340.243220
-0.522446 -0.181838 3.517176 12.000000 28 340.243223
-0.714274 -0.247627 3.657995 14.000000 27 340.243225
-1.550327 -0.581517 3.960390 93.000000 23 340.243230
-2.005581 -0.752666 3.991401 38.000000 21 340.243233
-1.929150 -0.723981 3.098924 18.000000 19 340.243235
-1.826701 -0.685531 2.411785 25.000000 17 340.243238
-0.214027 -0.063238 3.688228 16.000000 30 340.243246
-0.359086 -0.115639 3.469858 12.000000 29 340.243248
-0.987589 -0.356338 4.076936 5.000000 26 340.243251
-1.281372 -0.478091 3.773399 9.000000 24 340.243253
-1.774384 -0.662728 3.978490 91.000000 22 340.243256
-1.934012 -0.722726 3.447294 7.000000 20 340.243259
-1.874328 -0.700421 2.723349 25.000000 18 340.243261
-1.795348 -0.670904 2.156037 31.000000 16 340.243264
-1.765889 -0.665170 1.934157 34.000000 15 340.243221
-1.715060 -0.646021 1.559612 37.000000 13 340.243224
-1.680848 -0.632799 1.262135 38.000000 11 340.243226
-1.647357 -0.620188 1.007573 39.000000 9 340.243229
-1.614849 -0.607628 0.785419 42.000000 7 340.243232
-0.424010 -0.159378 0.133536 11.000000 1 340.243239
-1.744667 -0.654048 1.740070 36.000000 14 340.243247
-1.698025 -0.636561 1.403976 38.000000 12 340.243250
-1.664993 -0.623846 1.130032 39.000000 10 340.243252
-1.645791 -0.616649 0.899922 42.000000 8 340.243255
-1.605903 -0.601384 0.685637 46.000000 6 340.243257
-0.505150 -0.188870 0.115431 14.000000 0 340.243265
-0.047439 -0.008136 3.964123 12.000000 31 340.243276
-0.522343 -0.179760 3.512237 15.000000 28 340.243278
-0.715134 -0.245132 3.657995 14.000000 27 340.243281
-1.552347 -0.576101 3.960390 93.000000 23 340.243286
-2.019425 -0.749831 4.013344 37.000000 21 340.243288
-1.939579 -0.720181 3.111322 17.000000 19 340.243291
-1.838099 -0.682498 2.423295 25.000000 17 340.243294
-0.213968 -0.062411 3.683236 16.000000 30 340.243301
-0.359488 -0.114385 3.469858 12.000000 29 340.243304
-0.994750 -0.355001 4.101132 6.000000 26 340.243306
-1.281414 -0.473017 3.768706 10.000000 24 340.243309
-1.776686 -0.656530 3.978490 91.000000 22 340.243312
-1.946307 -0.719589 3.464358 6.000000 20 340.243314
-1.888070 -0.698055 2.739307 24.000000 18 340.243317
-1.804038 -0.666984 2.163388 31.000000 16 340.243319
-1.774884 -0.661492 1.941166 33.000000 15 340.243277
-1.724599 -0.642749 1.565888 37.000000 13 340.243279
-1.690884 -0.629847 1.267617 38.000000 11 340.243282
-1.653663 -0.615980 1.009891 39.000000 9 340.243285
-1.621305 -0.603605 0.787292 40.000000 7 340.243287
-0.424564 -0.157897 0.133536 11.000000 1 340.243295
-1.757443 -0.651850 1.750044 36.000000 14 340.243303
-1.704027 -0.632035 1.406920 38.000000 12 340.243305
-1.671203 -0.619529 1.132565 39.000000 10 340.243308
-1.652189 -0.612478 0.902020 42.000000 8 340.243310
-1.616849 -0.599056 0.688922 44.000000 6 340.243313
-0.501120 -0.185373 0.115229 14.000000 0 340.243320
-0.047468 -0.007970 3.964123 12.000000 31 340.243331
-0.522967 -0.177936 3.512237 14.000000 28 340.243334
-0.715985 -0.242634 3.657995 14.000000 27 340.243336
-1.556183 -0.571353 3.964993 92.000000 23 340.243341
-2.037772 -0.748560 4.044065 35.000000 21 340.243344
-1.950006 -0.716317 3.123721 17.000000 19 340.243346
-1.849498 -0.679394 2.434806 25.000000 17 340.243349
-0.214185 -0.061664 3.683236 16.000000 30 340.243357
-0.359375 -0.112970 3.464886 12.000000 29 340.243359
-1.001915 -0.353619 4.125328 9.000000 26 340.243362
-1.279816 -0.467358 3.759320 9.000000 24 340.243364
-1.781012 -0.651072 3.982990 91.000000 22 340.243367
-1.953706 -0.714582 3.472890 6.000000 20 340.243370
-1.898986 -0.694566 2.751276 24.000000 18 340.243372
-1.815907 -0.664177 2.174413 31.000000 16 340.243375
-1.783874 -0.657760 1.948175 33.000000 15 340.243332
-1.734138 -0.639419 1.572163 37.000000 13 340.243335
-1.696995 -0.625387 1.270359 38.000000 11 340.243338
-1.664117 -0.613268 1.014527 39.000000 9 340.243340
-1.632103 -0.601147 0.791038 44.000000 7 340.243343
-0.425112 -0.156414 0.133536 11.000000 1 340.243350
-1.766719 -0.648284 1.756694 35.000000 14 340.243358
-1.713812 -0.628868 1.412806 38.000000 12 340.243361
-1.681450 -0.616660 1.137630 39.000000 10 340.243363
-1.662839 -0.609832 0.906216 43.000000 8 340.243366
-1.623364 -0.595034 0.690565 44.000000 6 340.243368
-0.501764 -0.183622 0.115229 14.000000 0 340.243376
-0.047452 -0.007801 3.959123 12.000000 31 340.243387
-0.523585 -0.176109 3.512237 11.000000 28 340.243389
-0.716828 -0.240134 3.657995 14.000000 27 340.243392
-1.558168 -0.565917 3.964993 92.000000 23 340.243397
-2.067393 -0.751260 4.096729 29.000000 21 340.243399
-1.960429 -0.712389 3.136120 17.000000 19 340.243402
-1.860897 -0.676219 2.446317 25.000000 17 340.243405
-0.214678 -0.060994 3.688228 17.000000 30 340.243412
-0.359767 -0.111715 3.464886 12.000000 29 340.243415
-1.010269 -0.352605 4.154363 9.000000 26 340.243417
-1.279816 -0.462301 3.754628 10.000000 24 340.243420
-1.783274 -0.644851 3.982990 92.000000 22 340.243423
-1.956189 -0.707758 3.472890 7.000000 20 340.243425
-1.912736 -0.692034 2.767234 24.000000 18 340.243428
-1.824590 -0.660141 2.181763 30.000000 16 340.243430
-1.792860 -0.653974 1.955184 33.000000 15 340.243388
-1.743673 -0.636030 1.578439 37.000000 13 340.243390
-1.707025 -0.622324 1.275842 38.000000 11 340.243393
-1.670410 -0.608973 1.016845 39.000000 9 340.243396
-1.638547 -0.597033 0.792911 42.000000 7 340.243398
-0.425656 -0.154929 0.133536 11.000000 1 340.243406
-1.775992 -0.644662 1.763344 35.000000 14 340.243414
-1.723596 -0.625640 1.418692 38.000000 12 340.243416
-1.687646 -0.612258 1.140162 39.000000 10 340.243419
-1.669224 -0.605572 0.908314 43.000000 8 340.243421
-1.634311 -0.592583 0.693850 47.000000 6 340.243424
-0.497704 -0.180169 0.115028 13.000000 0 340.243432
-0.047479 -0.007635 3.959123 12.000000 31 340.243442
-0.524197 -0.174281 3.512237 11.000000 28 340.243445
-0.717662 -0.237630 3.657995 14.000000 27 340.243447
-1.070149 -0.377811 3.673062 2.000000 25 340.243450
-1.560134 -0.560475 3.964993 92.000000 23 340.243452
-2.090294 -0.751332 4.136227 15.000000 21 340.243455
-1.970848 -0.708397 3.148519 16.000000 19 340.243458
-1.869280 -0.671888 2.453991 25.000000 17 340.243460
-0.214889 -0.060244 3.688228 17.000000 30 340.243468
-0.360155 -0.110458 3.464886 12.000000 29 340.243470
-1.010304 -0.348666 4.149524 9.000000 26 340.243473
-1.279797 -0.457251 3.749935 10.000000 24 340.243476
-1.787565 -0.639356 3.987491 92.000000 22 340.243478
-1.993025 -0.713227 3.532613 9.000000 20 340.243481
-1.923653 -0.688400 2.779202 23.000000 18 340.243483
-1.836460 -0.657194 2.192789 30.000000 16 340.243486
-1.801841 -0.650132 1.962193 33.000000 15 340.243443
-1.753206 -0.632582 1.584714 37.000000 13 340.243446
-1.717054 -0.619199 1.281325 37.000000 11 340.243449
-1.680861 -0.606144 1.021481 39.000000 9 340.243451
-1.644982 -0.592882 0.794784 42.000000 7 340.243454
-0.421508 -0.151755 0.133090 11.000000 1 340.243461
-1.785261 -0.640982 1.769994 36.000000 14 340.243469
-1.733377 -0.622352 1.424579 38.000000 12 340.243472
-1.697888 -0.609275 1.145227 39.000000 10 340.243474
-1.679871 -0.602807 0.912510 42.000000 8 340.243477
-1.645259 -0.590063 0.697135 47.000000 6 340.243479
-0.493627 -0.176747 0.114826 14.000000 0 340.243487
-0.047505 -0.007469 3.959123 12.000000 31 340.243498
-0.524802 -0.172450 3.512237 13.000000 28 340.243500
-0.718487 -0.235124 3.657995 13.000000 27 340.243503
-1.067231 -0.372596 3.658747 3.000000 25 340.243505
-1.562081 -0.555025 3.964993 92.000000 23 340.243508
-2.126764 -0.756069 4.202057 7.000000 21 340.243510
-1.981263 -0.704341 3.160918 16.000000 19 340.243513
-1.880676 -0.668580 2.465502 25.000000 17 340.243516
-0.215098 -0.059494 3.688228 17.000000 30 340.243523
-0.360538 -0.109201 3.464886 13.000000 29 340.243526
-1.011515 -0.345137 4.149524 10.000000 26 340.243528
-1.279758 -0.452205 3.745242 10.000000 24 340.243531
-1.789786 -0.633112 3.987491 91.000000 22 340.243534
-2.022547 -0.715838 3.579538 13.000000 20 340.243536
-1.934568 -0.684698 2.791171 24.000000 18 340.243539
-1.845134 -0.653042 2.200139 30.000000 16 340.243541
-1.814176 -0.647435 1.972707 33.000000 15 340.243499
-1.762737 -0.629075 1.590990 37.000000 13 340.243502
-1.723143 -0.614606 1.284066 37.000000 11 340.243504
-1.687139 -0.601761 1.023799 39.000000 9 340.243507
-1.655775 -0.590249 0.798530 42.000000 7 340.243509
-0.422036 -0.150283 0.133090 11.000000 1 340.243517
-1.791006 -0.635996 1.773318 35.000000 14 340.243525
-1.743157 -0.619002 1.430465 38.000000 12 340.243527
-1.704067 -0.604787 1.147759 39.000000 10 340.243530
-1.686242 -0.598458 0.914608 42.000000 8 340.243532
-1.651760 -0.585895 0.698778 45.000000 6 340.243535
-0.489531 -0.173355 0.114625 13.000000 0 340.243543
-0.047531 -0.007304 3.959123 10.000000 31 340.243553
-0.525401 -0.170617 3.512237 14.000000 28 340.243556
-0.719303 -0.232614 3.657995 12.000000 27 340.243558
-1.075585 -0.371305 3.682606 2.000000 25 340.243561
-1.564009 -0.549569 3.964993 91.000000 23 340.243563
-2.133911 -0.750229 4.210835 6.000000 21 340.243566
-1.991674 -0.700221 3.173317 16.000000 19 340.243569
-1.892072 -0.665201 2.477013 24.000000 17 340.243571
-0.215584 -0.058817 3.693220 16.000000 30 340.243579
-0.360917 -0.107941 3.464886 13.000000 29 340.243581
-1.011522 -0.341202 4.144685 7.000000 26 340.243584
-1.279700 -0.447166 3.740550 10.000000 24 340.243587
-1.791985 -0.626861 3.987491 91.000000 22 340.243589
-2.054572 -0.719112 3.630729 14.000000 20 340.243592
-1.945481 -0.680927 2.803139 23.000000 18 340.243594
-1.857002 -0.649957 2.211165 30.000000 16 340.243597
-1.823151 -0.643472 1.979716 33.000000 15 340.243554
-1.772264 -0.625509 1.597265 37.000000 13 340.243557
-1.733165 -0.611369 1.289549 37.000000 11 340.243560
-1.697585 -0.598816 1.028435 39.000000 9 340.243562
-1.662198 -0.586007 0.800403 42.000000 7 340.243565
-0.417860 -0.147155 0.132644 11.000000 1 340.243572
-1.800262 -0.632215 1.779968 35.000000 14 340.243580
-1.752935 -0.615592 1.436351 38.000000 12 340.243583
-1.714304 -0.601690 1.152824 39.000000 10 340.243585
-1.692603 -0.594071 0.916707 42.000000 8 340.243588
-1.662707 -0.583252 0.702063 48.000000 6 340.243590
-0.485418 -0.169994 0.114423 13.000000 0 340.243598
-0.047556 -0.007138 3.959123 10.000000 31 340.243609
-0.526733 -0.169019 3.517176 14.000000 28 340.243611
-0.719141 -0.229792 3.653100 12.000000 27 340.243614
-1.081115 -0.368995 3.696921 2.000000 25 340.243616
-1.565917 -0.544106 3.964993 92.000000 23 340.243619
-2.145569 -0.745923 4.228389 6.000000 21 340.243622
-2.002080 -0.696036 3.185716 16.000000 19 340.243624
-1.903467 -0.661751 2.488523 24.000000 17 340.243627
-0.215788 -0.058064 3.693220 16.000000 30 340.243634
-0.361292 -0.106681 3.464886 13.000000 29 340.243637
-1.011513 -0.337272 4.139845 7.000000 26 340.243640
-1.277991 -0.441570 3.731164 10.000000 24 340.243642
-1.796220 -0.621314 3.991992 92.000000 22 340.243645
-2.076787 -0.718760 3.664857 14.000000 20 340.243647
-1.959239 -0.678075 2.819097 22.000000 18 340.243650
-1.865667 -0.645689 2.218515 29.000000 16 340.243652
-1.832120 -0.639454 1.986725 32.000000 15 340.243610
-1.781787 -0.621885 1.603541 36.000000 13 340.243613
-1.739236 -0.606693 1.292291 37.000000 11 340.243615
-1.703848 -0.594346 1.030753 39.000000 9 340.243618
-1.672988 -0.583254 0.804149 40.000000 7 340.243620
-0.418371 -0.145695 0.132644 11.000000 1 340.243628
-1.809513 -0.628377 1.786618 35.000000 14 340.243636
-1.762709 -0.612122 1.442237 38.000000 12 340.243638
-1.720467 -0.597116 1.155357 39.000000 10 340.243641
-1.703242 -0.591135 0.920903 40.000000 8 340.243643
-1.669195 -0.578992 0.703706 48.000000 6 340.243646
-0.481288 -0.166664 0.114222 13.000000 0 340.243654
-0.047537 -0.006969 3.954123 12.000000 31 340.243664
-0.527320 -0.167179 3.517176 14.000000 28 340.243667
-0.719939 -0.227281 3.653100 12.000000 27 340.243669
-1.089472 -0.367606 3.720780 2.000000 25 340.243672
-1.569655 -0.539272 3.969595 92.000000 23 340.243674
-2.159487 -0.742323 4.250332 8.000000 21 340.243677
-2.012481 -0.691788 3.198114 16.000000 19 340.243679
-1.917892 -0.659271 2.503871 24.000000 17 340.243682
-0.215710 -0.057238 3.688228 16.000000 30 340.243690
-0.361662 -0.105419 3.464886 13.000000 29 340.243692
-1.011490 -0.333345 4.135006 7.000000 26 340.243695
-1.277891 -0.436548 3.726471 10.000000 24 340.243697
-1.798378 -0.615040 3.991992 92.000000 22 340.243700
-2.091621 -0.715728 3.686187 13.000000 20 340.243702
-1.970149 -0.674159 2.831066 22.000000 18 340.243705
-1.877532 -0.642465 2.229541 29.000000 16 340.243708
-1.841083 -0.635382 1.993734 32.000000 15 340.243665
-1.791307 -0.618201 1.609816 36.000000 13 340.243668
-1.749249 -0.603345 1.297774 37.000000 11 340.243670
-1.714288 -0.591284 1.035389 39.000000 9 340.243673
-1.683780 -0.580432 0.807896 40.000000 7 340.243676
-0.418877 -0.144234 0.132644 11.000000 1 340.243683
-1.818760 -0.624483 1.793267 35.000000 14 340.243691
-1.772481 -0.608590 1.448124 38.000000 12 340.243694
-1.730696 -0.593906 1.160421 39.000000 10 340.243696
-1.709588 -0.586659 0.923001 42.000000 8 340.243699
-1.680140 -0.576226 0.706991 49.000000 6 340.243701
-0.477140 -0.163364 0.114020 13.000000 0 340.243709
-0.047561 -0.006803 3.954123 12.000000 31 340.243720
-0.527900 -0.165337 3.517176 14.000000 28 340.243722
-0.720728 -0.224766 3.653100 12.000000 27 340.243725
-1.571528 -0.533789 3.969595 92.000000 23 340.243730
-2.173407 -0.738635 4.272275 10.000000 21 340.243732
-2.022877 -0.687475 3.210513 15.000000 19 340.243735
-1.929288 -0.655667 2.515382 24.000000 17 340.243737
-0.215908 -0.056484 3.688228 16.000000 30 340.243745
-0.362541 -0.104303 3.469858 13.000000 29 340.243748
-1.011451 -0.329423 4.130167 6.000000 26 340.243750
-1.277773 -0.431533 3.721778 10.000000 24 340.243753
-1.802577 -0.609456 3.996493 93.000000 22 340.243755
-2.106459 -0.712601 3.707516 13.000000 20 340.243758
-1.983910 -0.671141 2.847024 22.000000 18 340.243761
-1.889397 -0.639166 2.240566 29.000000 16 340.243763
-1.853415 -0.632406 2.004248 32.000000 15 340.243721
-1.804507 -0.615716 1.619230 35.000000 13 340.243723
-1.759260 -0.599935 1.303257 37.000000 11 340.243726
-1.720535 -0.586726 1.037707 39.000000 9 340.243728
-1.690184 -0.576047 0.809769 42.000000 7 340.243731
-0.419378 -0.142771 0.132644 11.000000 1 340.243739
-1.831537 -0.621731 1.803242 35.000000 14 340.243746
-1.782250 -0.604998 1.454010 37.000000 12 340.243749
-1.740924 -0.590631 1.165486 38.000000 10 340.243752
-1.720221 -0.583604 0.927197 40.000000 8 340.243754
-1.691086 -0.573391 0.710277 48.000000 6 340.243757
-0.477707 -0.161698 0.114020 13.000000 0 340.243764
-0.047584 -0.006637 3.954123 12.000000 31 340.243775
-0.527732 -0.163265 3.512237 16.000000 28 340.243778
-0.721508 -0.222249 3.653100 9.000000 27 340.243780
-1.575233 -0.528922 3.974198 91.000000 23 340.243785
-2.191869 -0.736384 4.302996 14.000000 21 340.243788
-2.035934 -0.683995 3.227045 15.000000 19 340.243790
-1.940682 -0.651992 2.526893 23.000000 17 340.243793
-0.216104 -0.055730 3.688228 16.000000 30 340.243801
-0.362903 -0.103036 3.469858 14.000000 29 340.243803
-1.010200 -0.325120 4.120489 6.000000 26 340.243806
-1.275997 -0.425977 3.712393 11.000000 24 340.243808
-1.806759 -0.603851 4.000994 93.000000 22 340.243811
-2.121301 -0.709379 3.728846 13.000000 20 340.243814
-1.994816 -0.667080 2.858992 22.000000 18 340.243816
-1.898047 -0.634718 2.247916 29.000000 16 340.243819
-1.862370 -0.628213 2.011257 32.000000 15 340.243776
-1.814022 -0.611902 1.625505 35.000000 13 340.243779
-1.769268 -0.596461 1.308739 37.000000 11 340.243781
-1.730969 -0.583547 1.042343 38.000000 9 340.243784
-1.700971 -0.573104 0.813515 42.000000 7 340.243787
-0.419874 -0.141306 0.132644 11.000000 1 340.243794
-1.840777 -0.617710 1.809892 35.000000 14 340.243802
-1.792015 -0.601345 1.459896 37.000000 12 340.243805
-1.751150 -0.587292 1.170551 39.000000 10 340.243807
-1.726551 -0.579039 0.929295 40.000000 8 340.243810
-1.697555 -0.568985 0.711920 49.000000 6 340.243812
-0.478269 -0.160029 0.114020 13.000000 0 340.243820
-0.047607 -0.006471 3.954123 12.000000 31 340.243831
-0.528298 -0.161421 3.512237 20.000000 28 340.243833
-0.722279 -0.219729 3.653100 9.000000 27 340.243836
-1.107463 -0.360802 3.768497 2.000000 25 340.243838
-1.577070 -0.523421 3.974198 91.000000 23 340.243841
-2.210342 -0.734014 4.333717 19.000000 21 340.243843
-2.048992 -0.680431 3.243577 15.000000 19 340.243846
-1.952074 -0.648244 2.538404 23.000000 17 340.243848
-0.216016 -0.054906 3.683236 16.000000 30 340.243856
-0.363261 -0.101769 3.469858 14.000000 29 340.243859
-1.011329 -0.321592 4.120489 7.000000 26 340.243861
-1.277476 -0.421520 3.712393 12.000000 24 340.243864
-1.808855 -0.597540 4.000994 93.000000 22 340.243866
-2.136145 -0.706062 3.750175 13.000000 20 340.243869
-2.008579 -0.663896 2.874950 22.000000 18 340.243872
-1.909908 -0.631280 2.258942 28.000000 16 340.243874
-1.874701 -0.625092 2.021770 31.000000 15 340.243832
-1.823533 -0.608028 1.631781 36.000000 13 340.243834
-1.779274 -0.592926 1.314222 37.000000 11 340.243837
-1.741401 -0.580303 1.046979 38.000000 9 340.243840
-1.707359 -0.568627 0.815388 40.000000 7 340.243842
-0.420365 -0.139839 0.132644 11.000000 1 340.243850
-1.853555 -0.614808 1.819866 35.000000 14 340.243858
-1.801776 -0.597631 1.465783 37.000000 12 340.243860
-1.761374 -0.583889 1.175616 38.000000 10 340.243863
-1.737178 -0.575865 0.933491 40.000000 8 340.243865
-1.708496 -0.566026 0.715205 48.000000 6 340.243868
-0.474081 -0.156790 0.113818 13.000000 0 340.243875
-0.047673 -0.006307 3.959123 12.000000 31 340.243886
-0.527370 -0.159129 3.502358 29.000000 28 340.243889
-0.723042 -0.217207 3.653100 10.000000 27 340.243891
-1.104450 -0.355562 3.754181 2.000000 25 340.243894
-1.580744 -0.518521 3.978800 91.000000 23 340.243896
-2.228825 -0.731524 4.364437 27.000000 21 340.243899
-2.059376 -0.675907 3.255976 15.000000 19 340.243901
-1.963463 -0.644426 2.549915 23.000000 17 340.243904
-0.216206 -0.054152 3.683236 16.000000 30 340.243912
-0.364128 -0.100642 3.474829 14.000000 29 340.243914
-1.001645 -0.314669 4.076936 7.000000 26 340.243917
-1.278940 -0.417058 3.712393 13.000000 24 340.243919
-1.813000 -0.591898 4.005495 93.000000 22 340.243922
-2.153471 -0.703461 3.775771 13.000000 20 340.243925
-2.019479 -0.659688 2.886919 21.000000 18 340.243927
-1.921768 -0.627767 2.269968 28.000000 16 340.243930
-1.883645 -0.620777 2.028780 31.000000 15 340.243887
-1.833039 -0.604096 1.638057 36.000000 13 340.243890
-1.789275 -0.589328 1.319705 36.000000 11 340.243892
-1.747624 -0.575606 1.049297 38.000000 9 340.243895
-1.718140 -0.565563 0.819134 40.000000 7 340.243898
-0.420850 -0.138371 0.132644 11.000000 1 340.243905
-1.862787 -0.610661 1.826516 35.000000 14 340.243913
-1.811533 -0.593856 1.471669 37.000000 12 340.243916
-1.771596 -0.580421 1.180681 38.000000 10 340.243918
-1.747803 -0.572624 0.937687 40.000000 8 340.243921
-1.714950 -0.561529 0.716848 48.000000 6 340.243923
-0.474626 -0.155134 0.113818 12.000000 0 340.243931
-0.047695 -0.006140 3.959123 12.000000 31 340.243942
-0.527178 -0.157065 3.497419 34.000000 28 340.243944
-0.723796 -0.214681 3.653100 10.000000 27 340.243947
-1.097145 -0.348989 3.725551 2.000000 25 340.243949
-1.582544 -0.513000 3.978800 91.000000 23 340.243952
-2.226807 -0.722261 4.355660 30.000000 21 340.243954
-2.072429 -0.672187 3.272508 14.000000 19 340.243957
-1.974849 -0.640535 2.561425 22.000000 17 340.243960
-0.216394 -0.053396 3.683236 17.000000 30 340.243967
-0.364478 -0.099370 3.474829 14.000000 29 340.243970
-1.014751 -0.314897 4.125328 8.000000 26 340.243972
-1.280388 -0.412591 3.712393 16.000000 24 340.243975
-1.815056 -0.585566 4.005495 93.000000 22 340.243978
-2.168324 -0.699945 3.797101 13.000000 20 340.243980
-2.033242 -0.656338 2.902877 20.000000 18 340.243983
-1.930400 -0.623138 2.277318 28.000000 16 340.243985
-1.895974 -0.617511 2.039293 31.000000 15 340.243943
-1.842539 -0.600105 1.644332 36.000000 13 340.243945
-1.799274 -0.585667 1.325188 36.000000 11 340.243948
-1.758048 -0.572245 1.053933 38.000000 9 340.243951
-1.724513 -0.560997 0.821007 40.000000 7 340.243953
-0.421331 -0.136901 0.132644 11.000000 1 340.243961
-1.875565 -0.607607 1.836491 34.000000 14 340.243969
-1.821285 -0.590020 1.477555 37.000000 12 340.243971
-1.781814 -0.576890 1.185746 38.000000 10 340.243974
-1.758427 -0.569315 0.941883 40.000000 8 340.243976
-1.725886 -0.558447 0.720133 46.000000 6 340.243979
-0.470410 -0.151941 0.113617 13.000000 0 340.243986
-0.047716 -0.005974 3.959123 12.000000 31 340.243997
-0.526232 -0.154787 3.487540 37.000000 28 340.244000
-0.724541 -0.212154 3.653100 9.000000 27 340.244002
-1.586186 -0.508069 3.983403 83.000000 23 340.244007
-2.233878 -0.715946 4.364437 34.000000 21 340.244010
-2.085482 -0.668384 3.289039 14.000000 19 340.244012
-1.986232 -0.636573 2.572937 21.000000 17 340.244015
-0.216579 -0.052641 3.683236 17.000000 30 340.244023
-0.364822 -0.098097 3.474829 14.000000 29 340.244025
-1.018249 -0.312089 4.135006 8.000000 26 340.244028
-1.283465 -0.408643 3.717086 19.000000 24 340.244030
-1.817088 -0.579227 4.005495 94.000000 22 340.244033
-2.185662 -0.697127 3.822696 12.000000 20 340.244036
-2.047007 -0.652900 2.918835 21.000000 18 340.244038
-1.942253 -0.619486 2.288343 27.000000 16 340.244041
-1.904907 -0.613074 2.046302 31.000000 15 340.243998
-1.855740 -0.597248 1.653745 36.000000 13 340.244001
-1.809268 -0.581943 1.330671 36.000000 11 340.244004
-1.768469 -0.568818 1.058569 38.000000 9 340.244006
-1.735287 -0.557811 0.824753 40.000000 7 340.244009
-0.417064 -0.133907 0.132198 11.000000 1 340.244016
-1.884788 -0.603333 1.843140 35.000000 14 340.244024
-1.831033 -0.586124 1.483442 37.000000 12 340.244027
-1.792030 -0.573294 1.190811 38.000000 10 340.244029
-1.769049 -0.565939 0.946079 40.000000 8 340.244032
-1.732322 -0.553857 0.721776 44.000000 6 340.244034
-0.470938 -0.150298 0.113617 14.000000 0 340.244042
-0.047780 -0.005809 3.964123 12.000000 31 340.244053
-0.526022 -0.152733 3.482601 38.000000 28 340.244055
-0.725277 -0.209623 3.653100 8.000000 27 340.244058
-1.100981 -0.341763 3.730323 2.000000 25 340.244060
-1.587950 -0.502529 3.983403 83.000000 23 340.244063
-2.238647 -0.708867 4.368826 38.000000 21 340.244065
-2.095851 -0.663649 3.301438 14.000000 19 340.244068
-1.997611 -0.632539 2.584447 21.000000 17 340.244071
-0.216480 -0.051819 3.678245 17.000000 30 340.244078
-0.365162 -0.096823 3.474829 14.000000 29 340.244081
-1.022944 -0.309626 4.149524 8.000000 26 340.244083
-1.284883 -0.404160 3.717086 22.000000 24 340.244086
-1.821176 -0.573535 4.009995 94.000000 22 340.244089
-2.200519 -0.693412 3.844026 12.000000 20 340.244091
-2.057897 -0.648468 2.930803 19.000000 18 340.244094
-1.950870 -0.614741 2.295693 27.000000 16 340.244096
-1.917231 -0.609663 2.056816 30.000000 15 340.244054
-1.865233 -0.593126 1.660021 36.000000 13 340.244056
-1.819259 -0.578157 1.336154 36.000000 11 340.244059
-1.778888 -0.565325 1.063205 38.000000 9 340.244062
-1.741642 -0.553153 0.826626 40.000000 7 340.244064
-0.417529 -0.132451 0.132198 11.000000 1 340.244072
-1.897564 -0.600129 1.853115 34.000000 14 340.244080
-1.840776 -0.582166 1.489328 37.000000 12 340.244082
-1.802241 -0.569633 1.195875 38.000000 10 340.244085
-1.779669 -0.562496 0.950275 40.000000 8 340.244087
-1.743251 -0.550651 0.725061 44.000000 6 340.244090
-0.372974 -0.117672 0.146696 5.000000 2 340.244095
-0.471460 -0.148653 0.113617 13.000000 0 340.244098
-0.047800 -0.005642 3.964123 12.000000 31 340.244108
-0.527300 -0.151109 3.487540 38.000000 28 340.244111
-0.725025 -0.206812 3.648205 6.000000 27 340.244113
-1.079320 -0.330916 3.653975 2.000000 25 340.244116
-1.591559 -0.497566 3.988006 91.000000 23 340.244118
-2.243394 -0.701764 4.373215 45.000000 21 340.244121
-2.108897 -0.659689 3.317970 14.000000 19 340.244124
-2.008986 -0.628434 2.595958 21.000000 17 340.244126
-0.216659 -0.051063 3.678245 17.000000 30 340.244134
-0.366015 -0.095682 3.479801 14.000000 29 340.244136
-1.026429 -0.306773 4.159203 8.000000 26 340.244139
-1.289582 -0.400697 3.726471 22.000000 24 340.244142
-1.823167 -0.567174 4.009995 93.000000 22 340.244144
-2.217867 -0.690377 3.869622 12.000000 20 340.244147
-2.071659 -0.644864 2.946761 19.000000 18 340.244149
-1.962715 -0.610950 2.306719 27.000000 16 340.244152
-1.926152 -0.605105 2.063825 30.000000 15 340.244109
-1.874720 -0.588945 1.666296 35.000000 13 340.244112
-1.829245 -0.574308 1.341637 36.000000 11 340.244115
-1.789305 -0.561766 1.067841 38.000000 9 340.244117
-1.752409 -0.549846 0.830372 40.000000 7 340.244120
-0.417989 -0.130993 0.132198 11.000000 1 340.244127
-1.906776 -0.595729 1.859764 34.000000 14 340.244135
-1.850513 -0.578148 1.495214 37.000000 12 340.244138
-1.812449 -0.565909 1.200940 38.000000 10 340.244140
-1.785954 -0.557633 0.952373 40.000000 8 340.244143
-1.754179 -0.547376 0.728346 44.000000 6 340.244145
-0.363926 -0.113423 0.145316 7.000000 2 340.244150
-0.471976 -0.147007 0.113617 13.000000 0 340.244153
-0.047820 -0.005475 3.964123 12.000000 31 340.244164
-0.529319 -0.149689 3.497419 34.000000 28 340.244166
-0.725742 -0.204279 3.648205 5.000000 27 340.244169
-1.106199 -0.334934 3.739866 2.000000 25 340.244171
-1.593286 -0.492007 3.988006 91.000000 23 340.244174
-2.248120 -0.694636 4.377604 46.000000 21 340.244176
-2.121942 -0.655647 3.334502 13.000000 19 340.244179
-2.023419 -0.625203 2.611306 20.000000 17 340.244182
-0.216836 -0.050306 3.678245 17.000000 30 340.244189
-0.366347 -0.094404 3.479801 14.000000 29 340.244192
-1.027494 -0.303188 4.159203 8.000000 26 340.244194
-1.286024 -0.394674 3.712393 18.000000 24 340.244197
-1.825136 -0.560807 4.009995 94.000000 22 340.244200
-2.232728 -0.686464 3.890951 12.000000 20 340.244202
-2.085421 -0.641172 2.962719 19.000000 18 340.244205
-1.974557 -0.607084 2.317744 26.000000 16 340.244207
-1.938471 -0.601548 2.074339 30.000000 15 340.244165
-1.884200 -0.584705 1.672572 35.000000 13 340.244168
-1.839226 -0.570396 1.347120 36.000000 11 340.244170
-1.803949 -0.559453 1.074795 38.000000 9 340.244173
-1.758746 -0.545098 0.832245 40.000000 7 340.244175
-0.413687 -0.128060 0.131752 11.000000 1 340.244183
-1.919549 -0.592373 1.869739 34.000000 14 340.244191
-1.860244 -0.574069 1.501101 37.000000 12 340.244193
-1.822653 -0.562120 1.206005 38.000000 10 340.244196
-1.796563 -0.554071 0.956570 39.000000 8 340.244198
-1.760592 -0.542641 0.729989 44.000000 6 340.244201
-0.364320 -0.112152 0.145316 10.000000 2 340.244206
-0.472486 -0.145358 0.113617 13.000000 0 340.244209
-0.047838 -0.005308 3.964123 12.000000 31 340.244219
-0.530587 -0.148049 3.502358 29.000000 28 340.244222
-0.725470 -0.201473 3.643310 5.000000 27 340.244224
-1.596863 -0.487013 3.992608 91.000000 23 340.244229
-2.250530 -0.686784 4.377604 41.000000 21 340.244232
-2.134983 -0.651521 3.351033 13.000000 19 340.244235
-2.034788 -0.620943 2.622817 20.000000 17 340.244237
-0.217010 -0.049549 3.678245 16.000000 30 340.244245
-0.366156 -0.092994 3.474829 14.000000 29 340.244247
-1.029753 -0.299951 4.164042 10.000000 26 340.244250
-1.279136 -0.387680 3.688929 14.000000 24 340.244253
-1.827083 -0.554432 4.009995 94.000000 22 340.244255
-2.250084 -0.683212 3.916547 11.000000 20 340.244258
-2.096298 -0.636515 2.974688 18.000000 18 340.244260
-1.986396 -0.603143 2.328770 26.000000 16 340.244263
-1.947378 -0.596868 2.081348 30.000000 15 340.244220
-1.897396 -0.581546 1.681985 35.000000 13 340.244223
-1.849202 -0.566422 1.352603 36.000000 11 340.244226
-1.814363 -0.555748 1.079431 38.000000 9 340.244228
-1.769504 -0.541670 0.835991 40.000000 7 340.244231
-0.414131 -0.126615 0.131752 11.000000 1 340.244238
-1.928749 -0.587846 1.876389 34.000000 14 340.244246
-1.869969 -0.569929 1.506987 37.000000 12 340.244249
-1.832853 -0.558267 1.211070 38.000000 10 340.244251
-1.807170 -0.550441 0.960766 39.000000 8 340.244254
-1.771511 -0.539242 0.733274 40.000000 6 340.244256
-0.369447 -0.112320 0.146006 13.000000 2 340.244262
-0.472990 -0.143708 0.113617 13.000000 0 340.244264
-0.047813 -0.005140 3.959123 12.000000 31 340.244275
-0.532599 -0.146608 3.512237 23.000000 28 340.244277
-0.726168 -0.198939 3.643310 5.000000 27 340.244280
-1.598553 -0.481436 3.992608 91.000000 23 340.244285
-2.255208 -0.679615 4.381992 39.000000 21 340.244288
-2.148022 -0.647312 3.367565 13.000000 19 340.244290
-2.049222 -0.617537 2.638164 20.000000 17 340.244293
-0.217182 -0.048791 3.678245 16.000000 30 340.244300
-0.366479 -0.091715 3.474829 14.000000 29 340.244303
-1.032003 -0.296702 4.168881 8.000000 26 340.244306
-1.287095 -0.385192 3.707700 9.000000 24 340.244308
-1.831093 -0.548676 4.014497 94.000000 22 340.244311
-2.262448 -0.678350 3.933611 11.000000 20 340.244313
-2.110055 -0.632656 2.990646 18.000000 18 340.244316
-1.998231 -0.599126 2.339795 26.000000 16 340.244318
-1.959690 -0.593166 2.091861 30.000000 15 340.244276
-1.906866 -0.577175 1.688261 35.000000 13 340.244279
-1.859173 -0.562385 1.358086 36.000000 11 340.244281
-1.824772 -0.551977 1.084067 39.000000 9 340.244284
-1.780259 -0.538173 0.839737 39.000000 7 340.244286
-0.409803 -0.123729 0.131305 11.000000 1 340.244294
-1.941517 -0.584338 1.886363 34.000000 14 340.244302
-1.879689 -0.565727 1.512873 37.000000 12 340.244304
-1.843047 -0.554349 1.216135 38.000000 10 340.244307
-1.817772 -0.546744 0.964962 40.000000 8 340.244309
-1.777905 -0.534415 0.734917 40.000000 6 340.244312
-0.379323 -0.113877 0.147386 15.000000 2 340.244317
-0.473489 -0.142056 0.113617 13.000000 0 340.244320
-0.047831 -0.004973 3.959123 12.000000 31 340.244330
-0.534608 -0.145154 3.522115 10.000000 28 340.244333
-0.726858 -0.196403 3.643310 5.000000 27 340.244335
-1.600224 -0.475853 3.992608 91.000000 23 340.244340
-2.257566 -0.671739 4.381992 39.000000 21 340.244343
-2.161057 -0.643021 3.384097 13.000000 19 340.244345
-2.063656 -0.614037 2.653512 19.000000 17 340.244348
-0.217351 -0.048033 3.678245 16.000000 30 340.244356
-0.367315 -0.090562 3.479801 14.000000 29 340.244358
-1.026982 -0.291383 4.144685 6.000000 26 340.244361
-1.270227 -0.375318 3.656080 5.000000 24 340.244363
-1.832997 -0.542281 4.014497 94.000000 22 340.244366
-2.267303 -0.671189 3.937877 9.000000 20 340.244368
-2.120921 -0.627853 3.002614 18.000000 18 340.244371
-2.010062 -0.595034 2.350821 26.000000 16 340.244374
-1.971999 -0.589386 2.102375 30.000000 15 340.244331
-1.920058 -0.573860 1.697674 35.000000 13 340.244334
-1.869137 -0.558285 1.363569 36.000000 11 340.244336
-1.835178 -0.548139 1.088704 38.000000 9 340.244339
-1.786569 -0.533281 0.841610 39.000000 7 340.244342
-0.410232 -0.122298 0.131305 11.000000 1 340.244349
-1.950704 -0.579685 1.893013 34.000000 14 340.244357
-1.889401 -0.561465 1.518760 37.000000 12 340.244360
-1.853237 -0.550367 1.221200 38.000000 10 340.244362
-1.828371 -0.542980 0.969158 40.000000 8 340.244365
-1.788814 -0.530893 0.738202 39.000000 6 340.244367
-0.389215 -0.115367 0.148765 12.000000 2 340.244372
-0.473982 -0.140403 0.113617 13.000000 0 340.244375
-0.047848 -0.004806 3.959123 12.000000 31 340.244386
-0.535862 -0.143487 3.527054 5.000000 28 340.244388
-0.727540 -0.193865 3.643310 5.000000 27 340.244391
-1.603749 -0.470814 3.997211 91.000000 23 340.244396
-2.259897 -0.663854 4.381992 39.000000 21 340.244398
-2.174088 -0.638646 3.400629 12.000000 19 340.244401
-2.078090 -0.610444 2.668860 19.000000 17 340.244403
-0.217517 -0.047274 3.678245 16.000000 30 340.244411
-0.367629 -0.089279 3.479801 14.000000 29 340.244414
-1.018302 -0.285085 4.105971 5.000000 26 340.244416
-1.286439 -0.375230 3.698314 3.000000 24 340.244419
-1.836969 -0.536490 4.018998 94.000000 22 340.244421
-2.232081 -0.652297 3.873888 6.000000 20 340.244424
-2.134671 -0.623828 3.018572 18.000000 18 340.244427
-2.021889 -0.590867 2.361846 26.000000 16 340.244429
-1.984306 -0.585527 2.112889 29.000000 15 340.244387
-1.929518 -0.569357 1.703950 34.000000 13 340.244389
-1.879096 -0.554123 1.369052 36.000000 11 340.244392
-1.845579 -0.544236 1.093340 38.000000 9 340.244394
-1.797313 -0.529663 0.845356 39.000000 7 340.244397
-0.410657 -0.120866 0.131305 11.000000 1 340.244405
-1.963466 -0.576026 1.902988 34.000000 14 340.244412
-1.902985 -0.558280 1.527589 37.000000 12 340.244415
-1.863421 -0.546320 1.226265 38.000000 10 340.244418
-1.838966 -0.539148 0.973354 40.000000 8 340.244420
-1.799721 -0.527301 0.741488 38.000000 6 340.244423
-0.394368 -0.115399 0.149455 12.000000 2 340.244428
-0.469674 -0.137345 0.113415 13.000000 0 340.244430
-0.047864 -0.004639 3.959123 11.000000 31 340.244441
-0.537862 -0.142011 3.536933 4.000000 28 340.244444
-0.729197 -0.191582 3.648205 5.000000 27 340.244446
-1.605383 -0.465213 3.997211 91.000000 23 340.244451
-2.264502 -0.656629 4.386381 39.000000 21 340.244454
-2.187115 -0.634187 3.417161 12.000000 19 340.244456
-2.092525 -0.606757 2.684208 18.000000 17 340.244459
-0.217681 -0.046514 3.678245 16.000000 30 340.244467
-0.367938 -0.087996 3.479801 14.000000 29 340.244469
-0.984129 -0.271824 3.965634 4.000000 26 340.244472
-1.840923 -0.530678 4.023498 93.000000 22 340.244477
-2.214298 -0.638719 3.839760 5.000000 20 340.244480
-2.145523 -0.618879 3.030541 17.000000 18 340.244482
-2.036969 -0.587564 2.376547 25.000000 16 340.244485
-1.993186 -0.580591 2.119898 29.000000 15 340.244442
-1.942706 -0.565885 1.713363 34.000000 13 340.244445
-1.889049 -0.549897 1.374535 36.000000 11 340.244447
-1.855974 -0.540267 1.097975 38.000000 9 340.244450
-1.808054 -0.525975 0.849102 39.000000 7 340.244453
-0.406294 -0.118042 0.130859 11.000000 1 340.244460
-1.976226 -0.572285 1.912962 33.000000 14 340.244468
-1.912687 -0.553883 1.533475 37.000000 12 340.244471
-1.873599 -0.542209 1.231329 38.000000 10 340.244473
-1.849556 -0.535249 0.977550 40.000000 8 340.244476
-1.806087 -0.522327 0.743131 36.000000 6 340.244478
-0.394768 -0.114021 0.149455 12.000000 2 340.244483
-0.470151 -0.135705 0.113415 13.000000 0 340.244486
-0.047880 -0.004472 3.959123 10.000000 31 340.244497
-0.539859 -0.140523 3.546811 4.000000 28 340.244499
-0.729861 -0.189036 3.648205 5.000000 27 340.244502
-1.606997 -0.459606 3.997211 91.000000 23 340.244507
-2.266780 -0.648721 4.386381 39.000000 21 340.244509
-2.202843 -0.630420 3.437826 12.000000 19 340.244512
-2.106959 -0.602978 2.699556 18.000000 17 340.244514
-0.217558 -0.045696 3.673253 16.000000 30 340.244522
-0.368763 -0.086832 3.484772 14.000000 29 340.244525
-0.966868 -0.263430 3.893046 3.000000 26 340.244527
-1.842764 -0.524249 4.023498 95.000000 22 340.244532
-2.183905 -0.621703 3.784303 4.000000 20 340.244535
-2.159266 -0.614686 3.046499 17.000000 18 340.244538
-2.048789 -0.583234 2.387573 25.000000 16 340.244540
-2.005482 -0.576586 2.130411 29.000000 15 340.244498
-1.952152 -0.561251 1.719639 34.000000 13 340.244500
-1.898994 -0.545609 1.380018 36.000000 11 340.244503
-1.866365 -0.536232 1.102612 38.000000 9 340.244506
-1.818791 -0.522220 0.852848 39.000000 7 340.244508
-0.406703 -0.116623 0.130859 11.000000 1 340.244516
-1.985392 -0.567436 1.919612 33.000000 14 340.244524
-1.926268 -0.550535 1.542305 37.000000 12 340.244526
-1.883771 -0.538034 1.236394 38.000000 10 340.244529
-1.860141 -0.531282 0.981746 40.000000 8 340.244531
-1.816981 -0.518612 0.746416 35.000000 6 340.244534
-0.399926 -0.114000 0.150145 11.000000 2 340.244539
-0.465817 -0.132694 0.113214 13.000000 0 340.244541
-0.047895 -0.004305 3.959123 12.000000 31 340.244552
-0.542605 -0.139216 3.561629 4.000000 28 340.244555
-0.730516 -0.186487 3.648205 6.000000 27 340.244557
-1.610472 -0.454525 4.001813 91.000000 23 340.244562
-2.271336 -0.641455 4.390769 39.000000 21 340.244565
-2.215863 -0.625786 3.454357 12.000000 19 340.244567
-2.118306 -0.598233 2.711066 18.000000 17 340.244570
-0.217717 -0.044936 3.673253 17.000000 30 340.244578
-0.369064 -0.085544 3.484772 14.000000 29 340.244580
-0.926479 -0.248964 3.728513 4.000000 26 340.244583
-1.262050 -0.353820 3.618537 2.000000 24 340.244585
-1.846680 -0.518402 4.027999 94.000000 22 340.244588
-2.158442 -0.606318 3.737378 3.000000 20 340.244591
-2.170103 -0.609590 3.058467 17.000000 18 340.244593
-2.060604 -0.578830 2.398598 25.000000 16 340.244596
-2.017775 -0.572503 2.140925 29.000000 15 340.244553
-1.961589 -0.556558 1.725914 34.000000 13 340.244556
-1.908933 -0.541259 1.385501 36.000000 11 340.244558
-1.876750 -0.532131 1.107248 38.000000 9 340.244561
-1.829523 -0.518395 0.856594 39.000000 7 340.244564
-0.407108 -0.115203 0.130859 11.000000 1 340.244571
-1.998143 -0.563543 1.929586 33.000000 14 340.244579
-1.935959 -0.546002 1.548191 36.000000 12 340.244582
-1.898087 -0.534964 1.243992 38.000000 10 340.244584
-1.866352 -0.526017 0.983844 40.000000 8 340.244587
-1.823326 -0.513547 0.748059 32.000000 6 340.244589
-0.395555 -0.111263 0.149455 10.000000 2 340.244594
-0.466277 -0.131067 0.113214 13.000000 0 340.244597
-0.047910 -0.004137 3.959123 12.000000 31 340.244608
-0.545347 -0.137891 3.576447 4.000000 28 340.244610
-0.732151 -0.184184 3.653100 6.000000 27 340.244613
-1.612049 -0.448901 4.001813 90.000000 23 340.244618
-2.275870 -0.634166 4.395158 39.000000 21 340.244620
-2.231587 -0.621824 3.475022 12.000000 19 340.244623
-2.132735 -0.594277 2.726414 17.000000 17 340.244626
-0.217872 -0.044176 3.673253 17.000000 30 340.244633
-0.369881 -0.084373 3.489744 14.000000 29 340.244636
-0.917615 -0.243152 3.689799 8.000000 26 340.244638
-1.263278 -0.349412 3.618537 3.000000 24 340.244641
-1.848478 -0.511952 4.027999 94.000000 22 340.244644
-2.135413 -0.591814 3.694718 3.000000 20 340.244646
-2.183836 -0.605231 3.074425 17.000000 18 340.244649
-2.075680 -0.575255 2.413299 24.000000 16 340.244651
-2.030064 -0.568340 2.151439 29.000000 15 340.244609
-1.971018 -0.551807 1.732190 33.000000 13 340.244611
-1.918864 -0.536845 1.390983 35.000000 11 340.244614
-1.887129 -0.527964 1.111884 38.000000 9 340.244617
-1.840251 -0.514502 0.860340 39.000000 7 340.244619
-0.407508 -0.113781 0.130859 10.000000 1 340.244627
-2.007294 -0.558567 1.936236 33.000000 14 340.244635
-1.949535 -0.542492 1.557021 37.000000 12 340.244637
-1.908250 -0.530645 1.249056 38.000000 10 340.244640
-1.876922 -0.521931 0.988040 40.000000 8 340.244642
-1.834208 -0.509708 0.751344 29.000000 6 340.244645
-0.395941 -0.109881 0.149455 8.000000 2 340.244650
-0.461918 -0.128104 0.113012 13.000000 0 340.244652
-0.047881 -0.003970 3.954123 12.000000 31 340.244663
-0.548088 -0.136548 3.591265 4.000000 28 340.244666
-0.732789 -0.181627 3.653100 6.000000 27 340.244668
-1.153676 -0.310099 3.863931 3.000000 25 340.244671
-1.613606 -0.443271 4.001813 90.000000 23 340.244673
-2.278069 -0.626218 4.395158 48.000000 21 340.244676
-2.244597 -0.617014 3.491554 11.000000 19 340.244678
-2.144070 -0.589378 2.737925 17.000000 17 340.244681
-0.218025 -0.043415 3.673253 17.000000 30 340.244689
-0.370174 -0.083082 3.489744 16.000000 29 340.244691
-0.916024 -0.239313 3.680121 11.000000 26 340.244694
-1.271149 -0.346817 3.637308 4.000000 24 340.244696
-1.852355 -0.506071 4.032500 94.000000 22 340.244699
-2.094699 -0.572665 3.622197 4.000000 20 340.244702
-2.197564 -0.600784 3.090383 16.000000 18 340.244704
-2.087486 -0.570688 2.424324 24.000000 16 340.244707
-2.042348 -0.564099 2.161952 29.000000 15 340.244664
-1.984189 -0.548033 1.741603 33.000000 13 340.244667
-1.928788 -0.532369 1.396466 35.000000 11 340.244670
-1.897501 -0.523731 1.116520 38.000000 9 340.244672
-1.850974 -0.510541 0.864087 40.000000 7 340.244675
-0.403101 -0.111035 0.130413 10.000000 1 340.244682
-2.020035 -0.554522 1.946211 33.000000 14 340.244690
-1.959212 -0.537823 1.562907 37.000000 12 340.244693
-1.918406 -0.526262 1.254121 38.000000 10 340.244695
-1.887486 -0.517777 0.992236 40.000000 8 340.244698
-1.845085 -0.505799 0.754629 25.000000 6 340.244700
-0.391545 -0.107191 0.148765 8.000000 2 340.244705
-0.462362 -0.126491 0.113012 13.000000 0 340.244708
-0.047894 -0.003803 3.954123 12.000000 31 340.244719
-0.550825 -0.135188 3.606082 4.000000 28 340.244721
-0.734408 -0.179309 3.657995 6.000000 27 340.244724
-1.153307 -0.305687 3.859159 3.000000 25 340.244726
-1.615143 -0.437635 4.001813 90.000000 23 340.244729
-2.282553 -0.618889 4.399547 53.000000 21 340.244731
-2.260317 -0.612857 3.512218 11.000000 19 340.244734
-2.155397 -0.584407 2.749436 17.000000 17 340.244737
-0.218175 -0.042654 3.673253 17.000000 30 340.244744
-0.370983 -0.081903 3.494715 17.000000 29 340.244747
-0.918072 -0.236427 3.684960 11.000000 26 340.244749
-1.264020 -0.340136 3.613845 4.000000 24 340.244752
-1.854110 -0.499602 4.032500 95.000000 22 340.244755
-2.081577 -0.561276 3.596602 6.000000 20 340.244757
-2.211288 -0.596248 3.106341 16.000000 18 340.244760
-2.099285 -0.566046 2.435350 24.000000 16 340.244762
-2.054627 -0.559778 2.172466 28.000000 15 340.244720
-1.993601 -0.543150 1.747879 34.000000 13 340.244722
-1.942738 -0.528928 1.404691 35.000000 11 340.244725
-1.907867 -0.519431 1.121156 38.000000 9 340.244728
-1.861691 -0.506511 0.867833 39.000000 7 340.244730
-0.403486 -0.109627 0.130413 11.000000 1 340.244738
-2.029167 -0.549419 1.952860 33.000000 14 340.244746
-1.972782 -0.534150 1.571737 37.000000 12 340.244748
-1.928554 -0.521814 1.259186 37.000000 10 340.244751
-1.902425 -0.514741 0.998531 40.000000 8 340.244753
-1.860515 -0.503053 0.759557 21.000000 6 340.244756
-0.391917 -0.105823 0.148765 9.000000 2 340.244761
-0.457977 -0.123574 0.112811 13.000000 0 340.244764
-0.047907 -0.003636 3.954123 12.000000 31 340.244774
-0.554315 -0.133993 3.625839 4.000000 28 340.244777
-0.736019 -0.176982 3.662891 7.000000 27 340.244779
-1.148587 -0.300150 3.840073 5.000000 25 340.244782
-1.616661 -0.431995 4.001813 90.000000 23 340.244784
-2.287015 -0.611536 4.403935 54.000000 21 340.244787
-2.270598 -0.607144 3.524618 11.000000 19 340.244790
-2.169812 -0.580193 2.764784 16.000000 17 340.244792
-0.218323 -0.041892 3.673253 16.000000 30 340.244800
-0.371267 -0.080608 3.494715 16.000000 29 340.244802
-0.918891 -0.233221 3.684960 10.000000 26 340.244805
-1.271871 -0.337492 3.632616 4.000000 24 340.244808
-1.857947 -0.493686 4.037001 95.000000 22 340.244810
-2.091084 -0.556017 3.609400 7.000000 20 340.244813
-2.225007 -0.591623 3.122299 16.000000 18 340.244815
-2.114353 -0.562199 2.450050 23.000000 16 340.244818
-2.066901 -0.555379 2.182980 28.000000 15 340.244775
-2.006764 -0.539218 1.757292 33.000000 13 340.244778
-1.952649 -0.524312 1.410174 35.000000 11 340.244781
-1.918226 -0.515066 1.125792 38.000000 9 340.244783
-1.872403 -0.502412 0.871579 39.000000 7 340.244786
-0.399056 -0.106929 0.129967 10.000000 1 340.244793
-2.041896 -0.545223 1.962835 32.000000 14 340.244801
-1.982445 -0.529346 1.577623 37.000000 12 340.244804
-1.938695 -0.517302 1.264251 37.000000 10 340.244806
-1.912981 -0.510438 1.002727 40.000000 8 340.244809
-1.875949 -0.500206 0.764485 18.000000 6 340.244811
-0.387499 -0.103181 0.148076 9.000000 2 340.244816
-0.458406 -0.121975 0.112811 12.000000 0 340.244819
-0.047876 -0.003469 3.949123 12.000000 31 340.244830
-0.555536 -0.132237 3.630779 6.000000 28 340.244832
-0.737624 -0.174646 3.667786 7.000000 27 340.244835
-1.145289 -0.295021 3.825757 7.000000 25 340.244837
-1.618159 -0.426349 4.001813 90.000000 23 340.244840
-2.291452 -0.604160 4.408324 65.000000 21 340.244842
-2.291751 -0.604236 3.553548 10.000000 19 340.244845
-2.181124 -0.575067 2.776294 16.000000 17 340.244848
-0.218183 -0.041077 3.668262 16.000000 30 340.244855
-0.371546 -0.079311 3.494715 15.000000 29 340.244858
-0.919700 -0.230012 3.684960 9.000000 26 340.244860
-1.294745 -0.338728 3.693622 5.000000 24 340.244863
-1.863872 -0.488301 4.046002 95.000000 22 340.244866
-2.085444 -0.546730 3.596602 8.000000 20 340.244868
-2.238720 -0.586910 3.138257 16.000000 18 340.244871
-2.126141 -0.557394 2.461076 22.000000 16 340.244873
-2.082616 -0.551815 2.196998 27.000000 15 340.244831
-2.019923 -0.535201 1.766705 33.000000 13 340.244834
-1.962552 -0.519633 1.415657 35.000000 11 340.244836
-1.928577 -0.510635 1.130428 37.000000 9 340.244839
-1.883109 -0.498245 0.875325 39.000000 7 340.244841
-0.399427 -0.105536 0.129967 10.000000 1 340.244849
-2.054621 -0.540945 1.972809 32.000000 14 340.244857
-1.996007 -0.525510 1.586452 37.000000 12 340.244859
-1.948828 -0.512725 1.269316 37.000000 10 340.244862
-1.923529 -0.506067 1.006923 40.000000 8 340.244864
-1.895953 -0.498458 0.771056 16.000000 6 340.244867
-0.387856 -0.101827 0.148076 9.000000 2 340.244872
-0.453996 -0.119106 0.112609 12.000000 0 340.244875
-0.047888 -0.003302 3.949123 12.000000 31 340.244885
-0.562803 -0.131888 3.675232 7.000000 28 340.244888
-0.739221 -0.172300 3.672681 8.000000 27 340.244890
-1.153550 -0.292859 3.849616 11.000000 25 340.244893
-1.621529 -0.421189 4.006416 86.000000 23 340.244895
-2.295866 -0.596761 4.412713 71.000000 21 340.244898
-2.296570 -0.596941 3.557681 7.000000 19 340.244901
-2.195529 -0.570676 2.791642 17.000000 17 340.244903
-0.218325 -0.040316 3.668262 17.000000 30 340.244911
-0.371820 -0.078014 3.494715 15.000000 29 340.244913
-0.920497 -0.226800 3.684960 8.000000 26 340.244916
-1.334353 -0.344117 3.801555 7.000000 24 340.244919
-1.876108 -0.484515 4.068507 95.000000 22 340.244921
-2.089865 -0.540100 3.600868 10.000000 20 340.244924
-2.252427 -0.582109 3.154215 15.000000 18 340.244926
-2.141203 -0.553362 2.475777 23.000000 16 340.244929
-2.094881 -0.547246 2.207511 28.000000 15 340.244886
-2.033078 -0.531098 1.776119 33.000000 13 340.244889
-1.972445 -0.514892 1.421139 35.000000 11 340.244892
-1.938921 -0.506138 1.135064 37.000000 9 340.244894
-1.893808 -0.494009 0.879071 39.000000 7 340.244897
-0.399793 -0.104141 0.129967 10.000000 1 340.244904
-2.063726 -0.535646 1.979459 32.000000 14 340.244912
-2.005654 -0.520570 1.592339 36.000000 12 340.244915
-1.958952 -0.508084 1.274381 37.000000 10 340.244917
-1.934070 -0.501628 1.011119 39.000000 8 340.244920
-1.906824 -0.494206 0.774342 16.000000 6 340.244922
-0.383415 -0.099232 0.147386 9.000000 2 340.244928
-0.454409 -0.117521 0.112609 13.000000 0 340.244930
-0.047899 -0.003135 3.949123 12.000000 31 340.244941
-0.570833 -0.131663 3.724625 8.000000 28 340.244943
-0.740810 -0.169946 3.677576 8.000000 27 340.244946
-1.156014 -0.289193 3.854388 11.000000 25 340.244948
-1.622989 -0.415526 4.006416 85.000000 23 340.244951
-2.300255 -0.589337 4.417101 83.000000 21 340.244954
-2.298640 -0.588921 3.557681 4.000000 19 340.244956
-2.206825 -0.565395 2.803153 16.000000 17 340.244959
-0.218464 -0.039553 3.668262 17.000000 30 340.244966
-0.372613 -0.076822 3.499686 15.000000 29 340.244969
-0.921283 -0.223586 3.684960 7.000000 26 340.244972
-1.374013 -0.349234 3.909489 13.000000 24 340.244974
-1.896782 -0.482797 4.109014 92.000000 22 340.244977
-2.094265 -0.533445 3.605134 10.000000 20 340.244979
-2.269049 -0.577962 3.174163 15.000000 18 340.244982
-2.156263 -0.549232 2.490477 22.000000 16 340.244984
-2.107139 -0.542598 2.218025 27.000000 15 340.244942
-2.046229 -0.526911 1.785532 33.000000 13 340.244945
-1.986379 -0.511130 1.429364 35.000000 11 340.244947
-1.949257 -0.501575 1.139700 37.000000 9 340.244950
