# .PCD v.7 - Point Cloud Data file format
VERSION .7
FIELDS x y z intensity ring timestamp
SIZE 4 4 4 4 2 8
TYPE F F F F U D
COUNT 1 1 1 1 1 1
WIDTH 923
HEIGHT 1
VIEWPOINT 0 0 0 1 0 0 0
POINTS 923
DATA ascii
1.031668 -1.759134 1.153608 39.000000 9 341.016614
1.008869 -1.720258 0.894055 40.000000 7 341.016617
0.992471 -1.692974 0.666403 43.000000 5 341.016620
0.983483 -1.678314 0.460790 47.000000 3 341.016622
0.966452 -1.649911 0.264276 37.000000 1 341.016625
1.076035 -1.840660 1.979459 31.000000 14 341.016632
1.051873 -1.799335 1.601168 36.000000 12 341.016635
1.030060 -1.762020 1.284510 38.000000 10 341.016638
1.022125 -1.748451 1.023707 40.000000 8 341.016640
1.000982 -1.712970 0.779270 46.000000 6 341.016643
0.983163 -1.683152 0.560852 55.000000 4 341.016645
0.973777 -1.667751 0.361229 45.000000 2 341.016648
0.959356 -1.643711 0.170449 37.000000 0 341.016650
0.020471 -0.061989 5.934048 104.000000 31 341.016661
0.433809 -0.790899 5.734903 103.000000 28 341.016664
0.565593 -1.033951 5.689515 94.000000 27 341.016666
0.602137 -1.050753 3.916420 66.000000 25 341.016669
0.801750 -1.381382 3.822315 40.000000 23 341.016671
1.009462 -1.738585 3.750025 36.000000 21 341.016674
0.983765 -1.694330 2.950138 66.000000 19 341.016676
1.129389 -1.945147 2.768620 19.000000 17 341.016679
0.152518 -0.313736 5.854586 99.000000 30 341.016687
0.288128 -0.556413 5.791507 97.000000 29 341.016689
0.498896 -0.885016 3.946277 82.000000 26 341.016692
0.705195 -1.219912 3.886025 57.000000 24 341.016694
0.902699 -1.560339 3.789455 39.000000 22 341.016697
1.006769 -1.739539 3.357709 29.000000 20 341.016700
1.071732 -1.851792 2.906866 53.000000 18 341.016702
1.089108 -1.881821 2.435350 8.000000 16 341.016705
1.082284 -1.858789 2.193493 32.000000 15 341.016662
1.059277 -1.819280 1.779256 32.000000 13 341.016665
1.035949 -1.779928 1.434847 36.000000 11 341.016667
1.021372 -1.754887 1.148972 39.000000 9 341.016670
0.998195 -1.715755 0.890309 40.000000 7 341.016673
0.981732 -1.688134 0.663585 45.000000 5 341.016675
0.972973 -1.673074 0.458924 47.000000 3 341.016678
0.955970 -1.644496 0.263384 36.000000 1 341.016680
1.066177 -1.837758 1.972809 32.000000 14 341.016688
1.039816 -1.792324 1.592339 37.000000 12 341.016691
1.019578 -1.758146 1.279446 38.000000 10 341.016693
1.011461 -1.744156 1.019511 40.000000 8 341.016696
0.990260 -1.708283 0.775984 48.000000 6 341.016698
0.972408 -1.678162 0.558508 57.000000 4 341.016701
0.962986 -1.662569 0.359849 45.000000 2 341.016703
0.948606 -1.638402 0.170046 37.000000 0 341.016706
0.020255 -0.062060 5.934048 104.000000 31 341.016717
0.431045 -0.792408 5.734903 103.000000 28 341.016719
0.561981 -1.035918 5.689515 94.000000 27 341.016722
0.599204 -1.054147 3.921192 66.000000 25 341.016724
0.796923 -1.384172 3.822315 40.000000 23 341.016727
1.003388 -1.742098 3.750025 37.000000 21 341.016729
0.977844 -1.697754 2.950138 66.000000 19 341.016732
1.116193 -1.937966 2.753273 20.000000 17 341.016734
0.151422 -0.314266 5.854586 98.000000 30 341.016742
0.286184 -0.557416 5.791507 97.000000 29 341.016745
0.495804 -0.886752 3.946277 82.000000 26 341.016747
0.700933 -1.222367 3.886025 58.000000 24 341.016750
0.897247 -1.563481 3.789455 39.000000 22 341.016752
1.005884 -1.752090 3.374774 29.000000 20 341.016755
1.066762 -1.858135 2.910856 47.000000 18 341.016758
1.075781 -1.873851 2.420649 8.000000 16 341.016760
1.072222 -1.856379 2.186484 27.000000 15 341.016718
1.047079 -1.812853 1.769843 33.000000 13 341.016720
1.023457 -1.772669 1.426623 36.000000 11 341.016723
1.008595 -1.746932 1.142018 38.000000 9 341.016726
0.987566 -1.711198 0.886563 42.000000 7 341.016728
0.971039 -1.683240 0.660767 45.000000 5 341.016731
0.962218 -1.667950 0.457059 47.000000 3 341.016733
0.945248 -1.639195 0.262491 37.000000 1 341.016736
1.054168 -1.831759 1.962835 32.000000 14 341.016744
1.029521 -1.788936 1.586452 37.000000 12 341.016746
1.009135 -1.754220 1.274381 39.000000 10 341.016749
1.000841 -1.739808 1.015315 42.000000 8 341.016751
0.979583 -1.703541 0.772699 50.000000 6 341.016754
0.961700 -1.673118 0.556163 57.000000 4 341.016756
0.952242 -1.657333 0.358469 43.000000 2 341.016759
0.937905 -1.633039 0.169643 37.000000 0 341.016761
0.020038 -0.062130 5.934048 103.000000 31 341.016772
0.428277 -0.793908 5.734903 103.000000 28 341.016775
0.558361 -1.037874 5.689515 96.000000 27 341.016777
0.595520 -1.056232 3.921192 64.000000 25 341.016780
0.792086 -1.386946 3.822315 41.000000 23 341.016782
0.998489 -1.747670 3.754413 37.000000 21 341.016785
0.971912 -1.701157 2.950138 64.000000 19 341.016787
1.104650 -1.933499 2.741762 20.000000 17 341.016790
0.150324 -0.314793 5.854586 99.000000 30 341.016798
0.284236 -0.558411 5.791507 97.000000 29 341.016800
0.492706 -0.888477 3.946277 82.000000 26 341.016803
0.696662 -1.224806 3.886025 57.000000 24 341.016805
0.891784 -1.566603 3.789455 39.000000 22 341.016808
1.004925 -1.764656 3.391837 29.000000 20 341.016811
1.061761 -1.864467 2.914845 39.000000 18 341.016813
1.062523 -1.865811 2.405948 8.000000 16 341.016816
1.062190 -1.853922 2.179475 27.000000 15 341.016773
1.036874 -1.809742 1.763567 33.000000 13 341.016776
1.013107 -1.768974 1.421139 36.000000 11 341.016778
0.998087 -1.742753 1.137382 38.000000 9 341.016781
0.976980 -1.706588 0.882817 40.000000 7 341.016784
0.960392 -1.678292 0.657948 45.000000 5 341.016786
0.951510 -1.662771 0.455194 45.000000 3 341.016789
0.934575 -1.633839 0.261599 37.000000 1 341.016791
1.042213 -1.825698 1.952860 32.000000 14 341.016799
1.017259 -1.781988 1.577623 37.000000 12 341.016802
0.998732 -1.750243 1.269316 39.000000 10 341.016804
0.990263 -1.735407 1.011119 42.000000 8 341.016807
0.968951 -1.698746 0.769414 50.000000 6 341.016809
0.951039 -1.668020 0.553818 57.000000 4 341.016812
0.941547 -1.652042 0.357090 43.000000 2 341.016814
0.927252 -1.627621 0.169239 36.000000 0 341.016817
0.019821 -0.062200 5.934048 104.000000 31 341.016828
0.425503 -0.795398 5.734903 104.000000 28 341.016830
0.554735 -1.039816 5.689515 97.000000 27 341.016833
0.591830 -1.058305 3.921192 64.000000 25 341.016835
0.788203 -1.391402 3.826917 42.000000 23 341.016838
0.992382 -1.751145 3.754413 37.000000 21 341.016840
0.965968 -1.704539 2.950138 64.000000 19 341.016843
1.091572 -1.926187 2.726414 21.000000 17 341.016846
0.149347 -0.315578 5.859578 98.000000 30 341.016853
0.282525 -0.559877 5.796478 97.000000 29 341.016856
0.489601 -0.890192 3.946277 82.000000 26 341.016858
0.692382 -1.227230 3.886025 54.000000 24 341.016861
0.886310 -1.569706 3.789455 39.000000 22 341.016864
1.005172 -1.779507 3.413167 29.000000 20 341.016866
1.059693 -1.876034 2.926814 37.000000 18 341.016869
1.051001 -1.860653 2.394923 8.000000 16 341.016871
1.050426 -1.848317 2.168962 27.000000 15 341.016829
1.024781 -1.803197 1.754154 33.000000 13 341.016831
1.002795 -1.765228 1.415657 36.000000 11 341.016834
0.985433 -1.734670 1.130428 38.000000 9 341.016837
0.966438 -1.701926 0.879071 40.000000 7 341.016839
0.949791 -1.673290 0.655130 45.000000 5 341.016842
0.940851 -1.657539 0.453329 46.000000 3 341.016844
0.923951 -1.628428 0.260706 36.000000 1 341.016847
1.030314 -1.819576 1.942886 32.000000 14 341.016855
1.007049 -1.778493 1.571737 37.000000 12 341.016857
0.988369 -1.746215 1.264251 39.000000 10 341.016860
0.977493 -1.727004 1.004825 43.000000 8 341.016862
0.958364 -1.693897 0.766128 48.000000 6 341.016865
0.940425 -1.662867 0.551474 58.000000 4 341.016867
0.930900 -1.646696 0.355710 42.000000 2 341.016870
0.916650 -1.622149 0.168836 37.000000 0 341.016872
0.019604 -0.062268 5.934048 104.000000 31 341.016883
0.422724 -0.796879 5.734903 104.000000 28 341.016886
0.551102 -1.041747 5.689515 97.000000 27 341.016888
0.588132 -1.060364 3.921192 67.000000 25 341.016891
0.783341 -1.394145 3.826917 38.000000 23 341.016893
0.986264 -1.754598 3.754413 36.000000 21 341.016896
0.961391 -1.710353 2.954271 62.000000 19 341.016898
1.080129 -1.921601 2.714903 21.000000 17 341.016901
0.148245 -0.316097 5.859578 98.000000 30 341.016909
0.280569 -0.560860 5.796478 97.000000 29 341.016911
0.486491 -0.891895 3.946277 80.000000 26 341.016914
0.687251 -1.228133 3.881332 54.000000 24 341.016916
0.880826 -1.572791 3.789455 39.000000 22 341.016919
1.004053 -1.792106 3.430230 30.000000 20 341.016922
1.056084 -1.884981 2.934793 33.000000 18 341.016924
1.039529 -1.855437 2.383898 12.000000 16 341.016927
1.040465 -1.845759 2.161952 27.000000 15 341.016884
1.012745 -1.796589 1.744741 34.000000 13 341.016887
0.992522 -1.761432 1.410174 37.000000 11 341.016890
0.975022 -1.730380 1.125792 38.000000 9 341.016892
0.955942 -1.697210 0.875325 42.000000 7 341.016895
0.941591 -1.672415 0.653721 45.000000 5 341.016897
0.930239 -1.652252 0.451464 46.000000 3 341.016900
0.915819 -1.627303 0.260260 36.000000 1 341.016902
1.020299 -1.816650 1.936236 31.000000 14 341.016910
0.996876 -1.774949 1.565850 37.000000 12 341.016913
0.978047 -1.742136 1.259186 39.000000 10 341.016915
0.967015 -1.722490 1.000629 42.000000 8 341.016918
0.947823 -1.688996 0.762843 50.000000 6 341.016920
0.932237 -1.661901 0.550301 59.000000 4 341.016923
0.922725 -1.645616 0.355020 42.000000 2 341.016925
0.906096 -1.616622 0.168433 37.000000 0 341.016928
0.019376 -0.062294 5.929048 104.000000 31 341.016939
0.420301 -0.799037 5.739842 104.000000 28 341.016941
0.547462 -1.043664 5.689515 96.000000 27 341.016944
0.584427 -1.062411 3.921192 66.000000 25 341.016946
0.778470 -1.396871 3.826917 38.000000 23 341.016949
0.978966 -1.755938 3.750025 37.000000 21 341.016951
0.955415 -1.713699 2.954271 64.000000 19 341.016954
1.068731 -1.916959 2.703393 21.000000 17 341.016957
0.147196 -0.316587 5.859578 99.000000 30 341.016964
0.278708 -0.561787 5.796478 97.000000 29 341.016967
0.484129 -0.894610 3.951116 80.000000 26 341.016969
0.683175 -1.230406 3.881332 51.000000 24 341.016972
0.875330 -1.575856 3.789455 39.000000 22 341.016975
1.004125 -1.806998 3.451560 31.000000 20 341.016977
1.055354 -1.899194 2.950751 26.000000 18 341.016980
1.030076 -1.852948 2.376547 17.000000 16 341.016982
1.028795 -1.840041 2.151439 27.000000 15 341.016940
1.002668 -1.793318 1.738465 33.000000 13 341.016942
0.980247 -1.753936 1.401949 37.000000 11 341.016945
0.964653 -1.726038 1.121156 38.000000 9 341.016948
0.945785 -1.692277 0.871579 43.000000 7 341.016950
0.931361 -1.667152 0.650902 45.000000 5 341.016953
0.922071 -1.651200 0.450531 46.000000 3 341.016955
0.905279 -1.621793 0.259368 36.000000 1 341.016958
1.008500 -1.810413 1.926261 31.000000 14 341.016966
0.986740 -1.771356 1.559964 37.000000 12 341.016968
0.965970 -1.734070 1.251589 39.000000 10 341.016971
0.956880 -1.717758 0.996432 43.000000 8 341.016973
0.937622 -1.683878 0.759557 50.000000 6 341.016976
0.921993 -1.656489 0.547957 59.000000 4 341.016978
0.912447 -1.640012 0.353641 42.000000 2 341.016981
0.898302 -1.615252 0.168232 37.000000 0 341.016984
0.019169 -0.062358 5.929048 103.000000 31 341.016994
0.417649 -0.800426 5.739842 104.000000 28 341.016997
0.543998 -1.045474 5.689515 96.000000 27 341.016999
0.580185 -1.063032 3.916420 66.000000 25 341.017002
0.773834 -1.399444 3.826917 42.000000 23 341.017004
0.973138 -1.759174 3.750025 35.000000 21 341.017007
0.949727 -1.716858 2.954271 66.000000 19 341.017010
1.056161 -1.909272 2.688045 21.000000 17 341.017012
0.146090 -0.317099 5.859578 98.000000 30 341.017020
0.276745 -0.562757 5.796478 97.000000 29 341.017022
0.481003 -0.896294 3.951116 80.000000 26 341.017025
0.678876 -1.232783 3.881332 51.000000 24 341.017028
0.870100 -1.578750 3.789455 39.000000 22 341.017030
1.003165 -1.819454 3.468624 32.000000 20 341.017033
1.050505 -1.905323 2.954740 23.000000 18 341.017035
1.018691 -1.847626 2.365522 24.000000 16 341.017038
1.019227 -1.837206 2.144429 27.000000 15 341.016995
0.991050 -1.786421 1.729052 34.000000 13 341.016998
0.970370 -1.749863 1.396466 37.000000 11 341.017001
0.954627 -1.721479 1.116520 38.000000 9 341.017003
0.937624 -1.691514 0.869706 43.000000 7 341.017006
0.920885 -1.662000 0.648084 45.000000 5 341.017008
0.911829 -1.645655 0.448666 46.000000 3 341.017011
0.895070 -1.616073 0.258475 35.000000 1 341.017013
0.997071 -1.803942 1.916287 31.000000 14 341.017021
0.974995 -1.764006 1.551134 38.000000 12 341.017024
0.955741 -1.729884 1.246524 39.000000 10 341.017026
0.946489 -1.713142 0.992236 45.000000 8 341.017029
0.929456 -1.683006 0.757915 52.000000 6 341.017031
0.911507 -1.651186 0.545612 59.000000 4 341.017034
0.904324 -1.638851 0.352951 42.000000 2 341.017036
0.887833 -1.609629 0.167829 37.000000 0 341.017039
0.018951 -0.062425 5.929048 103.000000 31 341.017050
0.414853 -0.801879 5.739842 104.000000 28 341.017052
0.540346 -1.047366 5.689515 97.000000 27 341.017055
0.577182 -1.066364 3.921192 64.000000 25 341.017057
0.768944 -1.402137 3.826917 42.000000 23 341.017060
0.966991 -1.762561 3.750025 35.000000 21 341.017062
0.943728 -1.720162 2.954271 64.000000 19 341.017065
1.044864 -1.904515 2.676534 21.000000 17 341.017068
0.144982 -0.317607 5.859578 99.000000 30 341.017075
0.274779 -0.563719 5.796478 97.000000 29 341.017078
0.477872 -0.897968 3.951116 78.000000 26 341.017080
0.674568 -1.235145 3.881332 54.000000 24 341.017083
0.864307 -1.581928 3.789455 39.000000 22 341.017086
1.001493 -1.832272 3.485688 31.000000 20 341.017088
1.040623 -1.903871 2.946761 22.000000 18 341.017091
1.008661 -1.845398 2.358171 28.000000 16 341.017093
1.007650 -1.831379 2.133916 30.000000 15 341.017051
0.981055 -1.783048 1.722777 33.000000 13 341.017054
0.960226 -1.745912 1.390983 36.000000 11 341.017056
0.944343 -1.717037 1.111884 39.000000 9 341.017059
0.927247 -1.686651 0.865960 45.000000 7 341.017061
0.910458 -1.656796 0.645265 43.000000 5 341.017064
0.901061 -1.640375 0.446800 48.000000 3 341.017066
0.884347 -1.610613 0.257583 36.000000 1 341.017069
0.986864 -1.801035 1.909637 32.000000 14 341.017077
0.964638 -1.760478 1.545248 37.000000 12 341.017079
0.945252 -1.725813 1.241459 39.000000 10 341.017082
0.938023 -1.712620 0.990138 45.000000 8 341.017084
0.918745 -1.678117 0.754629 50.000000 6 341.017087
0.900782 -1.645989 0.543268 55.000000 4 341.017089
0.895935 -1.637810 0.352261 43.000000 2 341.017092
0.877413 -1.603952 0.167426 37.000000 0 341.017095
0.018722 -0.062494 5.929048 103.000000 31 341.017105
0.411911 -0.803395 5.739842 104.000000 28 341.017108
0.536503 -1.049340 5.689515 97.000000 27 341.017110
0.573270 -1.068472 3.921192 66.000000 25 341.017113
0.763800 -1.404946 3.826917 43.000000 23 341.017115
0.960525 -1.766093 3.750025 37.000000 21 341.017118
0.938761 -1.726082 2.958403 59.000000 19 341.017121
1.031750 -1.897066 2.661186 21.000000 17 341.017123
0.143817 -0.318136 5.859578 99.000000 30 341.017131
0.272711 -0.564722 5.796478 97.000000 29 341.017133
0.474577 -0.899713 3.951116 74.000000 26 341.017136
0.670037 -1.237609 3.881332 51.000000 24 341.017139
0.858780 -1.584936 3.789455 39.000000 22 341.017141
1.000062 -1.844928 3.502751 34.000000 20 341.017144
1.029663 -1.899542 2.934793 24.000000 18 341.017146
0.998982 -1.842947 2.350821 28.000000 16 341.017149
0.995808 -1.825667 2.123402 30.000000 15 341.017106
0.968921 -1.776379 1.713363 33.000000 13 341.017109
0.949817 -1.742077 1.385501 37.000000 11 341.017112
0.933801 -1.712708 1.107248 39.000000 9 341.017114
0.916622 -1.681897 0.862213 47.000000 7 341.017117
0.902084 -1.655909 0.643856 43.000000 5 341.017119
0.892980 -1.639197 0.445868 46.000000 3 341.017122
0.873956 -1.604942 0.256690 35.000000 1 341.017124
0.975222 -1.794625 1.899663 32.000000 14 341.017132
0.952697 -1.753180 1.536419 37.000000 12 341.017135
0.935107 -1.721525 1.236394 39.000000 10 341.017137
0.927707 -1.707907 0.985942 43.000000 8 341.017140
0.908375 -1.673014 0.751344 52.000000 6 341.017142
0.890394 -1.640579 0.540923 55.000000 4 341.017145
0.885489 -1.632222 0.350881 43.000000 2 341.017148
0.869147 -1.602765 0.167224 37.000000 0 341.017150
0.018504 -0.062559 5.929048 103.000000 31 341.017161
0.409104 -0.804828 5.739842 105.000000 28 341.017163
0.532837 -1.051206 5.689515 96.000000 27 341.017166
0.568835 -1.069149 3.916420 66.000000 25 341.017168
0.758891 -1.407604 3.826917 41.000000 23 341.017171
0.955491 -1.771544 3.754413 37.000000 21 341.017174
0.934066 -1.731825 2.962537 57.000000 19 341.017176
1.020556 -1.892191 2.649675 21.000000 17 341.017179
0.142706 -0.318636 5.859578 98.000000 30 341.017186
0.270738 -0.565671 5.796478 98.000000 29 341.017189
0.471434 -0.901365 3.951116 68.000000 26 341.017192
0.665713 -1.239941 3.881332 51.000000 24 341.017194
0.854273 -1.589842 3.793956 39.000000 22 341.017197
0.998555 -1.857597 3.519815 37.000000 20 341.017199
1.017318 -1.892506 2.918835 26.000000 18 341.017202
0.989332 -1.840450 2.343471 28.000000 16 341.017204
0.984339 -1.819722 2.112889 30.000000 15 341.017162
0.959010 -1.772902 1.707088 34.000000 13 341.017165
0.937764 -1.734347 1.377276 37.000000 11 341.017167
0.923603 -1.708163 1.102612 39.000000 9 341.017170
0.908542 -1.681008 0.860340 44.000000 7 341.017172
0.891738 -1.650606 0.641038 46.000000 5 341.017175
0.882583 -1.633660 0.444003 46.000000 3 341.017177
0.863616 -1.599219 0.255798 35.000000 1 341.017180
0.963637 -1.788156 1.889688 34.000000 14 341.017188
0.942737 -1.749378 1.530532 37.000000 12 341.017190
0.925003 -1.717188 1.231329 39.000000 10 341.017193
0.917435 -1.703144 0.981746 45.000000 8 341.017195
0.898052 -1.667858 0.748059 48.000000 6 341.017198
0.882358 -1.639397 0.539751 57.000000 4 341.017200
0.877440 -1.630942 0.350192 43.000000 2 341.017203
0.858815 -1.596989 0.166821 37.000000 0 341.017206
0.018306 -0.062662 5.934048 104.000000 31 341.017216
0.406433 -0.806180 5.739842 105.000000 28 341.017219
0.529348 -1.052967 5.689515 96.000000 27 341.017221
0.565984 -1.072350 3.921192 63.000000 25 341.017224
0.754219 -1.410113 3.826917 40.000000 23 341.017226
0.949612 -1.774702 3.754413 37.000000 21 341.017229
0.929646 -1.737394 2.966669 50.000000 19 341.017231
1.008226 -1.884258 2.634328 21.000000 17 341.017234
0.141648 -0.319108 5.859578 98.000000 30 341.017242
0.268861 -0.566566 5.796478 97.000000 29 341.017244
0.469021 -0.904039 3.955956 53.000000 26 341.017247
0.661597 -1.242141 3.881332 50.000000 24 341.017249
0.848997 -1.592666 3.793956 39.000000 22 341.017252
0.998526 -1.872404 3.541145 40.000000 20 341.017254
1.006782 -1.887891 2.906866 27.000000 18 341.017257
0.978438 -1.834747 2.332445 28.000000 16 341.017260
0.974927 -1.816691 2.105880 30.000000 15 341.017217
0.947604 -1.765782 1.697674 34.000000 13 341.017220
0.928054 -1.730078 1.371793 37.000000 11 341.017222
0.913745 -1.703408 1.097975 39.000000 9 341.017225
0.898581 -1.675840 0.856594 45.000000 7 341.017228
0.883993 -1.649326 0.639629 46.000000 5 341.017230
0.872519 -1.627919 0.442137 44.000000 3 341.017233
0.855956 -1.597685 0.255352 35.000000 1 341.017235
0.954181 -1.784755 1.883039 34.000000 14 341.017243
0.931213 -1.741801 1.521703 37.000000 12 341.017246
0.915239 -1.712641 1.226265 39.000000 10 341.017248
0.907504 -1.698171 0.977550 45.000000 8 341.017251
0.888066 -1.662496 0.744773 48.000000 6 341.017253
0.872338 -1.633738 0.537406 59.000000 4 341.017256
0.867363 -1.625105 0.348812 43.000000 2 341.017258
0.851163 -1.595420 0.166620 37.000000 0 341.017261
0.018087 -0.062726 5.934048 103.000000 31 341.017272
0.403616 -0.807594 5.739842 104.000000 28 341.017274
0.525670 -1.054809 5.689515 97.000000 27 341.017277
0.562237 -1.074319 3.921192 64.000000 25 341.017279
0.749292 -1.412737 3.826917 40.000000 23 341.017282
0.943411 -1.778006 3.754413 37.000000 21 341.017284
0.924895 -1.743114 2.970802 40.000000 19 341.017287
0.997135 -1.879270 2.622817 21.000000 17 341.017289
0.140533 -0.319600 5.859578 98.000000 30 341.017297
0.266882 -0.567501 5.796478 96.000000 29 341.017300
0.466438 -0.906790 3.960795 41.000000 26 341.017302
0.657257 -1.244443 3.881332 51.000000 24 341.017305
0.843432 -1.595620 3.793956 39.000000 22 341.017307
0.990765 -1.873573 3.536879 39.000000 20 341.017310
0.995959 -1.883401 2.894898 27.000000 18 341.017313
0.968858 -1.832157 2.325095 28.000000 16 341.017315
0.961878 -1.807490 2.091861 29.000000 15 341.017273
0.937777 -1.762206 1.691399 35.000000 13 341.017275
0.918082 -1.725924 1.366310 37.000000 11 341.017278
0.903633 -1.698765 1.093340 39.000000 9 341.017280
0.888373 -1.670780 0.852848 47.000000 7 341.017283
0.873728 -1.643929 0.636810 48.000000 5 341.017286
0.864526 -1.626617 0.441205 46.000000 3 341.017288
0.845701 -1.591867 0.254459 33.000000 1 341.017291
0.942697 -1.778177 1.873064 34.000000 14 341.017298
0.921341 -1.737899 1.515816 36.000000 12 341.017301
0.905218 -1.708207 1.221200 39.000000 10 341.017304
0.897320 -1.693308 0.973354 47.000000 8 341.017306
0.877837 -1.657240 0.741488 50.000000 6 341.017309
0.862081 -1.628182 0.535061 57.000000 4 341.017311
0.859369 -1.623745 0.348122 43.000000 2 341.017314
0.843252 -1.593966 0.166418 37.000000 0 341.017316
0.017868 -0.062788 5.934048 99.000000 31 341.017327
0.400795 -0.808997 5.739842 104.000000 28 341.017330
0.522435 -1.057550 5.694410 97.000000 27 341.017332
0.558483 -1.076275 3.921192 64.000000 25 341.017335
0.744356 -1.415344 3.826917 39.000000 23 341.017337
0.937199 -1.781289 3.754413 37.000000 21 341.017340
0.921425 -1.751313 2.979068 38.000000 19 341.017342
0.986091 -1.874228 2.611306 22.000000 17 341.017345
0.139417 -0.320089 5.859578 98.000000 30 341.017353
0.264899 -0.568429 5.796478 96.000000 29 341.017355
0.463270 -0.908412 3.960795 34.000000 26 341.017358
0.652909 -1.246730 3.881332 50.000000 24 341.017360
0.837857 -1.598554 3.793956 39.000000 22 341.017363
0.983007 -1.874710 3.532613 37.000000 20 341.017366
0.985179 -1.878858 2.882929 27.000000 18 341.017368
0.957734 -1.826520 2.314069 28.000000 16 341.017371
0.950570 -1.801375 2.081348 30.000000 15 341.017328
0.927986 -1.758583 1.685123 35.000000 13 341.017331
0.908150 -1.721721 1.360827 37.000000 11 341.017333
0.895630 -1.697990 1.091021 39.000000 9 341.017336
0.878211 -1.665669 0.849102 45.000000 7 341.017339
0.863511 -1.638481 0.633992 50.000000 5 341.017341
0.854262 -1.620933 0.439339 46.000000 3 341.017344
0.837818 -1.590403 0.254013 33.000000 1 341.017346
0.933009 -1.774846 1.866414 34.000000 14 341.017354
0.911508 -1.733949 1.509930 37.000000 12 341.017357
0.895239 -1.703723 1.216135 39.000000 10 341.017359
0.887182 -1.688395 0.969158 49.000000 8 341.017362
0.867655 -1.651932 0.738202 50.000000 6 341.017364
0.854133 -1.626878 0.533889 55.000000 4 341.017367
0.849093 -1.617965 0.346743 43.000000 2 341.017369
0.835362 -1.592476 0.166217 37.000000 0 341.017372
0.017649 -0.062850 5.934048 99.000000 31 341.017383
0.397968 -0.810392 5.739842 104.000000 28 341.017385
0.518740 -1.059367 5.694410 97.000000 27 341.017388
0.554723 -1.078218 3.921192 63.000000 25 341.017390
0.739411 -1.417933 3.826917 40.000000 23 341.017393
0.930975 -1.784549 3.754413 37.000000 21 341.017395
0.917909 -1.759509 2.987334 35.000000 19 341.017398
0.973611 -1.866289 2.595958 23.000000 17 341.017400
0.138299 -0.320573 5.859578 98.000000 30 341.017408
0.262913 -0.569350 5.796478 96.000000 29 341.017411
0.462932 -0.915637 3.984991 30.000000 26 341.017413
0.648554 -1.249001 3.881332 51.000000 24 341.017416
0.832272 -1.601469 3.793956 39.000000 22 341.017418
0.975254 -1.875816 3.528347 37.000000 20 341.017421
0.974444 -1.874263 2.870961 25.000000 18 341.017424
0.946661 -1.820829 2.303044 29.000000 16 341.017426
0.939316 -1.795202 2.070834 30.000000 15 341.017384
0.916428 -1.751464 1.675710 35.000000 13 341.017386
0.898259 -1.717470 1.355344 36.000000 11 341.017389
0.885591 -1.693255 1.086385 39.000000 9 341.017392
0.868096 -1.660508 0.845356 45.000000 7 341.017394
0.855564 -1.637233 0.632583 48.000000 5 341.017397
0.846324 -1.619552 0.438407 48.000000 3 341.017399
0.829956 -1.588904 0.253567 35.000000 1 341.017402
0.923356 -1.771469 1.859764 34.000000 14 341.017410
0.899845 -1.726367 1.501101 37.000000 12 341.017412
0.885303 -1.699191 1.211070 39.000000 10 341.017415
0.877089 -1.683431 0.964962 49.000000 8 341.017417
0.859702 -1.650762 0.736560 50.000000 6 341.017420
0.843960 -1.621227 0.531544 57.000000 4 341.017422
0.838869 -1.612133 0.345363 43.000000 2 341.017425
0.825188 -1.586517 0.165813 37.000000 0 341.017427
0.017429 -0.062912 5.934048 103.000000 31 341.017438
0.395137 -0.811776 5.739842 98.000000 28 341.017441
0.515039 -1.061172 5.694410 97.000000 27 341.017443
0.550956 -1.080148 3.921192 64.000000 25 341.017446
0.734457 -1.420506 3.826917 40.000000 23 341.017448
0.925841 -1.789916 3.758802 37.000000 21 341.017451
0.914347 -1.767701 2.995600 32.000000 19 341.017453
0.962672 -1.861133 2.584447 23.000000 17 341.017456
0.137179 -0.321054 5.859578 98.000000 30 341.017464
0.260924 -0.570264 5.796478 96.000000 29 341.017466
0.459733 -0.917247 3.984991 24.000000 26 341.017469
0.644190 -1.251258 3.881332 47.000000 24 341.017471
0.826677 -1.604365 3.793956 39.000000 22 341.017474
0.968701 -1.879209 3.528347 35.000000 20 341.017477
0.963753 -1.869616 2.858992 25.000000 18 341.017479
0.935639 -1.815082 2.292018 29.000000 16 341.017482
0.928117 -1.788973 2.060320 30.000000 15 341.017439
0.906723 -1.747741 1.669434 35.000000 13 341.017442
0.888409 -1.713171 1.349862 36.000000 11 341.017444
0.875597 -1.688470 1.081749 40.000000 9 341.017447
0.858027 -1.655297 0.841610 45.000000 7 341.017450
0.845430 -1.631691 0.629764 48.000000 5 341.017452
0.838406 -1.618134 0.437474 48.000000 3 341.017455
0.822114 -1.587369 0.253121 35.000000 1 341.017457
0.913738 -1.768046 1.853115 35.000000 14 341.017465
0.890102 -1.722316 1.495214 37.000000 12 341.017468
0.875409 -1.694610 1.206005 39.000000 10 341.017470
0.869124 -1.682450 0.962864 47.000000 8 341.017473
0.849601 -1.645361 0.733274 48.000000 6 341.017475
0.836066 -1.619843 0.530372 57.000000 4 341.017478
0.828695 -1.606249 0.343983 43.000000 2 341.017480
0.817355 -1.584948 0.165612 37.000000 0 341.017483
0.017201 -0.062929 5.929048 103.000000 31 341.017494
0.392638 -0.813850 5.744781 98.000000 28 341.017496
0.511332 -1.062963 5.694410 97.000000 27 341.017499
0.546508 -1.080731 3.916420 63.000000 25 341.017501
0.729494 -1.423061 3.826917 40.000000 23 341.017504
0.919587 -1.793137 3.758802 37.000000 21 341.017506
0.913308 -1.780898 3.012132 30.000000 19 341.017509
0.951781 -1.855924 2.572937 23.000000 17 341.017512
0.136057 -0.321531 5.859578 98.000000 30 341.017519
0.258932 -0.571172 5.796478 96.000000 29 341.017522
0.457088 -0.919973 3.989830 22.000000 26 341.017524
0.640603 -1.255036 3.886025 47.000000 24 341.017527
0.821071 -1.607241 3.793956 39.000000 22 341.017530
0.960948 -1.880256 3.524081 34.000000 20 341.017532
0.953106 -1.864917 2.847024 25.000000 18 341.017535
0.924669 -1.809280 2.280993 29.000000 16 341.017537
0.916973 -1.782688 2.049807 30.000000 15 341.017495
0.897055 -1.743972 1.663159 35.000000 13 341.017497
0.876687 -1.705106 1.341637 37.000000 11 341.017500
0.867672 -1.687576 1.079431 39.000000 9 341.017503
0.848006 -1.650035 0.837864 47.000000 7 341.017505
0.835345 -1.626098 0.626946 48.000000 5 341.017508
0.828263 -1.612312 0.435609 48.000000 3 341.017510
0.812019 -1.581369 0.252228 35.000000 1 341.017513
0.904155 -1.764578 1.846465 35.000000 14 341.017521
0.880398 -1.718218 1.489328 37.000000 12 341.017523
0.865557 -1.689981 1.200940 39.000000 10 341.017526
0.859108 -1.677395 0.958668 49.000000 8 341.017528
0.839548 -1.639909 0.729989 48.000000 6 341.017531
0.825979 -1.614098 0.528027 57.000000 4 341.017533
0.818573 -1.600314 0.342604 42.000000 2 341.017536
0.807269 -1.578895 0.165209 37.000000 0 341.017538
0.016981 -0.062989 5.929048 103.000000 31 341.017549
0.389795 -0.815216 5.744781 103.000000 28 341.017552
0.508056 -1.065661 5.699306 96.000000 27 341.017554
0.542733 -1.082632 3.916420 63.000000 25 341.017557
0.724522 -1.425598 3.826917 40.000000 23 341.017559
0.913322 -1.796336 3.758802 37.000000 21 341.017562
0.919839 -1.809159 3.053461 27.000000 19 341.017564
0.939485 -1.847804 2.557589 23.000000 17 341.017567
0.134934 -0.322004 5.859578 98.000000 30 341.017575
0.256937 -0.572072 5.796478 96.000000 29 341.017577
0.636218 -1.257264 3.886025 51.000000 24 341.017582
0.815456 -1.610097 3.793956 39.000000 22 341.017585
0.954379 -1.883599 3.524081 18.000000 20 341.017588
0.942504 -1.860167 2.835055 24.000000 18 341.017590
0.915284 -1.806449 2.273643 29.000000 16 341.017593
0.907504 -1.779524 2.042798 30.000000 15 341.017550
0.887425 -1.740157 1.656883 35.000000 13 341.017553
0.868831 -1.704430 1.338896 37.000000 11 341.017556
0.857752 -1.682701 1.074795 39.000000 9 341.017558
0.840136 -1.648855 0.835991 44.000000 7 341.017561
0.825309 -1.620454 0.624128 50.000000 5 341.017563
0.820401 -1.610816 0.434676 50.000000 3 341.017566
0.804234 -1.579756 0.251782 35.000000 1 341.017568
0.894607 -1.761065 1.839815 35.000000 14 341.017576
0.870733 -1.714073 1.483442 37.000000 12 341.017579
0.857701 -1.689148 1.198408 40.000000 10 341.017581
0.851193 -1.676337 0.956570 49.000000 8 341.017584
0.831681 -1.638619 0.728346 48.000000 6 341.017586
0.818140 -1.612637 0.526855 57.000000 4 341.017589
0.810742 -1.598745 0.341914 40.000000 2 341.017591
0.799494 -1.577247 0.165007 37.000000 0 341.017594
0.016761 -0.063048 5.929048 103.000000 31 341.017605
0.386947 -0.816571 5.744781 104.000000 28 341.017607
0.504333 -1.067428 5.699306 96.000000 27 341.017610
0.538950 -1.084520 3.916420 63.000000 25 341.017612
0.719542 -1.428119 3.826917 40.000000 23 341.017615
0.907047 -1.799513 3.758802 37.000000 21 341.017617
0.922385 -1.829949 3.082392 25.000000 19 341.017620
0.928700 -1.842484 2.546078 24.000000 17 341.017623
0.133866 -0.322450 5.859578 99.000000 30 341.017630
0.255038 -0.572921 5.796478 96.000000 29 341.017633
0.626835 -1.283636 5.533537 52.000000 26 341.017635
0.632045 -1.259367 3.886025 54.000000 24 341.017638
0.809831 -1.612934 3.793956 39.000000 22 341.017641
0.946628 -1.884588 3.519815 12.000000 20 341.017643
0.931947 -1.855366 2.823087 25.000000 18 341.017646
0.904721 -1.800387 2.262617 30.000000 16 341.017648
0.896460 -1.773133 2.032284 31.000000 15 341.017606
0.877833 -1.736296 1.650608 36.000000 13 341.017608
0.859104 -1.699989 1.333413 37.000000 11 341.017611
0.847876 -1.677777 1.070159 39.000000 9 341.017614
0.830482 -1.643356 0.832245 45.000000 7 341.017616
0.817768 -1.618900 0.622718 48.000000 5 341.017619
0.810345 -1.604900 0.432811 50.000000 3 341.017621
0.796471 -1.578108 0.251336 35.000000 1 341.017624
0.883416 -1.754171 1.829841 35.000000 14 341.017632
0.861109 -1.709882 1.477555 37.000000 12 341.017634
0.848217 -1.684282 1.193343 40.000000 10 341.017637
0.841546 -1.671043 0.952373 47.000000 8 341.017639
0.821996 -1.632931 0.725061 48.000000 6 341.017642
0.808419 -1.606657 0.524511 58.000000 4 341.017644
0.800986 -1.592577 0.340534 39.000000 2 341.017647
0.789771 -1.570962 0.164604 37.000000 0 341.017650
0.016560 -0.063146 5.934048 104.000000 31 341.017660
0.384237 -0.817850 5.744781 104.000000 28 341.017663
0.500791 -1.069094 5.699306 98.000000 27 341.017665
0.535351 -1.086302 3.916420 63.000000 25 341.017668
0.715675 -1.432245 3.831520 41.000000 23 341.017670
0.901074 -1.802511 3.758802 37.000000 21 341.017673
0.928894 -1.858168 3.123721 22.000000 19 341.017676
0.916851 -1.834083 2.530730 24.000000 17 341.017678
0.132739 -0.322915 5.859578 99.000000 30 341.017686
0.253037 -0.573808 5.796478 96.000000 29 341.017688
0.625637 -1.292610 5.562572 73.000000 26 341.017691
0.627645 -1.261566 3.886025 51.000000 24 341.017694
0.804478 -1.615610 3.793956 39.000000 22 341.017696
0.939210 -1.885383 3.515549 12.000000 20 341.017699
0.921757 -1.850353 2.811118 25.000000 18 341.017701
0.895408 -1.797465 2.255267 30.000000 16 341.017704
0.887378 -1.769720 2.025275 31.000000 15 341.017661
0.868580 -1.732237 1.644332 36.000000 13 341.017664
0.849715 -1.695352 1.327930 37.000000 11 341.017667
0.838338 -1.672658 1.065523 40.000000 9 341.017669
0.820587 -1.637955 0.828499 44.000000 7 341.017672
0.807816 -1.613166 0.619900 48.000000 5 341.017674
0.802819 -1.603186 0.431878 50.000000 3 341.017677
0.786775 -1.571833 0.250443 35.000000 1 341.017679
0.874257 -1.750409 1.823191 35.000000 14 341.017687
0.851822 -1.705496 1.471669 38.000000 12 341.017690
0.838481 -1.679518 1.188278 40.000000 10 341.017692
0.831654 -1.665849 0.948177 47.000000 8 341.017695
0.814183 -1.631565 0.723418 50.000000 6 341.017697
0.798466 -1.600770 0.522166 57.000000 4 341.017700
0.793212 -1.590931 0.339844 39.000000 2 341.017702
0.782054 -1.569238 0.164403 37.000000 0 341.017705
0.016340 -0.063203 5.934048 104.000000 31 341.017716
0.381380 -0.819186 5.744781 103.000000 28 341.017718
0.497056 -1.070836 5.699306 98.000000 27 341.017721
0.532211 -1.089506 3.921192 62.000000 25 341.017723
0.709804 -1.432983 3.826917 39.000000 23 341.017726
0.895840 -1.807792 3.763191 37.000000 21 341.017728
0.923651 -1.863921 3.127854 21.000000 19 341.017731
0.906173 -1.828655 2.519219 24.000000 17 341.017734
0.131611 -0.323376 5.859578 99.000000 30 341.017741
0.251032 -0.574687 5.796478 96.000000 29 341.017744
0.624928 -1.302725 5.596447 83.000000 26 341.017746
0.623238 -1.263749 3.886025 51.000000 24 341.017749
0.799797 -1.620361 3.798456 40.000000 22 341.017752
0.931468 -1.886311 3.511283 13.000000 20 341.017754
0.911289 -1.845452 2.799150 26.000000 18 341.017757
0.884625 -1.791460 2.244241 30.000000 16 341.017759
0.876433 -1.763227 2.014761 31.000000 15 341.017717
0.859063 -1.728287 1.638057 36.000000 13 341.017720
0.840071 -1.690818 1.322447 37.000000 11 341.017722
0.828552 -1.667639 1.060887 40.000000 9 341.017725
0.810741 -1.632506 0.824753 40.000000 7 341.017727
0.800047 -1.611679 0.618491 50.000000 5 341.017730
0.792849 -1.597179 0.430013 50.000000 3 341.017732
0.779070 -1.570109 0.249997 35.000000 1 341.017735
0.864827 -1.746757 1.816541 35.000000 14 341.017743
0.842276 -1.701214 1.465783 38.000000 12 341.017745
0.828789 -1.674707 1.183213 40.000000 10 341.017748
0.821808 -1.660607 0.943981 49.000000 8 341.017750
0.804295 -1.625932 0.720133 50.000000 6 341.017753
0.790719 -1.599190 0.520994 58.000000 4 341.017755
0.783265 -1.584811 0.338465 38.000000 2 341.017758
0.772146 -1.563000 0.164000 37.000000 0 341.017761
0.016119 -0.063260 5.934048 104.000000 31 341.017771
0.378518 -0.820513 5.744781 103.000000 28 341.017774
0.493315 -1.072564 5.699306 97.000000 27 341.017776
0.528405 -1.091357 3.921192 64.000000 25 341.017779
0.704798 -1.435452 3.826917 38.000000 23 341.017781
0.889525 -1.810908 3.763191 37.000000 21 341.017784
0.920861 -1.874711 3.140253 23.000000 19 341.017787
0.894131 -1.820297 2.503871 25.000000 17 341.017789
0.130482 -0.323834 5.859578 99.000000 30 341.017797
0.249025 -0.575560 5.796478 96.000000 29 341.017799
0.623077 -1.310578 5.620643 87.000000 26 341.017802
0.618823 -1.265917 3.886025 51.000000 24 341.017805
0.794136 -1.623143 3.798456 39.000000 22 341.017807
0.923732 -1.887209 3.507017 16.000000 20 341.017810
0.900867 -1.840501 2.787181 26.000000 18 341.017812
0.873895 -1.785402 2.233216 30.000000 16 341.017815
0.867121 -1.759877 2.007752 31.000000 15 341.017772
0.849584 -1.724291 1.631781 36.000000 13 341.017775
0.830469 -1.686238 1.316964 37.000000 11 341.017778
0.818811 -1.662572 1.056251 40.000000 9 341.017780
0.802990 -1.631166 0.822880 40.000000 7 341.017783
0.792298 -1.610157 0.617082 50.000000 5 341.017785
0.785101 -1.595529 0.429081 50.000000 3 341.017788
0.769189 -1.563882 0.249105 35.000000 1 341.017790
0.853789 -1.739708 1.806567 35.000000 14 341.017798
0.832771 -1.696887 1.459896 37.000000 12 341.017801
0.819140 -1.669848 1.178148 40.000000 10 341.017803
0.812009 -1.655316 0.939785 49.000000 8 341.017806
0.794456 -1.620249 0.716848 46.000000 6 341.017808
0.780854 -1.593211 0.518649 58.000000 4 341.017811
0.775550 -1.583089 0.337775 38.000000 2 341.017814
0.764488 -1.561199 0.163798 37.000000 0 341.017816
0.015898 -0.063316 5.934048 103.000000 31 341.017827
0.375652 -0.821829 5.744781 104.000000 28 341.017829
0.489568 -1.074280 5.699306 98.000000 27 341.017832
0.524592 -1.093195 3.921192 64.000000 25 341.017834
0.699783 -1.437904 3.826917 38.000000 23 341.017837
0.883198 -1.814002 3.763191 37.000000 21 341.017840
0.908153 -1.865263 3.119588 23.000000 19 341.017842
0.883561 -1.814759 2.492361 25.000000 17 341.017845
0.129350 -0.324287 5.859578 98.000000 30 341.017852
0.247014 -0.576426 5.796478 96.000000 29 341.017855
0.618498 -1.312745 5.620643 76.000000 26 341.017858
0.614400 -1.268069 3.886025 51.000000 24 341.017860
0.788465 -1.625905 3.798456 39.000000 22 341.017863
0.914862 -1.885729 3.498486 15.000000 20 341.017865
0.891806 -1.838211 2.779202 26.000000 18 341.017868
0.863219 -1.779291 2.222190 30.000000 16 341.017870
0.856277 -1.753280 1.997239 31.000000 15 341.017828
0.840143 -1.720250 1.625505 36.000000 13 341.017831
0.820909 -1.681611 1.311481 38.000000 11 341.017833
0.809115 -1.657458 1.051615 40.000000 9 341.017836
0.793225 -1.625627 0.819134 44.000000 7 341.017838
0.782467 -1.604289 0.614263 50.000000 5 341.017841
0.775220 -1.589430 0.427215 48.000000 3 341.017843
0.761543 -1.562081 0.248659 35.000000 1 341.017846
0.844444 -1.735961 1.799917 35.000000 14 341.017854
0.823307 -1.692514 1.454010 38.000000 12 341.017856
0.809536 -1.664943 1.173084 40.000000 10 341.017859
0.802256 -1.649977 0.935589 50.000000 8 341.017861
0.786731 -1.618765 0.715205 48.000000 6 341.017864
0.773164 -1.591555 0.517477 58.000000 4 341.017866
0.767856 -1.581331 0.337085 39.000000 2 341.017869
0.754671 -1.554869 0.163395 37.000000 0 341.017872
0.015677 -0.063371 5.934048 104.000000 31 341.017883
0.372781 -0.823135 5.744781 104.000000 28 341.017886
0.485815 -1.075982 5.699306 99.000000 27 341.017888
0.521414 -1.096368 3.925964 64.000000 25 341.017891
0.694759 -1.440338 3.826917 40.000000 23 341.017893
0.876860 -1.817074 3.763191 36.000000 21 341.017896
0.899190 -1.863353 3.111322 22.000000 19 341.017898
0.871648 -1.806283 2.477013 25.000000 17 341.017901
0.128218 -0.324737 5.859578 99.000000 30 341.017909
0.245001 -0.577285 5.796478 96.000000 29 341.017911
0.614976 -1.317176 5.630321 58.000000 26 341.017914
0.609970 -1.270206 3.886025 51.000000 24 341.017916
0.782785 -1.628647 3.798456 39.000000 22 341.017919
0.904883 -1.881860 3.485688 14.000000 20 341.017921
0.881466 -1.833164 2.767234 26.000000 18 341.017924
0.852595 -1.773128 2.211165 31.000000 16 341.017927
0.847044 -1.749838 1.990229 31.000000 15 341.017884
0.830741 -1.716164 1.619230 37.000000 13 341.017887
0.811392 -1.676939 1.305998 37.000000 11 341.017889
0.799466 -1.652297 1.046979 40.000000 9 341.017892
0.785528 -1.624212 0.817261 45.000000 7 341.017895
0.774774 -1.602692 0.612854 50.000000 5 341.017897
0.767529 -1.587704 0.426283 50.000000 3 341.017900
0.753919 -1.560245 0.248212 35.000000 1 341.017902
0.833514 -1.728807 1.789943 35.000000 14 341.017910
0.813883 -1.688096 1.448124 38.000000 12 341.017913
0.799976 -1.659991 1.168019 40.000000 10 341.017915
0.792552 -1.644590 0.931393 49.000000 8 341.017918
0.776977 -1.612992 0.711920 51.000000 6 341.017920
0.763386 -1.585486 0.515132 58.000000 4 341.017923
0.758036 -1.575077 0.335706 40.000000 2 341.017925
0.747073 -1.552992 0.163194 37.000000 0 341.017928
0.015456 -0.063425 5.934048 104.000000 31 341.017939
0.369905 -0.824431 5.744781 104.000000 28 341.017941
0.482056 -1.077672 5.699306 97.000000 27 341.017944
0.517584 -1.098181 3.925964 63.000000 25 341.017946
0.689727 -1.442754 3.826917 40.000000 23 341.017949
0.870512 -1.820124 3.763191 36.000000 21 341.017951
0.889038 -1.858865 3.098924 20.000000 19 341.017954
0.861188 -1.800638 2.465502 26.000000 17 341.017956
0.126979 -0.324912 5.854586 98.000000 30 341.017964
0.242984 -0.578136 5.796478 96.000000 29 341.017967
0.612486 -1.323881 5.649678 36.000000 26 341.017969
0.605532 -1.272328 3.886025 52.000000 24 341.017972
0.777095 -1.631370 3.798456 39.000000 22 341.017974
0.896065 -1.880298 3.477156 14.000000 20 341.017977
0.871172 -1.828067 2.755265 26.000000 18 341.017980
0.842025 -1.766912 2.200139 31.000000 16 341.017982
0.836303 -1.743138 1.979716 32.000000 15 341.017940
0.821377 -1.712034 1.612954 37.000000 13 341.017942
0.801917 -1.672220 1.300515 38.000000 11 341.017945
0.791778 -1.651082 1.044661 40.000000 9 341.017947
0.775845 -1.618584 0.813515 45.000000 7 341.017950
0.767102 -1.601060 0.611445 50.000000 5 341.017953
0.757737 -1.581513 0.424418 48.000000 3 341.017955
0.744166 -1.553884 0.247320 35.000000 1 341.017958
0.824254 -1.724967 1.783293 35.000000 14 341.017965
0.804500 -1.683632 1.442237 38.000000 12 341.017968
0.790461 -1.654993 1.162954 39.000000 10 341.017971
0.784850 -1.643251 0.929295 49.000000 8 341.017973
0.769307 -1.611432 0.710277 53.000000 6 341.017976
0.755754 -1.583754 0.513960 58.000000 4 341.017978
0.750402 -1.573244 0.335016 40.000000 2 341.017981
0.737348 -1.546571 0.162791 37.000000 0 341.017983
0.015234 -0.063479 5.934048 104.000000 31 341.017994
0.367025 -0.825718 5.744781 104.000000 28 341.017997
0.478292 -1.079348 5.699306 97.000000 27 341.017999
0.513747 -1.099981 3.925964 64.000000 25 341.018002
0.684687 -1.445153 3.826917 40.000000 23 341.018004
0.864154 -1.823151 3.763191 36.000000 21 341.018007
0.878928 -1.854328 3.086525 20.000000 19 341.018009
0.850778 -1.794943 2.453991 25.000000 17 341.018012
0.125844 -0.325354 5.854586 98.000000 30 341.018020
0.240964 -0.578981 5.796478 96.000000 29 341.018022
0.605766 -1.321437 5.630321 18.000000 26 341.018025
0.601087 -1.274433 3.886025 51.000000 24 341.018027
0.771396 -1.634073 3.798456 39.000000 22 341.018030
0.886155 -1.876340 3.464358 14.000000 20 341.018033
0.860924 -1.822921 2.743297 26.000000 18 341.018035
0.832957 -1.763709 2.192789 31.000000 16 341.018038
0.827150 -1.739605 1.972707 32.000000 15 341.017995
0.812053 -1.707859 1.606679 37.000000 13 341.017998
0.792485 -1.667456 1.295032 38.000000 11 341.018000
0.782206 -1.645833 1.040025 40.000000 9 341.018003
0.766212 -1.612907 0.809769 44.000000 7 341.018006
0.757393 -1.595061 0.608626 51.000000 5 341.018008
0.750105 -1.579711 0.423485 40.000000 3 341.018011
0.736602 -1.551973 0.246874 34.000000 1 341.018013
0.813433 -1.717708 1.773318 35.000000 14 341.018021
0.795159 -1.679124 1.436351 38.000000 12 341.018024
0.780990 -1.649948 1.157889 39.000000 10 341.018026
0.775226 -1.637777 0.925099 50.000000 8 341.018029
0.759638 -1.605571 0.706991 53.000000 6 341.018031
0.746065 -1.577594 0.511615 58.000000 4 341.018034
0.742789 -1.571377 0.334326 39.000000 2 341.018036
0.729811 -1.544618 0.162589 36.000000 0 341.018039
0.015020 -0.063575 5.939047 103.000000 31 341.018050
0.364141 -0.826994 5.744781 104.000000 28 341.018052
0.474521 -1.081010 5.699306 98.000000 27 341.018055
0.509905 -1.101768 3.925964 64.000000 25 341.018057
0.679638 -1.447534 3.826917 40.000000 23 341.018060
0.857784 -1.826156 3.763191 36.000000 21 341.018062
0.868861 -1.849744 3.074126 19.000000 19 341.018065
0.840418 -1.789196 2.442480 26.000000 17 341.018067
0.124707 -0.325791 5.854586 99.000000 30 341.018075
0.238942 -0.579819 5.796478 96.000000 29 341.018078
0.602189 -1.325834 5.639999 9.000000 26 341.018080
0.596635 -1.276524 3.886025 52.000000 24 341.018083
0.765687 -1.636755 3.798456 39.000000 22 341.018085
0.875178 -1.869973 3.447294 14.000000 20 341.018088
0.850723 -1.817726 2.731328 27.000000 18 341.018091
0.822484 -1.757395 2.181763 32.000000 16 341.018093
0.818033 -1.736030 1.965698 32.000000 15 341.018051
0.802768 -1.703641 1.600403 37.000000 13 341.018053
0.783097 -1.662646 1.289549 38.000000 11 341.018056
0.774569 -1.644546 1.037707 40.000000 9 341.018059
0.756628 -1.607183 0.806022 44.000000 7 341.018061
0.749778 -1.593354 0.607217 53.000000 5 341.018064
0.740403 -1.573430 0.421620 40.000000 3 341.018066
0.726941 -1.545522 0.245981 34.000000 1 341.018069
0.804259 -1.713776 1.766669 35.000000 14 341.018077
0.785858 -1.674571 1.430465 38.000000 12 341.018079
0.771564 -1.644858 1.152824 39.000000 10 341.018082
0.765649 -1.632255 0.920903 50.000000 8 341.018084
0.752024 -1.603937 0.705349 53.000000 6 341.018087
0.738491 -1.575788 0.510443 60.000000 4 341.018089
0.733098 -1.564991 0.332946 36.000000 2 341.018092
0.722296 -1.542632 0.162387 36.000000 0 341.018094
0.014798 -0.063627 5.939047 103.000000 31 341.018105
0.361252 -0.828260 5.744781 104.000000 28 341.018108
0.470745 -1.082660 5.699306 98.000000 27 341.018110
0.506056 -1.103541 3.925964 64.000000 25 341.018113
0.674581 -1.449898 3.826917 39.000000 23 341.018115
0.851405 -1.829140 3.763191 36.000000 21 341.018118
0.858836 -1.845112 3.061727 19.000000 19 341.018120
0.830109 -1.783400 2.430969 26.000000 17 341.018123
0.123569 -0.326224 5.854586 99.000000 30 341.018131
0.236916 -0.580649 5.796478 96.000000 29 341.018133
0.594977 -1.322193 5.615803 4.000000 26 341.018136
0.592176 -1.278599 3.886025 50.000000 24 341.018138
0.759969 -1.639418 3.798456 39.000000 22 341.018141
0.865353 -1.865918 3.434496 14.000000 20 341.018144
0.840568 -1.812482 2.719360 27.000000 18 341.018146
0.813492 -1.754104 2.174413 31.000000 16 341.018149
0.807441 -1.729181 1.955184 32.000000 15 341.018106
0.791875 -1.695851 1.590990 37.000000 13 341.018109
0.775520 -1.661581 1.286808 38.000000 11 341.018111
0.765076 -1.639211 1.033071 40.000000 9 341.018114
0.749054 -1.605613 0.804149 45.000000 7 341.018117
0.742185 -1.591614 0.605808 53.000000 5 341.018119
0.732830 -1.571553 0.420687 46.000000 3 341.018122
0.719438 -1.543537 0.245535 34.000000 1 341.018124
0.795123 -1.709801 1.760019 35.000000 14 341.018132
0.778304 -1.673639 1.427522 38.000000 12 341.018135
0.762183 -1.639722 1.147759 39.000000 10 341.018137
0.758034 -1.630802 0.918805 47.000000 8 341.018140
0.742441 -1.597986 0.702063 53.000000 6 341.018142
0.730939 -1.573948 0.509270 60.000000 4 341.018145
0.725546 -1.563048 0.332256 36.000000 2 341.018147
0.714804 -1.540612 0.162186 36.000000 0 341.018150
0.014576 -0.063678 5.939047 103.000000 31 341.018161
0.358358 -0.829516 5.744781 105.000000 28 341.018163
0.466963 -1.084297 5.699306 97.000000 27 341.018166
0.502200 -1.105301 3.925964 63.000000 25 341.018168
0.670334 -1.454018 3.831520 39.000000 23 341.018171
0.845015 -1.832101 3.763191 36.000000 21 341.018173
0.848855 -1.840433 3.049328 19.000000 19 341.018176
0.821193 -1.780464 2.423295 26.000000 17 341.018179
0.122531 -0.326925 5.859578 99.000000 30 341.018186
0.235088 -0.581968 5.801450 96.000000 29 341.018189
0.587709 -1.280658 3.886025 48.000000 24 341.018194
0.754242 -1.642061 3.798456 39.000000 22 341.018197
0.855568 -1.861818 3.421699 14.000000 20 341.018199
0.830461 -1.807189 2.707391 27.000000 18 341.018202
0.803118 -1.747691 2.163388 31.000000 16 341.018204
0.798405 -1.725516 1.948175 33.000000 15 341.018162
0.782681 -1.691539 1.584714 37.000000 13 341.018164
0.766204 -1.656687 1.281325 38.000000 11 341.018167
0.755630 -1.633829 1.028435 40.000000 9 341.018170
0.739554 -1.599802 0.800403 45.000000 7 341.018172
0.732600 -1.585485 0.602990 52.000000 5 341.018175
0.723219 -1.565183 0.418822 46.000000 3 341.018177
0.711957 -1.541517 0.245089 29.000000 1 341.018180
0.786024 -1.705783 1.753369 35.000000 14 341.018188
0.769074 -1.669003 1.421635 38.000000 12 341.018190
0.754651 -1.638457 1.145227 40.000000 10 341.018193
0.748540 -1.625193 0.914608 49.000000 8 341.018195
0.734884 -1.596278 0.700421 55.000000 6 341.018198
0.723408 -1.572074 0.508098 60.000000 4 341.018200
0.718016 -1.561072 0.331567 39.000000 2 341.018203
0.707335 -1.538558 0.161984 35.000000 0 341.018205
0.014354 -0.063729 5.939047 98.000000 31 341.018216
0.355460 -0.830762 5.744781 104.000000 28 341.018219
0.463175 -1.085920 5.699306 97.000000 27 341.018221
0.498339 -1.107047 3.925964 62.000000 25 341.018224
0.665254 -1.456349 3.831520 39.000000 23 341.018226
0.838614 -1.835039 3.763191 36.000000 21 341.018229
0.838916 -1.835706 3.036930 20.000000 19 341.018231
0.810976 -1.774572 2.411785 27.000000 17 341.018234
0.121389 -0.327351 5.859578 98.000000 30 341.018242
0.233055 -0.582785 5.801450 96.000000 29 341.018244
0.583235 -1.282702 3.886025 50.000000 24 341.018249
0.748506 -1.644684 3.798456 39.000000 22 341.018252
0.844741 -1.855299 3.404635 14.000000 20 341.018255
0.820401 -1.801847 2.695423 28.000000 18 341.018257
0.792798 -1.741228 2.152362 31.000000 16 341.018260
0.787919 -1.718567 1.937661 33.000000 15 341.018217
