# .PCD v.7 - Point Cloud Data file format
VERSION .7
FIELDS x y z intensity ring timestamp
SIZE 4 4 4 4 2 8
TYPE F F F F U D
COUNT 1 1 1 1 1 1
WIDTH 932
HEIGHT 1
VIEWPOINT 0 0 0 1 0 0 0
POINTS 932
DATA ascii
-3.320338 2.831823 3.261111 7.000000 12 340.961336
-3.861647 3.294657 3.067338 10.000000 10 340.961338
-4.644679 3.962723 2.909857 10.000000 8 340.961341
-6.129076 5.232871 2.034455 9.000000 4 340.961346
-6.318704 5.396679 1.249712 8.000000 2 340.961348
-6.548202 5.594666 0.441105 8.000000 0 340.961351
-0.030890 0.038709 4.124116 11.000000 31 340.961362
-0.413279 0.372376 3.536933 2.000000 28 340.961364
-0.556481 0.502628 3.628624 23.000000 27 340.961367
-0.863733 0.749898 3.701693 3.000000 25 340.961369
-1.410428 1.210992 4.439053 87.000000 23 340.961372
-2.658109 2.281476 6.484160 9.000000 21 340.961374
-2.584257 2.218091 5.074474 20.000000 19 340.961377
-2.949883 2.531916 4.729300 7.000000 17 340.961379
-0.161566 0.160189 3.763102 14.000000 30 340.961387
-0.274668 0.259375 3.474829 16.000000 29 340.961390
-0.693536 0.610754 3.593015 3.000000 26 340.961392
-1.118464 0.963700 4.069043 88.000000 24 340.961395
-1.639740 1.412368 4.536593 89.000000 22 340.961397
-2.710856 2.334158 5.921536 8.000000 20 340.961400
-2.676539 2.304613 4.750015 65.000000 18 340.961403
-2.988680 2.573385 4.353786 11.000000 16 340.961405
-3.584322 3.068872 4.716767 12.000000 15 340.961363
-3.515311 3.009788 3.812536 14.000000 13 340.961365
-3.625240 3.105005 3.214058 26.000000 11 340.961368
-3.984943 3.413094 2.831859 13.000000 9 340.961370
-4.802516 4.114797 2.643468 13.000000 7 340.961373
-3.376817 2.894279 1.396367 14.000000 5 340.961376
-6.197884 5.314103 1.641487 10.000000 3 340.961378
-6.388173 5.479192 0.847026 9.000000 1 340.961381
-3.529037 3.032227 4.223732 7.000000 14 340.961388
-3.297673 2.833436 3.249338 8.000000 12 340.961391
-3.800504 3.266635 3.029352 10.000000 10 340.961394
-4.633565 3.982678 2.911954 10.000000 8 340.961396
-4.809433 4.135302 2.295468 14.000000 6 340.961399
-6.250082 5.377813 1.240744 9.000000 2 340.961404
-6.456680 5.555578 0.437276 8.000000 0 340.961406
-0.030748 0.038822 4.124116 9.000000 31 340.961417
-0.414211 0.375979 3.556690 2.000000 28 340.961420
-0.555388 0.505350 3.633519 22.000000 27 340.961422
-0.858730 0.751092 3.692149 3.000000 25 340.961425
-1.403025 1.213598 4.429848 89.000000 23 340.961427
-2.653354 2.294338 6.492938 8.000000 21 340.961430
-2.516510 2.176011 4.958751 13.000000 19 340.961432
-2.918758 2.523839 4.694767 8.000000 17 340.961435
-0.161182 0.160986 3.768094 14.000000 30 340.961443
-0.273716 0.260380 3.474829 16.000000 29 340.961445
-0.688470 0.610787 3.578498 3.000000 26 340.961448
-1.114925 0.967793 4.069043 88.000000 24 340.961450
-1.636445 1.419510 4.541094 88.000000 22 340.961453
-2.682988 2.326520 5.878877 8.000000 20 340.961456
-2.741345 2.377127 4.877678 10.000000 18 340.961458
-2.938699 2.548265 4.294983 12.000000 16 340.961461
-3.492465 3.012481 3.799985 8.000000 13 340.961421
-3.414390 2.946176 3.041346 7.000000 11 340.961423
-3.952282 3.410311 2.817951 13.000000 9 340.961426
-4.801440 4.144488 2.650960 13.000000 7 340.961429
-6.104936 5.271496 1.622834 10.000000 3 340.961434
-6.304939 5.446116 0.839440 9.000000 1 340.961436
-3.507135 3.034753 4.210433 8.000000 14 340.961444
-3.299989 2.855510 3.261111 10.000000 12 340.961447
-3.749962 3.246022 2.998963 9.000000 10 340.961449
-4.623067 4.001799 2.914052 10.000000 8 340.961452
-4.752129 4.114968 2.275756 17.000000 6 340.961454
-4.882753 4.229570 1.648763 9.000000 4 340.961457
-6.163906 5.341222 1.228327 11.000000 2 340.961459
-6.356998 5.510486 0.433043 8.000000 0 340.961462
-0.030612 0.038929 4.124116 9.000000 31 340.961473
-0.408884 0.373750 3.522115 2.000000 28 340.961475
-0.553621 0.507286 3.633519 18.000000 27 340.961478
-0.856103 0.754085 3.692149 3.000000 25 340.961480
-1.388468 1.209505 4.397630 89.000000 23 340.961483
-2.647136 2.305158 6.497326 8.000000 21 340.961485
-2.489799 2.168150 4.921554 11.000000 19 340.961488
-2.888171 2.515063 4.660234 8.000000 17 340.961490
-0.160619 0.161548 3.768094 14.000000 30 340.961498
-0.273190 0.261704 3.479801 17.000000 29 340.961501
-0.682583 0.609833 3.559141 3.000000 26 340.961503
-1.111540 0.971679 4.069043 90.000000 24 340.961506
-1.631480 1.425214 4.541094 88.000000 22 340.961508
-2.655207 2.318717 5.836218 8.000000 20 340.961511
-2.810216 2.454087 5.013321 5.000000 18 340.961514
-2.919571 2.549587 4.280282 11.000000 16 340.961516
-3.478990 3.022101 3.796847 8.000000 13 340.961476
-3.290460 2.859338 2.942653 8.000000 11 340.961479
-3.940354 3.424087 2.817951 11.000000 9 340.961482
-4.790442 4.164264 2.652833 13.000000 7 340.961484
-5.938228 5.163839 1.585530 7.000000 3 340.961489
-6.222015 5.412526 0.831855 8.000000 1 340.961492
-3.490890 3.042070 4.203783 8.000000 14 340.961500
-3.399704 2.962610 3.367064 17.000000 12 340.961502
-3.676863 3.205266 2.950847 8.000000 10 340.961505
-4.557753 3.973177 2.882582 11.000000 8 340.961507
-4.748413 4.140842 2.280684 15.000000 6 340.961510
-4.816681 4.201855 1.632351 13.000000 4 340.961512
-6.096717 5.320376 1.219360 12.000000 2 340.961515
-6.281270 5.483360 0.430021 8.000000 0 340.961517
-0.030476 0.039036 4.124116 11.000000 31 340.961528
-0.547359 0.505070 3.604148 13.000000 27 340.961533
-0.854583 0.758060 3.696921 3.000000 25 340.961536
-1.368083 1.200172 4.347003 91.000000 23 340.961538
-2.642676 2.317544 6.506104 8.000000 21 340.961541
-2.471637 2.167551 4.900890 10.000000 19 340.961543
-2.857681 2.506105 4.625702 8.000000 17 340.961546
-0.160257 0.162314 3.773085 14.000000 30 340.961554
-0.272275 0.262656 3.479801 17.000000 29 340.961556
-0.682320 0.613895 3.568819 6.000000 26 340.961559
-1.108141 0.975553 4.069043 90.000000 24 340.961561
-1.626495 1.430900 4.541094 89.000000 22 340.961564
-2.627512 2.310748 5.793558 8.000000 20 340.961567
-2.774474 2.439996 4.965448 5.000000 18 340.961569
-2.892834 2.544091 4.254557 10.000000 16 340.961572
-2.968993 2.597317 3.956280 7.000000 15 340.961529
-3.480139 3.044479 3.809399 7.000000 13 340.961532
-3.248992 2.843270 2.915239 9.000000 11 340.961534
-3.921710 3.431985 2.813315 10.000000 9 340.961537
-4.779365 4.184014 2.654706 13.000000 7 340.961540
-4.841084 4.239538 1.313205 2.000000 3 340.961545
-6.146895 5.384988 0.825162 9.000000 1 340.961547
-3.491477 3.064090 4.217082 10.000000 14 340.961555
-3.440988 3.019784 3.417098 13.000000 12 340.961558
-4.533624 3.980080 2.876287 11.000000 8 340.961563
-4.737478 4.160509 2.282326 14.000000 6 340.961565
-4.769120 4.189771 1.621800 13.000000 4 340.961568
-5.962794 5.240283 1.197975 10.000000 2 340.961570
-6.205810 5.455773 0.426998 8.000000 0 340.961573
-0.030340 0.039142 4.124116 11.000000 31 340.961584
-0.542611 0.504203 3.584567 7.000000 27 340.961589
-0.851931 0.761038 3.696921 3.000000 25 340.961591
-1.347780 1.190711 4.296375 93.000000 23 340.961594
-2.636366 2.328340 6.510493 8.000000 21 340.961596
-2.440854 2.155674 4.855427 10.000000 19 340.961599
-2.827289 2.496965 4.591169 8.000000 17 340.961602
-0.159689 0.162873 3.773085 14.000000 30 340.961609
-0.271356 0.263605 3.479801 17.000000 29 340.961612
-0.682968 0.618808 3.583337 8.000000 26 340.961614
-1.106020 0.980560 4.073736 90.000000 24 340.961617
-1.621490 1.436569 4.541094 88.000000 22 340.961620
-2.596002 2.299155 5.742367 8.000000 20 340.961622
-2.743377 2.429683 4.925552 4.000000 18 340.961625
-2.868708 2.540687 4.232505 10.000000 16 340.961627
-2.943853 2.593520 3.935253 10.000000 15 340.961585
-3.460728 3.048888 3.799985 6.000000 13 340.961587
-3.251596 2.865652 2.926204 12.000000 11 340.961590
-3.909706 3.445653 2.813315 10.000000 9 340.961593
-4.768208 4.203738 2.656579 13.000000 7 340.961595
-4.793099 4.227169 1.304811 12.000000 3 340.961600
-6.053372 5.340518 0.816238 9.000000 1 340.961603
-3.472365 3.068839 4.207108 9.000000 14 340.961611
-3.436483 3.037131 3.422984 9.000000 12 340.961613
-3.211897 2.839641 2.603904 14.000000 10 340.961616
-4.492502 3.971832 2.859503 11.000000 8 340.961618
-4.722927 4.177020 2.282326 14.000000 6 340.961621
-4.707140 4.164523 1.606560 14.000000 4 340.961623
-5.710836 5.054296 1.154517 4.000000 2 340.961626
-6.130619 5.427726 0.423975 8.000000 0 340.961628
-0.030203 0.039248 4.124116 11.000000 31 340.961639
-0.536389 0.501918 3.555196 3.000000 27 340.961644
-0.853711 0.768003 3.716008 3.000000 25 340.961647
-1.326101 1.179825 4.241145 92.000000 23 340.961649
-2.631803 2.340713 6.519270 8.000000 21 340.961652
-2.424905 2.156701 4.838895 17.000000 19 340.961654
-2.799392 2.489775 4.560474 8.000000 17 340.961657
-0.159120 0.163429 3.773085 14.000000 30 340.961665
-0.270435 0.264551 3.479801 17.000000 29 340.961667
-0.682662 0.622884 3.593015 13.000000 26 340.961670
-1.102591 0.984415 4.073736 90.000000 24 340.961672
-1.616466 1.442220 4.541094 88.000000 22 340.961675
-2.580175 2.301260 5.725303 9.000000 20 340.961678
-2.723633 2.429214 4.905605 4.000000 18 340.961680
-2.844642 2.537146 4.210454 9.000000 16 340.961683
-2.913441 2.584845 3.907216 9.000000 15 340.961640
-3.444240 3.055783 3.793710 5.000000 13 340.961643
-3.332266 2.957478 3.005707 22.000000 11 340.961646
-4.756972 4.223434 2.658452 13.000000 7 340.961651
-4.673935 4.151170 1.926224 5.000000 5 340.961653
-4.719549 4.191681 1.289889 12.000000 3 340.961656
-5.986296 5.318616 0.810437 9.000000 1 340.961658
-3.437938 3.059856 3.434757 7.000000 12 340.961669
-3.208405 2.856569 2.608969 14.000000 10 340.961671
-4.468441 3.978436 2.853209 11.000000 8 340.961674
-4.711844 4.196622 2.283969 14.000000 6 340.961676
-4.678058 4.167994 1.601870 16.000000 4 340.961679
-4.776323 4.257041 0.983443 14.000000 2 340.961681
-6.048242 5.392572 0.420549 9.000000 0 340.961684
-0.030066 0.039353 4.124116 11.000000 31 340.961695
-0.845491 0.765964 3.692149 3.000000 25 340.961702
-1.308879 1.172714 4.199722 90.000000 23 340.961705
-2.627185 2.353082 6.528047 8.000000 21 340.961707
-2.398496 2.148255 4.801699 18.000000 19 340.961710
-2.771580 2.482420 4.529778 8.000000 17 340.961713
-0.158548 0.163984 3.773085 14.000000 30 340.961720
-0.269510 0.265493 3.479801 18.000000 29 340.961723
-0.682336 0.626965 3.602694 11.000000 26 340.961725
-1.099148 0.988258 4.073736 90.000000 24 340.961728
-1.609802 1.446398 4.536593 89.000000 22 340.961731
-2.564365 2.303281 5.708240 11.000000 20 340.961733
-2.697198 2.422594 4.873689 5.000000 18 340.961736
-2.820636 2.533468 4.188403 9.000000 16 340.961738
-2.904401 2.595000 3.907216 9.000000 15 340.961696
-3.439358 3.072975 3.799985 9.000000 13 340.961698
-3.393628 3.033181 3.068761 17.000000 11 340.961701
-4.749113 4.246193 2.662198 12.000000 7 340.961706
-4.680871 4.186649 1.934680 11.000000 5 340.961709
-4.671937 4.178657 1.281495 13.000000 3 340.961711
-3.427236 3.071838 3.434757 6.000000 12 340.961724
-4.464664 4.003098 2.859503 9.000000 8 340.961729
-4.700682 4.216197 2.285612 13.000000 6 340.961732
-4.663481 4.184298 1.601870 15.000000 4 340.961734
-4.713525 4.230685 0.974475 14.000000 2 340.961737
-5.969903 5.360247 0.417324 9.000000 0 340.961740
-0.029928 0.039458 4.124116 11.000000 31 340.961750
-0.837296 0.763877 3.668291 4.000000 25 340.961758
-1.297525 1.170732 4.176709 90.000000 23 340.961760
-2.622513 2.365448 6.536824 9.000000 21 340.961763
-2.384714 2.150960 4.789300 30.000000 19 340.961766
-2.743853 2.474901 4.499083 8.000000 17 340.961768
-0.157975 0.164536 3.773085 14.000000 30 340.961776
-0.268960 0.266809 3.484772 17.000000 29 340.961778
-0.681989 0.631052 3.612372 10.000000 26 340.961781
-1.095692 0.992088 4.073736 88.000000 24 340.961784
-1.604743 1.452009 4.536593 89.000000 22 340.961786
-2.558244 2.313968 5.712506 9.000000 20 340.961789
-2.673079 2.417842 4.845763 6.000000 18 340.961791
-2.794175 2.527380 4.162677 9.000000 16 340.961794
-2.863512 2.576498 3.865162 9.000000 15 340.961751
-3.431504 3.087565 3.803123 9.000000 13 340.961754
-3.389235 3.050603 3.074244 8.000000 11 340.961757
-3.188506 2.869933 2.331166 15.000000 9 340.961759
-4.734262 4.262745 2.662198 12.000000 7 340.961762
-4.662664 4.199752 1.933270 10.000000 5 340.961764
-4.631772 4.171926 1.274967 16.000000 3 340.961767
-4.750305 4.280194 0.665865 11.000000 1 340.961769
-2.880073 2.599597 3.535488 6.000000 14 340.961777
-3.416492 3.083783 3.434757 6.000000 12 340.961780
-3.460371 3.124485 2.824226 8.000000 10 340.961782
-4.692945 4.238910 2.288897 13.000000 6 340.961787
-4.634420 4.187517 1.597181 15.000000 4 340.961790
-4.661990 4.213906 0.967577 15.000000 2 340.961792
-5.865925 5.303987 0.412689 9.000000 0 340.961795
-0.029791 0.039562 4.124116 11.000000 31 340.961806
-0.829125 0.761743 3.644432 5.000000 25 340.961813
-1.286201 1.168685 4.153697 90.000000 23 340.961816
-2.617787 2.377809 6.545602 9.000000 21 340.961818
-2.360527 2.144135 4.756237 40.000000 19 340.961821
-2.716212 2.467220 4.468388 9.000000 17 340.961824
-0.157399 0.165087 3.773085 14.000000 30 340.961831
-0.268027 0.267746 3.484772 18.000000 29 340.961834
-0.681623 0.635144 3.622051 10.000000 26 340.961836
-1.092222 0.995907 4.073736 88.000000 24 340.961839
-1.599665 1.457601 4.536593 89.000000 22 340.961842
-2.552079 2.324640 5.716771 8.000000 20 340.961844
-2.646798 2.410921 4.813847 8.000000 18 340.961847
-2.767792 2.521137 4.136951 10.000000 16 340.961849
-2.836001 2.569715 3.840630 8.000000 15 340.961807
-3.394743 3.075999 3.774883 8.000000 13 340.961810
-3.369272 3.053991 3.066019 7.000000 11 340.961812
-3.178469 2.881045 2.331166 15.000000 9 340.961815
-4.722787 4.282358 2.664071 12.000000 7 340.961817
-4.655083 4.222448 1.936089 11.000000 5 340.961820
-4.609904 4.181468 1.273102 20.000000 3 340.961822
-4.691079 4.256591 0.660510 14.000000 1 340.961825
-2.840584 2.582004 3.498915 9.000000 14 340.961833
-3.390752 3.082096 3.420042 9.000000 12 340.961835
-3.455823 3.142346 2.829291 8.000000 10 340.961838
-3.163965 2.876965 2.064341 11.000000 8 340.961840
-4.681613 4.258443 2.290540 13.000000 6 340.961843
-4.626966 4.210211 1.599526 16.000000 4 340.961845
-4.606968 4.193485 0.959989 15.000000 2 340.961848
-5.618349 5.115887 0.400194 4.000000 0 340.961851
-0.029652 0.039665 4.124116 11.000000 31 340.961861
-0.823173 0.761589 3.630117 7.000000 25 340.961869
-1.273466 1.165254 4.126081 80.000000 23 340.961871
-2.614774 2.391784 6.558768 9.000000 21 340.961874
-2.688659 2.459376 4.437692 9.000000 17 340.961879
-0.156822 0.165635 3.773085 14.000000 30 340.961887
-0.267466 0.269059 3.489744 18.000000 29 340.961889
-0.680318 0.638381 3.626890 9.000000 26 340.961892
-1.088739 0.999713 4.073736 88.000000 24 340.961895
-1.594567 1.463176 4.536593 88.000000 22 340.961897
-2.547793 2.337060 5.725303 8.000000 20 340.961900
-2.620598 2.403847 4.781931 9.000000 18 340.961902
-2.741487 2.514741 4.111225 10.000000 16 340.961905
-2.805939 2.560368 3.812593 8.000000 15 340.961862
-3.355502 3.062914 3.063278 6.000000 11 340.961868
-3.181481 2.904069 2.340438 15.000000 9 340.961870
-4.714657 4.305070 2.667817 6.000000 7 340.961873
-4.647399 4.245143 1.938907 12.000000 5 340.961875
-4.595280 4.197535 1.273102 15.000000 3 340.961878
-4.624722 4.225910 0.654263 14.000000 1 340.961880
-2.817781 2.579297 3.482290 9.000000 14 340.961888
-3.385936 3.099372 3.425928 9.000000 12 340.961891
-3.460731 3.168947 2.841953 8.000000 10 340.961893
-3.147209 2.881862 2.060145 13.000000 8 340.961896
-4.673685 4.281139 2.293825 13.000000 6 340.961898
-4.622992 4.236188 1.603043 17.000000 4 340.961901
-4.577700 4.196156 0.957229 20.000000 2 340.961904
-0.029514 0.039769 4.124116 11.000000 31 340.961917
-0.523893 0.507658 3.530720 4.000000 27 340.961922
-0.821602 0.765476 3.634888 9.000000 25 340.961924
-1.267954 1.168368 4.121479 81.000000 23 340.961927
-2.609934 2.404143 6.567545 8.000000 21 340.961930
-2.506940 2.309273 5.078606 9.000000 19 340.961932
-2.661194 2.451369 4.406996 9.000000 17 340.961935
-0.156440 0.166393 3.778077 14.000000 30 340.961942
-0.266525 0.269991 3.489744 18.000000 29 340.961945
-0.679000 0.641616 3.631729 9.000000 26 340.961948
-1.085243 1.003508 4.073736 88.000000 24 340.961950
-1.589450 1.468733 4.536593 88.000000 22 340.961953
-2.543451 2.349478 5.733835 9.000000 20 340.961955
-2.594479 2.396619 4.750015 9.000000 18 340.961958
-2.712770 2.505893 4.081823 11.000000 16 340.961960
-2.775977 2.550843 3.784557 8.000000 15 340.961918
-2.885891 2.651847 3.241461 6.000000 13 340.961921
-3.335556 3.066119 3.055053 5.000000 11 340.961923
-3.105970 2.856082 1.793111 2.000000 7 340.961928
-4.639614 4.267835 1.941725 12.000000 5 340.961931
-4.591446 4.223526 1.275900 14.000000 3 340.961933
-4.580626 4.215050 0.650694 14.000000 1 340.961936
-2.784048 2.566338 3.452367 10.000000 14 340.961944
-3.318630 3.059120 3.370008 6.000000 12 340.961946
-3.449648 3.181008 2.841953 8.000000 10 340.961949
-3.137131 2.892831 2.060145 13.000000 8 340.961951
-4.662184 4.300629 2.295468 12.000000 6 340.961954
-4.615321 4.258892 1.605387 17.000000 4 340.961956
-4.563024 4.212109 0.957229 15.000000 2 340.961959
-4.609840 4.256814 0.346788 15.000000 0 340.961962
-0.029375 0.039872 4.124116 11.000000 31 340.961972
-0.522118 0.509484 3.530720 4.000000 27 340.961977
-0.824370 0.773449 3.658747 12.000000 25 340.961980
-1.263868 1.172787 4.121479 86.000000 23 340.961982
-2.606795 2.418126 6.580711 8.000000 21 340.961985
-2.505053 2.323751 5.091005 8.000000 19 340.961987
-2.636169 2.445382 4.380138 9.000000 17 340.961990
-0.155859 0.166938 3.778077 14.000000 30 340.961998
-0.265954 0.271302 3.494715 18.000000 29 340.962000
-0.678578 0.645716 3.641407 9.000000 26 340.962003
-1.080470 1.006114 4.069043 88.000000 24 340.962005
-1.584313 1.474273 4.536593 88.000000 22 340.962008
-2.539054 2.361895 5.742367 9.000000 20 340.962010
-2.570650 2.391291 4.722088 8.000000 18 340.962013
-2.686631 2.499184 4.056098 12.000000 16 340.962016
-2.746116 2.541141 3.756521 8.000000 15 340.961973
-2.810901 2.601094 3.169292 11.000000 13 340.961976
-3.337106 3.089106 3.066019 6.000000 11 340.961978
-4.035676 3.735765 2.963987 7.000000 9 340.961981
-3.116390 2.885806 1.804349 15.000000 7 340.961984
-4.624689 4.284005 1.941725 12.000000 5 340.961986
-4.580278 4.242866 1.276832 14.000000 3 340.961989
-4.540315 4.207319 0.647570 18.000000 1 340.961991
-2.753178 2.555715 3.425768 10.000000 14 340.961999
-3.441683 3.195964 2.844485 9.000000 10 340.962004
-3.133665 2.909940 2.064341 8.000000 8 340.962007
-4.614668 4.288211 1.610076 16.000000 4 340.962012
-4.548294 4.228011 0.957229 17.000000 2 340.962014
-4.543732 4.225250 0.343967 15.000000 0 340.962017
-0.029235 0.039974 4.124116 11.000000 31 340.962028
-0.521788 0.512731 3.540510 4.000000 27 340.962033
-0.831435 0.785555 3.701693 14.000000 25 340.962035
-1.258339 1.175858 4.116877 86.000000 23 340.962038
-2.600089 2.428847 6.585100 8.000000 21 340.962040
-2.484588 2.320955 5.066207 7.000000 19 340.962043
-2.608875 2.437061 4.349442 9.000000 17 340.962045
-0.155275 0.167481 3.778077 14.000000 30 340.962053
-0.265005 0.272229 3.494715 19.000000 29 340.962056
-0.676320 0.648081 3.641407 9.000000 26 340.962058
-1.076952 1.009879 4.069043 88.000000 24 340.962061
-1.579157 1.479794 4.536593 88.000000 22 340.962063
-2.534600 2.374310 5.750899 9.000000 20 340.962066
-2.549090 2.387887 4.698151 8.000000 18 340.962069
-2.660572 2.492322 4.030371 12.000000 16 340.962071
-2.718966 2.533692 3.731989 8.000000 15 340.962029
-2.784716 2.594966 3.150465 10.000000 13 340.962031
-3.329362 3.103587 3.068761 8.000000 11 340.962034
-4.025852 3.752850 2.966305 6.000000 9 340.962036
-3.102907 2.893504 1.802476 14.000000 7 340.962039
-4.623737 4.313210 1.947362 11.000000 5 340.962042
-4.572624 4.265530 1.278698 14.000000 3 340.962044
-4.514678 4.212949 0.646232 13.000000 1 340.962047
-2.725144 2.547459 3.402494 9.000000 14 340.962054
-2.804080 2.621252 2.878500 10.000000 12 340.962057
-3.436804 3.213848 2.849550 10.000000 10 340.962060
-3.097365 2.897445 1.564473 11.000000 6 340.962065
-4.599671 4.304293 1.610076 17.000000 4 340.962067
-4.537122 4.247246 0.957919 18.000000 2 340.962070
-4.503430 4.217181 0.342556 15.000000 0 340.962072
-0.029118 0.040113 4.129117 11.000000 31 340.962083
-0.396998 0.391902 3.546811 2.000000 28 340.962086
-0.519272 0.513833 3.535615 3.000000 27 340.962088
-0.822197 0.782275 3.673062 7.000000 25 340.962091
-1.254227 1.180243 4.116877 86.000000 23 340.962093
-2.595085 2.441191 6.593877 9.000000 21 340.962096
-2.490819 2.343111 5.095138 7.000000 19 340.962098
-2.584006 2.430776 4.322583 8.000000 17 340.962101
-0.154689 0.168022 3.778077 14.000000 30 340.962109
-0.264424 0.273537 3.499686 19.000000 29 340.962111
-0.674959 0.651312 3.646246 9.000000 26 340.962114
-1.072165 1.012448 4.064351 90.000000 24 340.962116
-1.573982 1.485297 4.536593 89.000000 22 340.962119
-2.530091 2.386722 5.759431 8.000000 20 340.962122
-2.525392 2.382293 4.670225 9.000000 18 340.962124
-2.639525 2.489963 4.011995 10.000000 16 340.962127
-2.691901 2.526085 3.707457 8.000000 15 340.962084
-2.755770 2.586024 3.128501 8.000000 13 340.962087
-3.245340 3.046505 3.002965 6.000000 11 340.962089
-3.986887 3.742623 2.947761 7.000000 9 340.962092
-3.092788 2.904318 1.802476 14.000000 7 340.962095
-4.587675 4.309617 1.938907 7.000000 5 340.962097
-4.561287 4.284829 1.279630 13.000000 3 340.962100
-4.496315 4.225272 0.645785 12.000000 1 340.962102
-2.697202 2.539038 3.379220 9.000000 14 340.962110
-2.765482 2.603319 2.849068 9.000000 12 340.962113
-3.425564 3.225825 2.849550 10.000000 10 340.962115
-4.401872 4.145211 2.882582 7.000000 8 340.962118
-3.073483 2.895287 1.557902 14.000000 6 340.962120
-4.584619 4.320323 1.610076 16.000000 4 340.962123
-4.529477 4.269852 0.959299 18.000000 2 340.962125
-4.477777 4.222592 0.341951 21.000000 0 340.962128
-0.028978 0.040214 4.129117 11.000000 31 340.962139
-0.394526 0.392189 3.536933 2.000000 28 340.962141
-0.517475 0.515642 3.535615 3.000000 27 340.962144
-0.819461 0.785140 3.673062 7.000000 25 340.962146
-1.248681 1.183270 4.112274 86.000000 23 340.962149
-2.588287 2.451882 6.598266 9.000000 21 340.962151
-2.480582 2.349856 5.091005 6.000000 19 340.962154
-2.559214 2.424348 4.295725 7.000000 17 340.962156
-0.154102 0.168561 3.778077 14.000000 30 340.962164
-0.263468 0.274458 3.499686 18.000000 29 340.962167
-0.672681 0.653664 3.646246 9.000000 26 340.962169
-1.068625 1.016184 4.064351 92.000000 24 340.962172
-1.568788 1.490782 4.536593 89.000000 22 340.962174
-2.523635 2.397335 5.763697 9.000000 20 340.962177
-2.503950 2.378639 4.646288 9.000000 18 340.962180
-2.613612 2.482817 3.986269 9.000000 16 340.962182
-2.662331 2.515871 3.679421 8.000000 15 340.962140
-2.732579 2.582258 3.112812 8.000000 13 340.962142
-3.954482 3.738257 2.933853 9.000000 9 340.962148
-4.553440 4.307476 1.281495 14.000000 3 340.962155
-4.488774 4.247788 0.646678 13.000000 1 340.962158
-2.669351 2.530454 3.355946 9.000000 14 340.962166
-2.750511 2.607395 2.843182 9.000000 12 340.962168
-3.411155 3.234796 2.847018 10.000000 10 340.962171
-4.377496 4.151182 2.876287 8.000000 8 340.962173
-3.063357 2.905998 1.557902 14.000000 6 340.962176
-4.587139 4.353029 1.615938 14.000000 4 340.962178
-4.518137 4.289046 0.959989 18.000000 2 340.962181
-4.463011 4.238197 0.341951 19.000000 0 340.962183
-0.028860 0.040353 4.134116 11.000000 31 340.962194
-0.389863 0.390263 3.507297 2.000000 28 340.962197
-0.515672 0.517445 3.535615 3.000000 27 340.962199
-0.815641 0.786958 3.668291 8.000000 25 340.962202
-1.244543 1.187622 4.112274 87.000000 23 340.962204
-2.581446 2.462556 6.602654 8.000000 21 340.962207
-2.476436 2.362385 5.099271 7.000000 19 340.962209
-2.534498 2.417776 4.268867 7.000000 17 340.962212
-0.153513 0.169098 3.778077 14.000000 30 340.962220
-0.262508 0.275376 3.499686 18.000000 29 340.962222
-0.670395 0.656008 3.646246 9.000000 26 340.962225
-1.065071 1.019908 4.064351 92.000000 24 340.962227
-1.563575 1.496250 4.536593 88.000000 22 340.962230
-2.520905 2.411539 5.776495 9.000000 20 340.962233
-2.480386 2.372781 4.618361 9.000000 18 340.962235
-2.602480 2.489582 3.982594 9.000000 16 340.962238
-2.635449 2.507940 3.654889 8.000000 15 340.962195
-2.709449 2.578363 3.097123 8.000000 13 340.962198
-2.754564 2.622212 2.578038 9.000000 11 340.962200
-3.925365 3.736765 2.922262 9.000000 9 340.962203
-4.670466 4.447621 2.694040 11.000000 7 340.962206
-3.039558 2.895540 1.323089 14.000000 5 340.962208
-4.538376 4.323344 1.281495 13.000000 3 340.962211
-4.481129 4.270302 0.647570 14.000000 1 340.962213
-2.644295 2.524285 3.335997 9.000000 14 340.962221
-2.723851 2.600234 2.825523 9.000000 12 340.962224
-4.376108 4.178975 2.884680 9.000000 8 340.962229
-3.070268 2.932984 1.566116 7.000000 6 340.962231
-4.510296 4.311635 0.961368 19.000000 2 340.962236
-0.028719 0.040453 4.134116 11.000000 31 340.962250
-0.514578 0.519966 3.540510 3.000000 27 340.962255
-0.811817 0.788760 3.663519 9.000000 25 340.962257
-1.240390 1.191959 4.112274 86.000000 23 340.962260
-2.576290 2.474871 6.611432 9.000000 21 340.962262
-2.468175 2.371015 5.099271 6.000000 19 340.962265
-2.509859 2.411062 4.242008 8.000000 17 340.962268
-0.152729 0.169417 3.773085 14.000000 30 340.962275
-0.261545 0.276291 3.499686 19.000000 29 340.962278
-0.668101 0.658344 3.646246 9.000000 26 340.962280
-1.060262 1.022421 4.059658 92.000000 24 340.962283
-1.558342 1.501698 4.536593 89.000000 22 340.962286
-2.512472 2.420323 5.776495 9.000000 20 340.962288
-2.456895 2.366787 4.590435 9.000000 18 340.962291
-2.564475 2.470427 3.938492 9.000000 16 340.962293
-2.608654 2.499852 3.630357 9.000000 15 340.962251
-2.683568 2.571645 3.078296 8.000000 13 340.962253
-2.724264 2.611556 2.558848 9.000000 11 340.962256
-3.928288 3.765773 2.933853 10.000000 9 340.962259
-4.651566 4.460688 2.692167 7.000000 7 340.962261
-3.032894 2.909453 1.324498 14.000000 5 340.962264
-4.544527 4.359563 1.287091 13.000000 3 340.962266
-4.473382 4.292814 0.648463 13.000000 1 340.962269
-2.619314 2.517972 3.316048 9.000000 14 340.962277
-2.691446 2.587316 2.801978 9.000000 12 340.962279
-2.773201 2.666840 2.345597 6.000000 10 340.962282
-4.368037 4.200517 2.888876 10.000000 8 340.962284
-3.036627 2.922208 1.107152 6.000000 4 340.962289
-4.502354 4.334222 0.962748 18.000000 2 340.962292
-0.028600 0.040591 4.139116 10.000000 31 340.962305
-0.512760 0.521759 3.540510 4.000000 27 340.962310
-0.809059 0.791589 3.663519 9.000000 25 340.962313
-1.236222 1.196281 4.112274 86.000000 23 340.962315
-2.565913 2.482183 6.607043 9.000000 21 340.962318
-2.463929 2.383529 5.107537 6.000000 19 340.962320
-2.485298 2.404205 4.215149 8.000000 17 340.962323
-0.152136 0.169949 3.773085 14.000000 30 340.962331
-0.260944 0.277592 3.504658 19.000000 29 340.962333
-0.665799 0.660672 3.646246 9.000000 26 340.962336
-1.056687 1.026116 4.059658 91.000000 24 340.962338
-1.553091 1.507129 4.536593 89.000000 22 340.962341
-2.500264 2.425447 5.767962 8.000000 20 340.962344
-2.433475 2.360659 4.562508 10.000000 18 340.962346
-2.531503 2.455758 3.901740 8.000000 16 340.962349
-2.581949 2.491607 3.605825 9.000000 15 340.962306
-2.657768 2.564777 3.059470 9.000000 13 340.962309
-2.706106 2.612337 2.550624 9.000000 11 340.962312
-4.639302 4.480118 2.694040 8.000000 7 340.962317
-3.019269 2.916689 1.323089 16.000000 5 340.962319
-4.501017 4.348097 1.279630 7.000000 3 340.962322
-4.465532 4.315325 0.649355 13.000000 1 340.962324
-2.594411 2.511515 3.296099 9.000000 14 340.962332
-2.662069 2.577016 2.781376 8.000000 12 340.962335
-4.340306 4.203109 2.880484 7.000000 8 340.962340
-4.599813 4.455968 2.316823 10.000000 6 340.962342
-3.008956 2.915877 1.101291 19.000000 4 340.962345
-4.490752 4.353358 0.963438 17.000000 2 340.962347
-0.028458 0.040690 4.139116 10.000000 31 340.962361
-0.511647 0.524275 3.545405 4.000000 27 340.962366
-0.807355 0.795456 3.668291 9.000000 25 340.962368
-1.232038 1.200589 4.112274 87.000000 23 340.962371
-2.555517 2.489453 6.602654 9.000000 21 340.962373
-2.459625 2.396043 5.115803 7.000000 19 340.962376
-2.460816 2.397206 4.188291 8.000000 17 340.962379
-0.151351 0.170262 3.768094 14.000000 30 340.962386
-0.259973 0.278501 3.504658 19.000000 29 340.962389
-0.663489 0.662992 3.646246 9.000000 26 340.962391
-1.051865 1.028592 4.054965 91.000000 24 340.962394
-1.547821 1.512541 4.536593 89.000000 22 340.962397
-2.416596 2.360715 4.546550 13.000000 18 340.962402
-2.498665 2.440890 3.864989 9.000000 16 340.962404
-2.555333 2.483207 3.581294 9.000000 15 340.962362
-2.629256 2.555048 3.037505 9.000000 13 340.962364
-2.666989 2.592621 2.523209 9.000000 11 340.962367
-4.633605 4.505981 2.699659 9.000000 7 340.962372
-3.006972 2.925170 0.887930 2.000000 3 340.962377
-4.457580 4.337832 0.650248 12.000000 1 340.962380
-2.569584 2.504916 3.276150 9.000000 14 340.962388
-2.632797 2.566542 2.760773 8.000000 12 340.962390
-2.677351 2.610886 2.282286 9.000000 10 340.962393
-4.580850 4.468700 2.315180 10.000000 6 340.962398
-2.995281 2.922968 1.100118 16.000000 4 340.962400
-4.486160 4.379386 0.965507 16.000000 2 340.962403
-0.028316 0.040789 4.139116 11.000000 31 340.962416
-0.509813 0.526058 3.545405 5.000000 27 340.962421
-0.804573 0.798270 3.668291 9.000000 25 340.962424
-1.227840 1.204883 4.112274 87.000000 23 340.962426
-2.512607 2.464804 6.514882 8.000000 21 340.962429
-2.455264 2.408555 5.124069 8.000000 19 340.962432
-2.436413 2.390066 4.161432 9.000000 17 340.962434
-0.150756 0.170789 3.768094 14.000000 30 340.962442
-0.259362 0.279799 3.509629 19.000000 29 340.962444
-0.661171 0.665304 3.646246 9.000000 26 340.962447
-1.048268 1.032258 4.054965 88.000000 24 340.962450
-1.542531 1.517934 4.536593 89.000000 22 340.962452
-2.408341 2.369136 4.546550 13.000000 18 340.962457
-2.468378 2.428200 3.831912 9.000000 16 340.962460
-2.528807 2.474652 3.556762 9.000000 15 340.962417
-2.603628 2.547873 3.018678 9.000000 13 340.962420
-2.639995 2.584364 2.506760 8.000000 11 340.962423
-4.621161 4.525372 2.701532 10.000000 7 340.962428
-4.554673 4.461819 1.962863 12.000000 5 340.962430
-2.979198 2.918461 0.883267 16.000000 3 340.962433
-4.445968 4.356851 0.650694 13.000000 1 340.962435
-2.544835 2.498174 3.256201 8.000000 14 340.962443
-2.603631 2.555896 2.740171 9.000000 12 340.962446
-2.658993 2.611154 2.274689 9.000000 10 340.962448
-4.585437 4.504519 2.325036 12.000000 6 340.962453
-2.995460 2.943626 1.103635 16.000000 4 340.962456
-3.458647 3.401174 0.289352 12.000000 0 340.962461
-0.028173 0.040888 4.139116 11.000000 31 340.962472
-0.508680 0.528568 3.550300 5.000000 27 340.962477
-0.801782 0.801073 3.668291 9.000000 25 340.962479
-1.223627 1.209161 4.112274 87.000000 23 340.962482
-2.480127 2.449988 6.453440 7.000000 21 340.962484
-2.448843 2.419088 5.128201 8.000000 19 340.962487
-2.412090 2.382785 4.134573 9.000000 17 340.962490
-0.150159 0.171314 3.768094 14.000000 30 340.962497
-0.258384 0.280703 3.509629 20.000000 29 340.962500
-0.658844 0.667608 3.646246 9.000000 26 340.962502
-1.044658 1.035910 4.054965 87.000000 24 340.962505
-1.537224 1.523310 4.536593 89.000000 22 340.962508
-2.209775 2.189028 5.157934 16.000000 20 340.962510
-2.406480 2.383891 4.558519 9.000000 18 340.962513
-2.438211 2.415328 3.798836 9.000000 16 340.962515
-2.502373 2.465942 3.532230 9.000000 15 340.962473
-2.575309 2.537820 2.996714 8.000000 13 340.962476
-2.610113 2.573015 2.487570 8.000000 11 340.962478
-2.641735 2.604191 2.027504 11.000000 9 340.962481
-4.605336 4.541474 2.701532 7.000000 7 340.962483
-4.539071 4.477691 1.962863 8.000000 5 340.962486
-2.968992 2.928842 0.883267 16.000000 3 340.962488
-4.437821 4.379340 0.651586 13.000000 1 340.962491
-2.520165 2.491290 3.236252 8.000000 14 340.962499
-2.577446 2.547919 2.722512 9.000000 12 340.962501
-2.628404 2.599200 2.256962 9.000000 10 340.962504
-4.573043 4.523819 2.326679 13.000000 6 340.962509
-2.977327 2.947336 0.675785 7.000000 2 340.962514
-3.429005 3.395650 0.288344 12.000000 0 340.962517
-0.028009 0.040948 4.134116 11.000000 31 340.962527
-0.507535 0.531077 3.555196 6.000000 27 340.962532
-0.798981 0.803867 3.668291 9.000000 25 340.962535
-1.219399 1.213425 4.112274 86.000000 23 340.962537
-2.413811 2.401184 6.304225 8.000000 21 340.962540
-2.444375 2.431591 5.136468 8.000000 19 340.962543
-2.390121 2.377625 4.111551 10.000000 17 340.962545
-0.149560 0.171837 3.768094 14.000000 30 340.962553
-0.257402 0.281603 3.509629 20.000000 29 340.962555
-0.656510 0.669904 3.646246 9.000000 26 340.962558
-1.039815 1.038331 4.050272 87.000000 24 340.962561
-1.531897 1.528666 4.536593 88.000000 22 340.962563
-2.198428 2.193044 5.149402 14.000000 20 340.962566
-2.402412 2.396534 4.566498 9.000000 18 340.962568
-2.412964 2.407064 3.773110 9.000000 16 340.962571
-2.476030 2.457078 3.507698 9.000000 15 340.962528
-2.547091 2.527599 2.974750 8.000000 13 340.962531
-2.583310 2.564435 2.471121 9.000000 11 340.962534
-2.607475 2.588427 2.008960 10.000000 9 340.962536
-2.678248 2.659612 1.613300 2.000000 7 340.962539
-4.554044 4.523936 1.975546 8.000000 5 340.962541
-2.969205 2.949574 0.886064 19.000000 3 340.962544
-4.422508 4.394804 0.651586 4.000000 1 340.962546
-2.492927 2.481629 3.212978 9.000000 14 340.962554
-2.551349 2.539790 2.704853 9.000000 12 340.962557
-2.610150 2.599232 2.249365 9.000000 10 340.962559
-2.586402 2.575587 1.774810 12.000000 8 340.962562
-4.567261 4.549753 2.331607 11.000000 6 340.962564
-4.503516 4.487820 1.624144 16.000000 4 340.962567
-2.949485 2.940230 0.672336 16.000000 2 340.962570
-3.392368 3.382904 0.286934 12.000000 0 340.962572
-0.027866 0.041046 4.134116 11.000000 31 340.962583
-0.506378 0.533585 3.560091 8.000000 27 340.962588
-0.796170 0.806651 3.668291 9.000000 25 340.962590
-1.215155 1.217674 4.112274 86.000000 23 340.962593
-2.369870 2.373988 6.212064 10.000000 21 340.962596
-2.441836 2.446083 5.148867 8.000000 19 340.962598
-2.363687 2.367802 4.080856 11.000000 17 340.962601
-0.148959 0.172358 3.768094 14.000000 30 340.962608
-0.256418 0.282500 3.509629 19.000000 29 340.962611
-0.654167 0.672191 3.646246 9.000000 26 340.962614
-1.036184 1.041954 4.050272 88.000000 24 340.962616
-1.526551 1.534004 4.536593 88.000000 22 340.962619
-2.190759 2.200705 5.149402 14.000000 20 340.962621
-2.398284 2.409178 4.574477 9.000000 18 340.962624
-2.390196 2.401057 3.751059 9.000000 16 340.962626
-2.449780 2.448059 3.483166 9.000000 15 340.962584
-2.518978 2.517212 2.952785 9.000000 13 340.962587
-2.556599 2.555700 2.454672 9.000000 11 340.962589
-2.576492 2.575588 1.992734 9.000000 9 340.962592
-2.675505 2.675501 1.617046 13.000000 7 340.962594
-4.524658 4.526234 1.969909 10.000000 5 340.962597
-2.468426 2.474453 3.193029 9.000000 14 340.962610
-2.525340 2.531511 2.687194 9.000000 12 340.962612
-2.573663 2.580853 2.226573 10.000000 10 340.962615
-2.570986 2.578172 1.770614 12.000000 8 340.962617
-4.504979 4.520728 1.630006 13.000000 4 340.962622
-2.942698 2.954016 0.673025 15.000000 2 340.962625
-3.317084 3.331004 0.283306 12.000000 0 340.962628
-0.027722 0.041143 4.134116 11.000000 31 340.962639
-0.386811 0.409474 3.581386 2.000000 28 340.962642
-0.505211 0.536090 3.564986 11.000000 27 340.962644
-0.793349 0.809426 3.668291 8.000000 25 340.962647
-1.210898 1.221908 4.112274 86.000000 23 340.962649
-2.336269 2.356725 6.146234 8.000000 21 340.962652
-2.437245 2.458589 5.157133 8.000000 19 340.962654
-2.346380 2.366931 4.065508 11.000000 17 340.962657
-0.148356 0.172877 3.768094 14.000000 30 340.962665
-0.255430 0.283393 3.509629 19.000000 29 340.962667
-0.650069 0.672661 3.636568 9.000000 26 340.962670
-1.032540 1.045565 4.050272 87.000000 24 340.962672
-1.520919 1.539589 4.536593 89.000000 22 340.962675
-2.182678 2.208719 5.149402 14.000000 20 340.962677
-2.393675 2.422239 4.582456 9.000000 18 340.962680
-2.367082 2.395332 3.729007 9.000000 16 340.962683
-2.426137 2.441418 3.462139 9.000000 15 340.962640
-2.490968 2.506661 2.930821 9.000000 13 340.962643
-2.529982 2.546810 2.438224 9.000000 11 340.962645
-2.554996 2.571995 1.983462 8.000000 9 340.962648
-2.640016 2.658508 1.602062 11.000000 7 340.962651
-4.518970 4.552215 1.974137 11.000000 5 340.962653
-4.477397 4.511910 1.298283 15.000000 3 340.962656
-2.907374 2.930807 0.462839 18.000000 1 340.962658
-2.440946 2.464910 3.169755 9.000000 14 340.962666
-2.498980 2.523517 2.669535 9.000000 12 340.962669
-2.545988 2.571885 2.211378 9.000000 10 340.962671
-2.551941 2.577902 1.764320 11.000000 8 340.962674
-4.484961 4.533754 1.628834 12.000000 4 340.962679
-2.942299 2.975346 0.675095 14.000000 2 340.962681
-3.178973 3.214679 0.276051 7.000000 0 340.962684
-0.027571 0.041244 4.134116 11.000000 31 340.962695
-0.383184 0.408621 3.561629 2.000000 28 340.962697
-0.503937 0.538682 3.569881 9.000000 27 340.962700
-0.790377 0.812328 3.668291 8.000000 25 340.962702
-1.206411 1.226338 4.112274 85.000000 23 340.962705
-2.297369 2.334535 6.067238 5.000000 21 340.962707
-2.432165 2.471517 5.165398 8.000000 19 340.962710
-2.337689 2.375515 4.065508 9.000000 17 340.962712
-0.147908 0.173641 3.773085 14.000000 30 340.962720
-0.254390 0.284327 3.509629 20.000000 29 340.962723
-0.646729 0.674131 3.631729 9.000000 26 340.962725
-1.028701 1.049343 4.050272 87.000000 24 340.962728
-1.515535 1.544889 4.536593 89.000000 22 340.962730
-2.184088 2.225632 5.170732 11.000000 20 340.962733
-2.389427 2.434882 4.590435 9.000000 18 340.962736
-2.344460 2.389063 3.706957 10.000000 16 340.962738
-2.399641 2.432522 3.437607 9.000000 15 340.962696
-2.465360 2.499146 2.911994 8.000000 13 340.962698
-2.503014 2.538202 2.421775 8.000000 11 340.962701
-2.529999 2.565570 1.971871 8.000000 9 340.962703
-2.617236 2.654960 1.594569 11.000000 7 340.962706
-4.465068 4.531011 1.299215 12.000000 3 340.962711
-2.904116 2.948033 0.463732 16.000000 1 340.962714
-2.416616 2.457439 3.149806 8.000000 14 340.962721
-2.473151 2.514933 2.651876 9.000000 12 340.962724
-2.515839 2.559235 2.193651 9.000000 10 340.962727
-2.530200 2.573848 1.755927 12.000000 8 340.962729
-2.631856 2.678193 1.395276 4.000000 6 340.962732
-4.479327 4.559784 1.632351 12.000000 4 340.962734
-2.957179 3.012397 0.263959 8.000000 0 340.962739
-0.027427 0.041340 4.134116 11.000000 31 340.962750
-0.380697 0.408818 3.551751 3.000000 28 340.962753
-0.500669 0.538945 3.560091 9.000000 27 340.962755
-0.787537 0.815082 3.668291 8.000000 25 340.962758
-1.202123 1.230542 4.112274 82.000000 23 340.962760
-1.763434 1.804514 4.689198 32.000000 21 340.962763
-2.427456 2.484017 5.173664 8.000000 19 340.962765
-2.331623 2.385954 4.069345 8.000000 17 340.962768
-0.147301 0.174156 3.773085 14.000000 30 340.962776
-0.253396 0.285214 3.509629 19.000000 29 340.962778
-0.642637 0.674563 3.622051 9.000000 26 340.962781
-1.025032 1.052927 4.050272 86.000000 24 340.962783
-1.510133 1.550170 4.536593 89.000000 22 340.962786
-2.174486 2.231375 5.166466 7.000000 20 340.962789
-2.385121 2.447525 4.598414 9.000000 18 340.962791
-2.324276 2.385092 3.688581 10.000000 16 340.962794
-2.376162 2.425598 3.416580 9.000000 15 340.962751
-2.440277 2.491051 2.893167 9.000000 13 340.962754
-2.479511 2.531986 2.408067 8.000000 11 340.962756
-2.499331 2.552229 1.955645 9.000000 9 340.962759
-2.591738 2.647516 1.585204 10.000000 7 340.962762
-4.456096 4.553591 1.301080 11.000000 3 340.962767
-2.893808 2.958153 0.463732 16.000000 1 340.962769
-2.392370 2.449830 3.129857 9.000000 14 340.962777
-2.450238 2.509092 2.637161 10.000000 12 340.962780
-2.488821 2.549491 2.178457 9.000000 10 340.962782
-2.502178 2.563178 1.743339 11.000000 8 340.962785
-2.596106 2.660325 1.382135 11.000000 6 340.962787
-4.466777 4.578871 1.633523 9.000000 4 340.962790
-4.421986 4.534539 0.974475 16.000000 2 340.962792
-2.883873 2.958308 0.260331 19.000000 0 340.962795
-0.027304 0.041474 4.139116 11.000000 31 340.962806
-0.377159 0.407861 3.531994 3.000000 28 340.962808
-0.498095 0.539941 3.555196 7.000000 27 340.962811
-0.785721 0.818904 3.673062 9.000000 25 340.962813
-1.197820 1.234731 4.112274 82.000000 23 340.962816
-1.758793 1.812378 4.693587 34.000000 21 340.962818
-2.422690 2.496514 5.181930 9.000000 19 340.962821
-2.321048 2.391777 4.065508 8.000000 17 340.962823
-0.146878 0.174892 3.778077 14.000000 30 340.962831
-0.252398 0.286096 3.509629 18.000000 29 340.962834
-0.638550 0.674974 3.612372 9.000000 26 340.962836
-1.021351 1.056499 4.050272 86.000000 24 340.962839
-1.504713 1.555431 4.536593 89.000000 22 340.962841
-2.233789 2.308295 5.324305 6.000000 20 340.962844
-2.380754 2.460167 4.606392 9.000000 18 340.962847
-2.301790 2.378573 3.666530 10.000000 16 340.962849
-2.355247 2.421097 3.399057 8.000000 15 340.962807
-2.412565 2.480022 2.871203 9.000000 13 340.962809
-2.453167 2.522639 2.391619 9.000000 11 340.962812
-2.465698 2.535529 1.937101 9.000000 9 340.962815
-2.572786 2.646574 1.579585 9.000000 7 340.962817
-4.443597 4.572640 1.302013 11.000000 3 340.962822
-2.368205 2.442081 3.109907 10.000000 14 340.962833
-2.427395 2.503121 2.622445 9.000000 12 340.962835
-2.464902 2.542686 2.165795 9.000000 10 340.962838
-2.477421 2.555604 1.732849 11.000000 8 340.962840
-2.573658 2.655805 1.375564 10.000000 6 340.962843
-4.395796 4.539275 0.972405 14.000000 2 340.962848
-2.883954 2.979126 0.260936 20.000000 0 340.962850
-0.027159 0.041569 4.139116 11.000000 31 340.962861
-0.375733 0.409175 3.531994 3.000000 28 340.962864
-0.494832 0.540174 3.545405 5.000000 27 340.962866
-0.782858 0.821641 3.673062 8.000000 25 340.962869
-1.193503 1.238904 4.112274 86.000000 23 340.962871
-1.739157 1.804706 4.658478 36.000000 21 340.962874
-2.417866 2.509008 5.190196 8.000000 19 340.962876
-2.326032 2.413715 4.088530 8.000000 17 340.962879
-0.146481 0.175602 3.783068 14.000000 30 340.962887
-0.251448 0.286932 3.509629 18.000000 29 340.962889
-0.636308 0.677088 3.612372 9.000000 26 340.962892
-1.017841 1.059880 4.050272 86.000000 24 340.962894
-1.499274 1.560674 4.536593 90.000000 22 340.962897
-2.223911 2.314198 5.320040 6.000000 20 340.962900
-2.376329 2.472809 4.614372 9.000000 18 340.962902
-2.282143 2.373973 3.648154 9.000000 16 340.962905
-2.331914 2.413914 3.378030 8.000000 15 340.962862
-2.390370 2.474429 2.855514 9.000000 13 340.962865
-2.429823 2.516147 2.377911 9.000000 11 340.962867
-2.429135 2.515439 1.916239 10.000000 9 340.962870
-2.551114 2.641752 1.572093 8.000000 7 340.962873
-2.562459 2.654427 1.173714 13.000000 5 340.962875
-4.434431 4.595193 1.303878 12.000000 3 340.962878
-4.370208 4.530224 0.656941 13.000000 1 340.962880
-2.346714 2.436883 3.093283 10.000000 14 340.962888
-2.401820 2.494110 2.604786 9.000000 12 340.962891
-2.438514 2.532213 2.150600 9.000000 10 340.962893
-2.453192 2.547459 1.722359 10.000000 8 340.962896
-2.545186 2.643912 1.365708 10.000000 6 340.962898
-4.384152 4.557396 0.973095 14.000000 2 340.962903
-0.027021 0.041659 4.139116 11.000000 31 340.962917
-0.373851 0.409844 3.527054 3.000000 28 340.962919
-0.491668 0.540305 3.535615 3.000000 27 340.962922
-0.781155 0.825318 3.677834 8.000000 25 340.962924
-1.189388 1.242855 4.112274 86.000000 23 340.962927
-1.721566 1.798349 4.627757 37.000000 21 340.962929
-2.413425 2.521078 5.198462 8.000000 19 340.962932
-2.304714 2.407520 4.065508 8.000000 17 340.962935
-0.145867 0.176112 3.783068 14.000000 30 340.962942
-0.250445 0.287808 3.509629 18.000000 29 340.962945
-0.634799 0.680225 3.617211 9.000000 26 340.962947
-1.014135 1.063426 4.050272 86.000000 24 340.962950
-1.493818 1.565898 4.536593 89.000000 22 340.962953
-2.219420 2.325721 5.328571 8.000000 20 340.962955
-2.371844 2.485450 4.622351 9.000000 18 340.962958
-2.259384 2.367606 3.626103 9.000000 16 340.962960
-2.309081 2.406195 3.357002 9.000000 15 340.962918
-2.365979 2.465489 2.836687 9.000000 13 340.962920
-2.404097 2.506086 2.361462 9.000000 11 340.962923
-2.393178 2.494707 1.895377 11.000000 9 340.962926
-2.535460 2.643949 1.568347 8.000000 7 340.962928
-2.529938 2.639114 1.163849 10.000000 5 340.962931
-4.357813 4.549047 0.657387 11.000000 1 340.962936
-2.322708 2.428866 3.073334 9.000000 14 340.962944
-2.379132 2.487872 2.590070 9.000000 12 340.962946
-2.408363 2.519320 2.132873 10.000000 10 340.962949
-2.428158 2.540030 1.711869 10.000000 8 340.962951
-2.519165 2.636152 1.357495 10.000000 6 340.962954
-2.545094 2.664216 0.979370 15.000000 4 340.962956
-4.384520 4.591341 0.976544 15.000000 2 340.962959
-3.091332 3.237152 0.274237 11.000000 0 340.962961
-0.026868 0.041757 4.139116 11.000000 31 340.962972
-0.372346 0.411212 3.527054 4.000000 28 340.962975
-0.489003 0.541348 3.530720 3.000000 27 340.962977
-0.778125 0.828175 3.677834 8.000000 25 340.962980
-1.183479 1.245790 4.107672 85.000000 23 340.962982
-1.711662 1.801173 4.618979 65.000000 21 340.962985
-2.408045 2.533986 5.206728 8.000000 19 340.962987
-2.251706 2.369473 3.988769 8.000000 17 340.962990
-0.145404 0.176870 3.788060 14.000000 30 340.962998
-0.249389 0.288724 3.509629 18.000000 29 340.963000
-0.634010 0.684393 3.626890 9.000000 26 340.963003
-1.010231 1.067136 4.050272 86.000000 24 340.963005
-1.488343 1.571103 4.536593 88.000000 22 340.963008
-2.216670 2.339133 5.341370 10.000000 20 340.963011
-2.369373 2.500277 4.634319 9.000000 18 340.963013
-2.239446 2.363175 3.607727 8.000000 16 340.963016
-2.285488 2.399149 3.335975 8.000000 15 340.962973
-2.343501 2.460052 2.820998 9.000000 13 340.962976
-2.377594 2.496713 2.345014 9.000000 11 340.962979
-2.359577 2.477796 1.876833 10.000000 9 340.962981
-2.509770 2.636436 1.558982 10.000000 7 340.962984
-2.510327 2.637943 1.159622 9.000000 5 340.962986
-4.345340 4.567840 0.657833 10.000000 1 340.962991
-2.301358 2.423420 3.056710 8.000000 14 340.962999
-2.353733 2.478576 2.572411 9.000000 12 340.963002
-2.378776 2.505824 2.115146 9.000000 10 340.963004
-2.406777 2.535324 1.703476 10.000000 8 340.963007
-2.490443 2.624376 1.347638 10.000000 6 340.963009
-2.519053 2.655452 0.973508 12.000000 4 340.963012
-4.358243 4.595838 0.974475 11.000000 2 340.963014
-3.076009 3.244835 0.274036 8.000000 0 340.963017
-0.026722 0.041851 4.139116 11.000000 31 340.963028
-0.370908 0.412509 3.527054 3.000000 28 340.963030
-0.487789 0.543810 3.535615 4.000000 27 340.963033
-0.775229 0.830886 3.677834 8.000000 25 340.963035
-1.179123 1.249913 4.107672 85.000000 23 340.963038
-1.700432 1.801910 4.605814 83.000000 21 340.963040
-2.401117 2.544423 5.210861 9.000000 19 340.963043
-2.208216 2.340012 3.927378 7.000000 17 340.963046
-0.144785 0.177376 3.788060 14.000000 30 340.963053
-0.248379 0.289592 3.509629 18.000000 29 340.963056
-0.632469 0.687528 3.631729 9.000000 26 340.963058
-1.006500 1.070656 4.050272 86.000000 24 340.963061
-1.482849 1.576289 4.536593 88.000000 22 340.963064
-2.219216 2.358252 5.366965 10.000000 20 340.963066
-2.364762 2.512922 4.642298 9.000000 18 340.963069
-2.217243 2.356164 3.585676 8.000000 16 340.963071
-2.262395 2.391568 3.314948 8.000000 15 340.963029
-2.318849 2.451249 2.802172 9.000000 13 340.963031
-2.351627 2.486768 2.328565 8.000000 11 340.963034
-2.347870 2.482799 1.874514 10.000000 9 340.963037
-2.471890 2.614860 1.542124 9.000000 7 340.963039
-2.487924 2.632743 1.153985 9.000000 5 340.963042
-2.540545 2.688426 0.793735 7.000000 3 340.963044
-4.343048 4.597460 0.659618 12.000000 1 340.963047
-2.282637 2.420571 3.043411 8.000000 14 340.963055
-2.328428 2.469133 2.554752 9.000000 12 340.963057
-2.349314 2.492152 2.097419 10.000000 10 340.963060
-2.382347 2.527198 1.692986 10.000000 8 340.963062
-2.461835 2.612432 1.337782 10.000000 6 340.963065
-2.493104 2.646539 0.967646 11.000000 4 340.963067
-4.321805 4.589392 0.970336 6.000000 2 340.963070
-3.030420 3.219175 0.272020 7.000000 0 340.963073
-0.026576 0.041944 4.139116 11.000000 31 340.963083
-0.368949 0.413221 3.522115 3.000000 28 340.963086
-0.487919 0.547791 3.550300 6.000000 27 340.963088
-0.771309 0.832492 3.673062 8.000000 25 340.963091
-1.174753 1.254022 4.107672 85.000000 23 340.963093
-1.695770 1.809582 4.610202 85.000000 21 340.963096
-2.399917 2.561002 5.227393 8.000000 19 340.963099
-2.154000 2.298581 3.846802 8.000000 17 340.963101
-0.144347 0.178107 3.793052 14.000000 30 340.963109
-0.247712 0.290865 3.514601 18.000000 29 340.963111
-0.630913 0.690660 3.636568 9.000000 26 340.963114
-1.002757 1.074163 4.050272 86.000000 24 340.963117
-1.477338 1.581455 4.536593 88.000000 22 340.963119
