# .PCD v.7 - Point Cloud Data file format
VERSION .7
FIELDS x y z intensity ring timestamp
SIZE 4 4 4 4 2 8
TYPE F F F F U D
COUNT 1 1 1 1 1 1
WIDTH 924
HEIGHT 1
VIEWPOINT 0 0 0 1 0 0 0
POINTS 924
DATA ascii
1.043098 -1.795092 1.595282 37.000000 12 341.617002
1.016474 -1.749978 1.274381 38.000000 10 341.617005
1.003561 -1.727751 1.011119 43.000000 8 341.617007
0.981967 -1.691255 0.769414 50.000000 6 341.617010
0.958940 -1.652259 0.551474 58.000000 4 341.617012
0.949236 -1.636196 0.355710 40.000000 2 341.617015
0.929699 -1.603165 0.168433 36.000000 0 341.617017
0.015919 -0.045331 3.954123 9.000000 31 341.617028
0.426769 -0.783235 5.670692 99.000000 28 341.617031
0.558331 -1.027473 5.645458 97.000000 27 341.617033
0.592551 -1.040749 3.873475 66.000000 25 341.617036
0.788130 -1.366691 3.776289 40.000000 23 341.617038
0.996224 -1.726871 3.719304 37.000000 21 341.617041
1.137926 -1.972509 3.417161 33.000000 19 341.617043
1.135167 -1.967732 2.795479 19.000000 17 341.617046
0.150266 -0.311287 5.799678 99.000000 30 341.617054
0.284137 -0.552465 5.741793 97.000000 29 341.617056
0.705320 -1.259571 5.591607 99.000000 26 341.617059
0.693192 -1.206913 3.839097 57.000000 24 341.617061
0.887486 -1.543973 3.744446 39.000000 22 341.617064
1.098112 -1.909650 3.673388 37.000000 20 341.617067
1.072566 -1.865229 2.922824 34.000000 18 341.617069
1.105818 -1.923061 2.483127 24.000000 16 341.617072
1.091376 -1.886499 2.221529 27.000000 15 341.617029
1.054193 -1.822231 1.779256 33.000000 13 341.617032
1.024694 -1.771954 1.426623 36.000000 11 341.617034
1.003160 -1.734722 1.135064 39.000000 9 341.617037
0.979480 -1.694454 0.879071 42.000000 7 341.617040
0.960213 -1.661793 0.653721 45.000000 5 341.617042
0.946179 -1.637505 0.450531 46.000000 3 341.617045
0.928957 -1.608347 0.259368 34.000000 1 341.617047
1.062906 -1.843964 1.976134 32.000000 14 341.617055
1.030770 -1.788217 1.586452 37.000000 12 341.617058
1.006055 -1.746044 1.269316 38.000000 10 341.617060
0.992992 -1.723379 1.006923 43.000000 8 341.617063
0.971344 -1.686488 0.766128 52.000000 6 341.617065
0.948317 -1.647172 0.549129 57.000000 4 341.617068
0.938578 -1.630915 0.354331 42.000000 2 341.617070
0.919115 -1.597739 0.168030 36.000000 0 341.617073
0.015761 -0.045386 3.954123 9.000000 31 341.617084
0.424033 -0.784720 5.670692 99.000000 28 341.617086
0.554741 -1.029415 5.645458 97.000000 27 341.617089
0.588914 -1.042811 3.873475 66.000000 25 341.617091
0.783354 -1.369434 3.776289 40.000000 23 341.617094
0.990190 -1.730338 3.719304 37.000000 21 341.617096
1.140817 -1.993566 3.446091 39.000000 19 341.617099
1.123515 -1.963335 2.783968 19.000000 17 341.617101
0.149303 -0.312071 5.804670 99.000000 30 341.617109
0.282206 -0.553453 5.741793 97.000000 29 341.617112
0.700919 -1.262025 5.591607 99.000000 26 341.617114
0.688974 -1.209325 3.839097 57.000000 24 341.617117
0.882091 -1.547062 3.744446 39.000000 22 341.617119
1.091439 -1.913471 3.673388 37.000000 20 341.617122
1.072022 -1.879433 2.938782 32.000000 18 341.617125
1.094059 -1.918075 2.472101 25.000000 16 341.617127
1.077684 -1.877925 2.207511 27.000000 15 341.617085
1.042013 -1.815770 1.769843 33.000000 13 341.617087
1.014342 -1.768266 1.421139 36.000000 11 341.617090
0.992690 -1.730527 1.130428 39.000000 9 341.617093
0.968947 -1.689819 0.875325 42.000000 7 341.617095
0.949635 -1.656810 0.650902 45.000000 5 341.617098
0.935572 -1.632274 0.448666 48.000000 3 341.617100
0.918386 -1.602938 0.258475 35.000000 1 341.617103
1.050902 -1.837937 1.966160 32.000000 14 341.617111
1.020509 -1.784786 1.580566 37.000000 12 341.617113
0.995675 -1.742059 1.264251 38.000000 10 341.617116
0.982466 -1.718954 1.002727 42.000000 8 341.617118
0.960766 -1.681667 0.762843 50.000000 6 341.617121
0.937740 -1.642030 0.546785 57.000000 4 341.617123
0.930424 -1.629880 0.353641 43.000000 2 341.617126
0.911056 -1.596599 0.167829 36.000000 0 341.617128
0.015602 -0.045441 3.954123 10.000000 31 341.617139
0.421291 -0.786196 5.670692 96.000000 28 341.617142
0.551145 -1.031345 5.645458 97.000000 27 341.617144
0.585271 -1.044860 3.873475 66.000000 25 341.617147
0.778569 -1.372160 3.776289 40.000000 23 341.617149
0.984143 -1.733783 3.719304 37.000000 21 341.617152
1.136629 -2.002431 3.454357 41.000000 19 341.617154
1.111907 -1.958881 2.772458 19.000000 17 341.617157
0.148212 -0.312591 5.804670 99.000000 30 341.617165
0.280273 -0.554435 5.741793 97.000000 29 341.617167
0.696509 -1.264464 5.591607 99.000000 26 341.617170
0.684749 -1.211722 3.839097 54.000000 24 341.617172
0.876686 -1.550131 3.744446 40.000000 22 341.617175
1.084754 -1.917269 3.673388 37.000000 20 341.617178
1.080296 -1.909396 2.978677 28.000000 18 341.617180
1.080680 -1.910080 2.457401 24.000000 16 341.617183
1.065830 -1.872378 2.196998 27.000000 15 341.617140
1.029891 -1.809247 1.760430 33.000000 13 341.617143
1.004027 -1.764528 1.415657 37.000000 11 341.617145
0.980071 -1.722430 1.123474 39.000000 9 341.617148
0.958458 -1.685132 0.871579 42.000000 7 341.617151
0.939104 -1.651774 0.648084 45.000000 5 341.617153
0.927441 -1.631259 0.447733 48.000000 3 341.617156
0.910324 -1.601804 0.258029 35.000000 1 341.617158
1.040796 -1.835098 1.959510 32.000000 14 341.617166
1.010284 -1.781306 1.574680 37.000000 12 341.617169
0.985335 -1.738023 1.259186 39.000000 10 341.617171
0.971983 -1.714476 0.998531 42.000000 8 341.617174
0.950233 -1.676793 0.759557 50.000000 6 341.617176
0.927211 -1.636835 0.544440 59.000000 4 341.617179
0.919849 -1.624499 0.352261 42.000000 2 341.617181
0.900556 -1.591074 0.167426 36.000000 0 341.617184
0.015433 -0.045453 3.949123 10.000000 31 341.617195
0.418544 -0.787661 5.670692 96.000000 28 341.617197
0.547541 -1.033263 5.645458 98.000000 27 341.617200
0.582345 -1.048203 3.878246 53.000000 25 341.617202
0.773775 -1.374870 3.776289 40.000000 23 341.617205
0.978085 -1.737208 3.719304 37.000000 21 341.617207
1.126871 -2.001482 3.446091 33.000000 19 341.617210
1.100344 -1.954370 2.760947 20.000000 17 341.617213
0.147120 -0.313106 5.804670 99.000000 30 341.617220
0.278336 -0.555410 5.741793 97.000000 29 341.617223
0.691488 -1.265784 5.586768 99.000000 26 341.617225
0.680515 -1.214105 3.839097 52.000000 24 341.617228
0.871269 -1.553182 3.744446 39.000000 22 341.617231
1.078054 -1.921044 3.673388 37.000000 20 341.617233
1.083949 -1.931554 3.006604 24.000000 18 341.617236
1.069029 -1.904971 2.446375 25.000000 16 341.617238
1.054027 -1.866770 2.186484 29.000000 15 341.617196
1.017827 -1.802661 1.751016 32.000000 13 341.617198
0.991696 -1.757097 1.407432 36.000000 11 341.617201
0.969697 -1.718125 1.118838 39.000000 9 341.617204
0.948015 -1.680392 0.867833 43.000000 7 341.617206
0.928620 -1.646685 0.645265 45.000000 5 341.617209
0.916915 -1.625929 0.445868 46.000000 3 341.617211
0.899836 -1.596296 0.257137 35.000000 1 341.617214
1.028891 -1.828956 1.949535 32.000000 14 341.617222
0.998115 -1.774253 1.565850 37.000000 12 341.617224
0.975036 -1.733937 1.254121 39.000000 10 341.617227
0.961544 -1.709947 0.994335 43.000000 8 341.617229
0.939746 -1.671867 0.756272 52.000000 6 341.617232
0.919111 -1.635824 0.543268 57.000000 4 341.617234
0.909323 -1.619065 0.350881 42.000000 2 341.617237
0.890105 -1.585495 0.167023 37.000000 0 341.617239
0.015274 -0.045507 3.949123 10.000000 31 341.617250
0.415792 -0.789117 5.670692 98.000000 28 341.617253
0.543931 -1.035168 5.645458 95.000000 27 341.617255
0.578683 -1.050229 3.878246 39.000000 25 341.617258
0.768971 -1.377562 3.776289 40.000000 23 341.617260
0.972016 -1.740612 3.719304 37.000000 21 341.617263
1.115762 -1.998032 3.433693 26.000000 19 341.617265
1.088826 -1.949801 2.749436 20.000000 17 341.617268
0.146081 -0.313592 5.804670 98.000000 30 341.617276
0.276492 -0.556330 5.741793 97.000000 29 341.617278
0.687287 -1.268070 5.586768 99.000000 26 341.617281
0.676485 -1.216355 3.839097 52.000000 24 341.617283
0.865842 -1.556214 3.744446 40.000000 22 341.617286
1.071342 -1.924795 3.673388 37.000000 20 341.617289
1.093324 -1.964294 3.050488 21.000000 18 341.617291
1.056108 -1.896657 2.431674 26.000000 16 341.617294
1.044019 -1.864215 2.179475 29.000000 15 341.617251
1.007724 -1.799410 1.744741 32.000000 13 341.617254
0.981472 -1.753251 1.401949 37.000000 11 341.617257
0.959366 -1.713768 1.114202 39.000000 9 341.617259
0.940172 -1.679481 0.865960 43.000000 7 341.617262
0.920811 -1.645569 0.643856 45.000000 5 341.617264
0.906438 -1.620546 0.444003 46.000000 3 341.617267
0.889398 -1.590734 0.256244 35.000000 1 341.617269
1.017041 -1.822753 1.939561 32.000000 14 341.617277
0.987977 -1.770667 1.559964 37.000000 12 341.617280
0.965080 -1.729631 1.249056 39.000000 10 341.617282
0.951445 -1.705200 0.990138 43.000000 8 341.617285
0.929596 -1.666725 0.752987 54.000000 6 341.617287
0.908948 -1.630372 0.540923 55.000000 4 341.617290
0.899128 -1.613420 0.349502 42.000000 2 341.617292
0.879980 -1.579709 0.166620 37.000000 0 341.617295
0.015123 -0.045557 3.949123 10.000000 31 341.617306
0.413173 -0.790492 5.670692 97.000000 28 341.617308
0.540495 -1.036966 5.645458 95.000000 27 341.617311
0.576629 -1.054763 3.887790 34.000000 25 341.617313
0.765345 -1.381814 3.780892 40.000000 23 341.617316
0.966238 -1.743826 3.719304 37.000000 21 341.617318
1.105039 -1.994337 3.421294 26.000000 19 341.617321
1.076139 -1.942184 2.734088 20.000000 17 341.617324
0.144986 -0.314100 5.804670 98.000000 30 341.617331
0.274549 -0.557292 5.741793 97.000000 29 341.617334
0.682856 -1.270461 5.586768 99.000000 26 341.617336
0.672235 -1.218709 3.839097 53.000000 24 341.617339
0.860677 -1.559077 3.744446 40.000000 22 341.617342
1.064953 -1.928338 3.673388 37.000000 20 341.617344
1.088261 -1.970548 3.054478 21.000000 18 341.617347
1.044565 -1.891430 2.420649 26.000000 16 341.617349
1.032635 -1.858315 2.168962 29.000000 15 341.617307
0.996079 -1.792534 1.735328 34.000000 13 341.617309
0.971592 -1.749185 1.396466 37.000000 11 341.617312
0.949375 -1.709194 1.109566 39.000000 9 341.617315
0.929804 -1.674646 0.862213 44.000000 7 341.617317
0.910406 -1.640384 0.641038 46.000000 5 341.617320
0.896291 -1.614952 0.442137 46.000000 3 341.617322
0.881702 -1.589319 0.255798 35.000000 1 341.617325
1.005565 -1.816314 1.929586 32.000000 14 341.617333
0.978184 -1.766861 1.554078 37.000000 12 341.617335
0.952774 -1.721672 1.241459 39.000000 10 341.617338
0.941092 -1.700568 0.985942 43.000000 8 341.617340
0.919201 -1.661695 0.749701 52.000000 6 341.617343
0.900899 -1.629281 0.539751 57.000000 4 341.617345
0.891095 -1.612214 0.348812 43.000000 2 341.617348
0.872045 -1.578398 0.166418 37.000000 0 341.617351
0.014964 -0.045610 3.949123 10.000000 31 341.617361
0.410411 -0.791929 5.670692 97.000000 28 341.617364
0.536872 -1.038846 5.645458 97.000000 27 341.617366
0.571521 -1.054143 3.878246 29.000000 25 341.617369
0.760517 -1.384477 3.780892 40.000000 23 341.617371
0.958991 -1.745088 3.714915 37.000000 21 341.617374
1.094005 -1.990783 3.408895 29.000000 19 341.617377
1.064721 -1.937500 2.722577 20.000000 17 341.617379
0.144008 -0.314868 5.809661 98.000000 30 341.617387
0.272368 -0.557767 5.736821 97.000000 29 341.617389
0.678417 -1.272837 5.586768 100.000000 26 341.617392
0.667977 -1.221048 3.839097 53.000000 24 341.617395
0.854957 -1.562221 3.744446 40.000000 22 341.617397
1.057879 -1.932228 3.673388 37.000000 20 341.617400
1.072347 -1.958661 3.030541 23.000000 18 341.617402
1.031113 -1.883351 2.405948 26.000000 16 341.617405
1.020978 -1.852538 2.158448 29.000000 15 341.617362
0.986058 -1.789181 1.729052 34.000000 13 341.617365
0.959427 -1.741579 1.388242 37.000000 11 341.617368
0.939128 -1.704737 1.104930 39.000000 9 341.617370
0.919480 -1.669760 0.858467 44.000000 7 341.617373
0.902361 -1.639349 0.639629 48.000000 5 341.617375
0.887998 -1.613923 0.441205 46.000000 3 341.617378
0.871072 -1.583813 0.254906 35.000000 1 341.617380
0.995308 -1.813440 1.922937 32.000000 14 341.617388
0.965867 -1.759804 1.545248 37.000000 12 341.617391
0.942310 -1.717593 1.236394 39.000000 10 341.617393
0.930487 -1.696048 0.981746 45.000000 8 341.617396
0.908563 -1.656772 0.746416 50.000000 6 341.617398
0.890249 -1.624048 0.537406 57.000000 4 341.617401
0.880420 -1.606783 0.347432 40.000000 2 341.617403
0.861728 -1.572670 0.166015 36.000000 0 341.617406
0.014797 -0.045664 3.949123 10.000000 31 341.617417
0.407506 -0.793428 5.670692 96.000000 28 341.617419
0.533061 -1.040807 5.645458 97.000000 27 341.617422
0.574722 -1.069388 3.925964 24.000000 25 341.617424
0.755437 -1.387255 3.780892 40.000000 23 341.617427
0.952589 -1.748591 3.714915 36.000000 21 341.617429
1.082662 -1.987367 3.396496 30.000000 19 341.617432
1.051478 -1.930129 2.707230 20.000000 17 341.617435
0.142853 -0.315394 5.809661 99.000000 30 341.617442
0.270322 -0.558761 5.736821 97.000000 29 341.617445
0.673748 -1.275315 5.586768 100.000000 26 341.617447
0.663497 -1.223489 3.839097 52.000000 24 341.617450
0.849499 -1.565196 3.744446 39.000000 22 341.617453
1.051127 -1.935909 3.673388 37.000000 20 341.617455
1.059751 -1.951797 3.014583 23.000000 18 341.617458
1.018062 -1.875021 2.391248 26.000000 16 341.617460
1.009052 -1.846879 2.147934 30.000000 15 341.617418
0.975761 -1.785951 1.722777 34.000000 13 341.617421
0.949029 -1.737744 1.382759 37.000000 11 341.617423
0.930750 -1.704279 1.102612 38.000000 9 341.617426
0.908911 -1.664981 0.854721 45.000000 7 341.617428
0.891750 -1.634223 0.636810 48.000000 5 341.617431
0.877653 -1.608388 0.439339 46.000000 3 341.617433
0.863153 -1.582472 0.254459 35.000000 1 341.617436
0.983616 -1.807063 1.912962 32.000000 14 341.617444
0.955854 -1.756065 1.539362 37.000000 12 341.617446
0.932188 -1.713298 1.231329 39.000000 10 341.617449
0.920223 -1.691313 0.977550 45.000000 8 341.617451
0.898262 -1.651636 0.743131 50.000000 6 341.617454
0.879931 -1.618605 0.535061 57.000000 4 341.617456
0.872442 -1.605496 0.346743 42.000000 2 341.617459
0.853574 -1.571428 0.165813 37.000000 0 341.617462
0.014637 -0.045715 3.949123 10.000000 31 341.617472
0.404734 -0.794846 5.670692 96.000000 28 341.617475
0.529425 -1.042662 5.645458 98.000000 27 341.617477
0.568177 -1.066115 3.906877 17.000000 25 341.617480
0.750590 -1.389884 3.780892 37.000000 23 341.617482
0.946479 -1.751906 3.714915 36.000000 21 341.617485
1.071706 -1.983706 3.384097 30.000000 19 341.617488
1.040163 -1.925325 2.695719 20.000000 17 341.617490
0.141633 -0.315626 5.804670 97.000000 30 341.617498
0.268370 -0.559701 5.736821 97.000000 29 341.617500
0.669875 -1.278773 5.591607 100.000000 26 341.617503
0.659222 -1.225797 3.839097 52.000000 24 341.617506
0.844030 -1.568151 3.744446 39.000000 22 341.617508
1.044363 -1.939566 3.673388 37.000000 20 341.617511
1.048645 -1.947524 3.002614 23.000000 18 341.617513
1.006689 -1.869609 2.380222 27.000000 16 341.617516
0.997502 -1.840983 2.137420 30.000000 15 341.617473
0.963957 -1.779078 1.713363 35.000000 13 341.617476
0.938974 -1.733692 1.377276 37.000000 11 341.617479
0.920576 -1.699726 1.097975 38.000000 9 341.617481
0.900887 -1.664066 0.852848 47.000000 7 341.617484
0.883757 -1.633107 0.635401 48.000000 5 341.617486
0.869696 -1.607122 0.438407 48.000000 3 341.617489
0.855254 -1.581095 0.254013 35.000000 1 341.617491
0.971980 -1.800627 1.902988 32.000000 14 341.617499
0.943958 -1.748720 1.530532 37.000000 12 341.617502
0.922107 -1.708953 1.226265 39.000000 10 341.617504
0.912158 -1.690520 0.975452 47.000000 8 341.617507
0.888007 -1.646448 0.739845 48.000000 6 341.617509
0.871969 -1.617388 0.533889 57.000000 4 341.617512
0.862134 -1.599812 0.345363 42.000000 2 341.617515
0.845714 -1.569999 0.165612 37.000000 0 341.617517
0.014478 -0.045766 3.949123 10.000000 31 341.617528
0.401957 -0.796254 5.670692 95.000000 28 341.617530
0.525782 -1.044503 5.645458 97.000000 27 341.617533
0.562359 -1.064130 3.892562 16.000000 25 341.617535
0.745734 -1.392495 3.780892 37.000000 23 341.617538
0.940358 -1.755199 3.714915 36.000000 21 341.617541
1.059459 -1.977513 3.367565 28.000000 19 341.617543
1.027380 -1.917641 2.680371 21.000000 17 341.617546
0.140648 -0.316384 5.809661 97.000000 30 341.617553
0.266643 -0.561117 5.741793 97.000000 29 341.617556
0.665408 -1.281104 5.591607 100.000000 26 341.617559
0.654939 -1.228091 3.839097 53.000000 24 341.617561
0.838551 -1.571088 3.744446 39.000000 22 341.617564
1.037587 -1.943200 3.673388 37.000000 20 341.617566
1.037582 -1.943196 2.990646 21.000000 18 341.617569
0.993770 -1.861149 2.365522 27.000000 16 341.617571
0.986006 -1.835029 2.126907 30.000000 15 341.617529
0.954056 -1.775573 1.707088 34.000000 13 341.617532
0.928960 -1.729592 1.371793 37.000000 11 341.617534
0.910445 -1.695124 1.093340 39.000000 9 341.617537
0.890687 -1.659032 0.849102 49.000000 7 341.617539
0.873514 -1.627727 0.632583 50.000000 5 341.617542
0.859435 -1.601491 0.436542 50.000000 3 341.617544
0.845022 -1.575294 0.253121 35.000000 1 341.617547
0.962165 -1.797425 1.896338 32.000000 14 341.617555
0.934033 -1.744877 1.524646 37.000000 12 341.617557
0.912068 -1.704559 1.221200 39.000000 10 341.617560
0.901969 -1.685690 0.971256 49.000000 8 341.617562
0.880028 -1.645374 0.738202 50.000000 6 341.617565
0.861735 -1.611849 0.531544 57.000000 4 341.617567
0.851876 -1.594077 0.343983 42.000000 2 341.617570
0.835521 -1.564128 0.165209 37.000000 0 341.617573
0.014326 -0.045814 3.949123 10.000000 31 341.617584
0.399314 -0.797582 5.670692 95.000000 28 341.617587
0.522316 -1.046241 5.645458 97.000000 27 341.617589
0.741112 -1.394960 3.780892 40.000000 23 341.617594
0.934533 -1.758308 3.714915 35.000000 21 341.617597
1.048934 -1.973561 3.355166 15.000000 19 341.617599
1.016501 -1.912544 2.668860 21.000000 17 341.617602
0.139598 -0.316848 5.809661 97.000000 30 341.617610
0.264781 -0.561998 5.741793 97.000000 29 341.617612
0.661156 -1.283303 5.591607 100.000000 26 341.617615
0.650863 -1.230256 3.839097 53.000000 24 341.617617
0.833336 -1.573860 3.744446 39.000000 22 341.617620
1.031137 -1.946630 3.673388 37.000000 20 341.617622
1.026900 -1.938636 2.978677 20.000000 18 341.617625
0.982832 -1.855447 2.354496 27.000000 16 341.617628
0.974882 -1.828848 2.116393 30.000000 15 341.617585
0.942669 -1.768422 1.697674 34.000000 13 341.617588
0.919287 -1.725282 1.366310 37.000000 11 341.617590
0.900652 -1.690314 1.088704 39.000000 9 341.617593
0.880822 -1.653793 0.845356 44.000000 7 341.617596
0.865857 -1.626381 0.631174 48.000000 5 341.617598
0.851811 -1.599996 0.435609 50.000000 3 341.617601
0.837454 -1.573691 0.252674 35.000000 1 341.617603
0.950944 -1.790711 1.886363 32.000000 14 341.617611
0.922554 -1.737255 1.515816 37.000000 12 341.617614
0.904389 -1.703766 1.218667 39.000000 10 341.617616
0.892118 -1.680655 0.967060 49.000000 8 341.617619
0.870140 -1.639940 0.734917 50.000000 6 341.617621
0.854108 -1.610404 0.530372 57.000000 4 341.617624
0.844265 -1.592517 0.343293 43.000000 2 341.617626
0.827990 -1.562476 0.165007 37.000000 0 341.617629
0.014156 -0.045821 3.944123 10.000000 31 341.617640
0.396528 -0.798971 5.670692 91.000000 28 341.617642
0.518660 -1.048058 5.645458 97.000000 27 341.617645
0.784444 -1.509247 5.481545 64.000000 25 341.617647
0.737149 -1.399267 3.785494 40.000000 23 341.617650
0.928389 -1.761559 3.714915 35.000000 21 341.617652
1.036790 -1.967253 3.338635 14.000000 19 341.617655
1.003840 -1.904737 2.653512 21.000000 17 341.617657
0.138491 -0.317334 5.809661 96.000000 30 341.617665
0.262817 -0.562919 5.741793 97.000000 29 341.617668
0.656672 -1.285603 5.591607 100.000000 26 341.617670
0.646565 -1.232520 3.839097 53.000000 24 341.617673
0.827837 -1.576759 3.744446 39.000000 22 341.617675
1.024336 -1.950217 3.673388 36.000000 20 341.617678
1.014521 -1.931536 2.962719 20.000000 18 341.617681
0.971620 -1.849862 2.343471 27.000000 16 341.617683
0.963493 -1.822781 2.105880 30.000000 15 341.617641
0.932852 -1.764818 1.691399 35.000000 13 341.617643
0.909352 -1.721087 1.360827 37.000000 11 341.617646
0.890607 -1.685613 1.084067 39.000000 9 341.617648
0.872879 -1.652758 0.843483 45.000000 7 341.617651
0.855696 -1.620908 0.628355 46.000000 5 341.617654
0.841634 -1.594272 0.433744 50.000000 3 341.617656
0.827307 -1.567796 0.251782 35.000000 1 341.617659
0.941208 -1.787411 1.879714 33.000000 14 341.617666
0.912718 -1.733312 1.509930 37.000000 12 341.617669
0.894420 -1.699283 1.213603 40.000000 10 341.617672
0.882019 -1.675726 0.962864 49.000000 8 341.617674
0.860012 -1.634609 0.731632 50.000000 6 341.617677
0.843956 -1.604771 0.528027 55.000000 4 341.617679
0.834093 -1.586688 0.341914 40.000000 2 341.617682
0.820207 -1.560934 0.164806 37.000000 0 341.617684
0.013996 -0.045870 3.944123 10.000000 31 341.617695
0.394079 -0.801048 5.675632 91.000000 28 341.617698
0.514999 -1.049862 5.645458 97.000000 27 341.617700
0.784644 -1.522597 5.519720 84.000000 25 341.617703
0.732260 -1.401832 3.785494 40.000000 23 341.617705
0.922235 -1.764789 3.714915 37.000000 21 341.617708
1.026007 -1.963377 3.326236 14.000000 19 341.617710
0.992731 -1.899705 2.642001 22.000000 17 341.617713
0.137382 -0.317815 5.809661 94.000000 30 341.617721
0.260851 -0.563833 5.741793 97.000000 29 341.617723
0.652180 -1.287888 5.591607 100.000000 26 341.617726
0.642259 -1.234770 3.839097 54.000000 24 341.617728
0.823334 -1.581571 3.748947 40.000000 22 341.617731
1.017522 -1.953781 3.673388 34.000000 20 341.617734
1.003596 -1.927046 2.950751 20.000000 18 341.617736
0.958893 -1.841215 2.328770 27.000000 16 341.617739
0.952158 -1.816657 2.095366 30.000000 15 341.617696
0.923072 -1.761168 1.685123 35.000000 13 341.617699
0.899458 -1.716843 1.355344 37.000000 11 341.617701
0.880606 -1.680863 1.079431 39.000000 9 341.617704
0.862803 -1.647581 0.839737 45.000000 7 341.617707
0.847808 -1.619635 0.626946 46.000000 5 341.617709
0.833786 -1.592848 0.432811 50.000000 3 341.617712
0.817212 -1.561849 0.250890 35.000000 1 341.617714
0.929778 -1.780755 1.869739 33.000000 14 341.617722
0.902920 -1.729321 1.504044 37.000000 12 341.617725
0.884494 -1.694750 1.208538 40.000000 10 341.617727
0.874064 -1.674772 0.960766 47.000000 8 341.617730
0.849933 -1.629227 0.728346 48.000000 6 341.617732
0.833855 -1.599088 0.525683 57.000000 4 341.617735
0.823971 -1.580807 0.340534 39.000000 2 341.617737
0.810136 -1.554926 0.164403 37.000000 0 341.617740
0.013836 -0.045919 3.944123 10.000000 31 341.617751
0.391280 -0.802419 5.675632 88.000000 28 341.617753
0.511331 -1.051653 5.645458 97.000000 27 341.617756
0.782721 -1.531977 5.543578 96.000000 25 341.617758
0.727362 -1.404379 3.785494 40.000000 23 341.617761
0.916069 -1.767998 3.714915 37.000000 21 341.617763
1.016558 -1.961950 3.317970 14.000000 19 341.617766
0.980194 -1.891773 2.626654 22.000000 17 341.617768
0.136385 -0.318559 5.814653 95.000000 30 341.617776
0.258881 -0.564740 5.741793 97.000000 29 341.617779
0.647681 -1.290156 5.591607 99.000000 26 341.617781
0.637945 -1.237004 3.839097 53.000000 24 341.617784
0.817808 -1.584435 3.748947 39.000000 22 341.617786
1.011892 -1.959638 3.677655 29.000000 20 341.617789
0.992714 -1.922503 2.938782 20.000000 18 341.617792
0.947794 -1.835514 2.317744 28.000000 16 341.617794
0.940877 -1.810476 2.084852 30.000000 15 341.617752
0.911533 -1.754016 1.675710 35.000000 13 341.617754
0.889605 -1.712551 1.349862 37.000000 11 341.617757
0.870649 -1.676064 1.074795 39.000000 9 341.617760
0.852774 -1.642354 0.835991 47.000000 7 341.617762
0.837729 -1.614069 0.624128 50.000000 5 341.617765
0.823695 -1.587029 0.430946 48.000000 3 341.617767
0.809462 -1.560272 0.250443 34.000000 1 341.617770
0.920123 -1.777357 1.863089 33.000000 14 341.617778
0.893162 -1.725284 1.498158 37.000000 12 341.617780
0.874610 -1.690170 1.203473 40.000000 10 341.617783
0.864041 -1.669751 0.956570 49.000000 8 341.617785
0.839901 -1.623795 0.725061 48.000000 6 341.617788
0.826035 -1.597671 0.524511 57.000000 4 341.617790
0.816175 -1.579274 0.339844 39.000000 2 341.617793
0.802411 -1.553306 0.164201 37.000000 0 341.617795
0.013676 -0.045967 3.944123 10.000000 31 341.617806
0.388815 -0.804479 5.680571 84.000000 28 341.617809
0.508099 -1.054349 5.650353 97.000000 27 341.617811
0.777369 -1.534700 5.543578 96.000000 25 341.617814
0.721563 -1.405172 3.780892 40.000000 23 341.617816
0.909892 -1.771184 3.714915 37.000000 21 341.617819
1.007132 -1.960480 3.309704 15.000000 19 341.617821
0.969190 -1.886627 2.615143 22.000000 17 341.617824
0.135384 -0.319300 5.819644 94.000000 30 341.617832
0.256908 -0.565640 5.741793 97.000000 29 341.617834
0.643174 -1.292409 5.591607 99.000000 26 341.617837
0.633623 -1.239223 3.839097 53.000000 24 341.617839
0.812273 -1.587281 3.748947 39.000000 22 341.617842
1.005046 -1.963158 3.677655 17.000000 20 341.617845
0.980504 -1.915225 2.922824 20.000000 18 341.617847
0.936746 -1.829758 2.306719 28.000000 16 341.617850
0.929651 -1.804239 2.074339 30.000000 15 341.617807
0.901839 -1.750266 1.669434 35.000000 13 341.617810
0.879792 -1.708211 1.344379 38.000000 11 341.617812
0.862764 -1.675155 1.072477 40.000000 9 341.617815
0.842792 -1.637077 0.832245 45.000000 7 341.617818
0.827700 -1.608452 0.621309 50.000000 5 341.617820
0.815902 -1.585526 0.430013 48.000000 3 341.617823
0.799455 -1.554230 0.249551 34.000000 1 341.617825
0.908797 -1.770591 1.853115 33.000000 14 341.617833
0.883443 -1.721199 1.492271 37.000000 12 341.617836
0.864769 -1.685541 1.198408 40.000000 10 341.617838
0.854064 -1.664680 0.952373 49.000000 8 341.617841
0.832073 -1.622514 0.723418 50.000000 6 341.617843
0.816019 -1.591894 0.522166 58.000000 4 341.617846
0.806140 -1.573299 0.338465 39.000000 2 341.617848
0.792429 -1.547204 0.163798 37.000000 0 341.617851
0.013515 -0.046014 3.944123 10.000000 31 341.617862
0.386675 -0.807234 5.690450 75.000000 28 341.617864
0.504415 -1.056116 5.650353 97.000000 27 341.617867
0.772007 -1.537404 5.543578 96.000000 25 341.617869
0.716654 -1.407682 3.780892 40.000000 23 341.617872
0.904791 -1.776485 3.719304 37.000000 21 341.617874
0.996451 -1.956461 3.297305 16.000000 19 341.617877
0.958234 -1.881429 2.603632 22.000000 17 341.617880
0.134269 -0.319771 5.819644 94.000000 30 341.617887
0.254932 -0.566534 5.741793 98.000000 29 341.617890
0.638658 -1.294647 5.591607 99.000000 26 341.617892
0.629293 -1.241428 3.839097 53.000000 24 341.617895
0.806727 -1.590106 3.748947 40.000000 22 341.617898
0.998187 -1.966655 3.677655 11.000000 20 341.617900
0.968356 -1.907886 2.906866 21.000000 18 341.617903
0.925751 -1.823948 2.295693 28.000000 16 341.617905
0.918481 -1.797946 2.063825 30.000000 15 341.617863
0.892182 -1.746470 1.663159 35.000000 13 341.617865
0.870021 -1.703823 1.338896 37.000000 11 341.617868
0.852882 -1.670265 1.067841 40.000000 9 341.617871
0.834965 -1.635880 0.830372 47.000000 7 341.617873
0.819900 -1.607058 0.619900 50.000000 5 341.617876
0.805898 -1.579613 0.428148 48.000000 3 341.617878
0.791762 -1.552575 0.249105 32.000000 1 341.617881
0.899224 -1.767096 1.846465 34.000000 14 341.617889
0.871930 -1.713465 1.483442 37.000000 12 341.617891
0.854971 -1.680863 1.193343 39.000000 10 341.617894
0.846190 -1.663606 0.950275 49.000000 8 341.617896
0.822124 -1.616990 0.720133 50.000000 6 341.617899
0.808255 -1.590399 0.520994 58.000000 4 341.617901
0.798401 -1.571688 0.337775 39.000000 2 341.617904
0.784761 -1.545506 0.163597 35.000000 0 341.617906
0.013355 -0.046061 3.944123 10.000000 31 341.617917
0.384188 -0.809280 5.695389 72.000000 28 341.617920
0.500726 -1.057871 5.650353 97.000000 27 341.617922
0.766636 -1.540089 5.543578 96.000000 25 341.617925
0.711736 -1.410175 3.780892 40.000000 23 341.617927
0.898584 -1.779632 3.719304 37.000000 21 341.617930
0.990884 -1.962440 3.301438 16.000000 19 341.617932
0.947326 -1.876177 2.592121 22.000000 17 341.617935
0.133262 -0.320505 5.824636 92.000000 30 341.617943
0.252953 -0.567420 5.741793 97.000000 29 341.617945
0.634135 -1.296868 5.591607 99.000000 26 341.617948
0.624956 -1.243617 3.839097 54.000000 24 341.617950
0.801172 -1.592913 3.748947 40.000000 22 341.617953
0.991316 -1.970127 3.677655 9.000000 20 341.617956
0.957626 -1.903177 2.894898 21.000000 18 341.617958
0.916331 -1.821111 2.288343 28.000000 16 341.617961
0.907365 -1.791596 2.053311 30.000000 15 341.617918
0.882562 -1.742628 1.656883 36.000000 13 341.617921
0.860291 -1.699389 1.333413 38.000000 11 341.617924
0.843045 -1.665326 1.063205 40.000000 9 341.617926
0.825063 -1.630512 0.826626 47.000000 7 341.617929
0.809955 -1.601348 0.617082 51.000000 5 341.617931
0.798162 -1.578033 0.427215 48.000000 3 341.617934
0.784091 -1.550885 0.248659 32.000000 1 341.617936
0.889686 -1.763556 1.839815 34.000000 14 341.617944
0.862302 -1.709280 1.477555 37.000000 12 341.617947
0.845216 -1.676138 1.188278 40.000000 10 341.617949
0.836291 -1.658445 0.946079 49.000000 8 341.617952
0.814349 -1.615633 0.718490 50.000000 6 341.617954
0.798325 -1.584529 0.518649 58.000000 4 341.617957
0.790682 -1.570042 0.337085 39.000000 2 341.617959
0.777116 -1.543774 0.163395 35.000000 0 341.617962
0.013194 -0.046108 3.944123 9.000000 31 341.617973
0.382022 -0.812023 5.705267 65.000000 28 341.617975
0.497030 -1.059612 5.650353 97.000000 27 341.617978
0.761255 -1.542756 5.543578 96.000000 25 341.617980
0.706809 -1.412651 3.780892 40.000000 23 341.617983
0.892367 -1.782758 3.719304 37.000000 21 341.617985
0.973951 -1.945755 3.268375 16.000000 19 341.617988
0.936466 -1.870872 2.580610 23.000000 17 341.617991
0.132143 -0.320969 5.824636 91.000000 30 341.617998
0.250971 -0.568300 5.741793 98.000000 29 341.618001
0.629604 -1.299074 5.591607 99.000000 26 341.618003
0.620611 -1.245790 3.839097 53.000000 24 341.618006
0.795606 -1.595699 3.748947 39.000000 22 341.618009
0.983269 -1.971242 3.673388 9.000000 20 341.618011
0.945596 -1.895720 2.878940 22.000000 18 341.618014
0.905429 -1.815198 2.277318 29.000000 16 341.618016
0.897905 -1.788378 2.046302 30.000000 15 341.617974
0.871234 -1.735261 1.647470 36.000000 13 341.617976
0.850603 -1.694907 1.327930 37.000000 11 341.617979
0.833252 -1.660340 1.058569 40.000000 9 341.617982
0.815209 -1.625094 0.822880 44.000000 7 341.617984
0.802210 -1.599877 0.615672 51.000000 5 341.617987
0.788245 -1.572028 0.425350 48.000000 3 341.617989
0.774210 -1.544708 0.247766 34.000000 1 341.617992
0.880184 -1.759971 1.833166 34.000000 14 341.618000
0.852715 -1.705050 1.471669 37.000000 12 341.618002
0.837432 -1.675223 1.185746 40.000000 10 341.618005
0.826438 -1.653235 0.941883 49.000000 8 341.618007
0.806593 -1.614241 0.716848 52.000000 6 341.618010
0.790617 -1.582958 0.517477 59.000000 4 341.618012
0.782985 -1.568362 0.336395 39.000000 2 341.618015
0.767261 -1.537537 0.162992 37.000000 0 341.618018
0.013033 -0.046153 3.944123 10.000000 31 341.618028
0.379185 -0.813352 5.705267 47.000000 28 341.618031
0.493328 -1.061340 5.650353 97.000000 27 341.618033
0.756522 -1.546746 5.548349 96.000000 25 341.618036
0.701874 -1.415110 3.780892 39.000000 23 341.618038
0.886138 -1.785862 3.719304 37.000000 21 341.618041
0.962150 -1.939060 3.251843 16.000000 19 341.618044
0.925655 -1.865514 2.569099 23.000000 17 341.618046
0.131130 -0.321696 5.829628 89.000000 30 341.618054
0.248986 -0.569172 5.741793 97.000000 29 341.618056
0.625066 -1.301263 5.591607 99.000000 26 341.618059
0.616259 -1.247949 3.839097 54.000000 24 341.618062
0.790032 -1.598467 3.748947 39.000000 22 341.618064
0.972914 -1.967648 3.660591 10.000000 20 341.618067
0.934965 -1.890904 2.866971 23.000000 18 341.618069
0.894579 -1.809230 2.266292 29.000000 16 341.618072
0.886890 -1.781924 2.035789 30.000000 15 341.618029
0.861702 -1.731322 1.641194 36.000000 13 341.618032
0.840956 -1.690378 1.322447 38.000000 11 341.618035
0.825478 -1.659272 1.056251 40.000000 9 341.618037
0.805403 -1.619628 0.819134 44.000000 7 341.618040
0.792350 -1.594076 0.612854 51.000000 5 341.618042
0.778380 -1.565972 0.423485 48.000000 3 341.618045
0.766597 -1.542941 0.247320 34.000000 1 341.618047
0.869059 -1.752995 1.823191 34.000000 14 341.618055
0.843167 -1.700773 1.465783 37.000000 12 341.618058
0.827751 -1.670410 1.180681 40.000000 10 341.618060
0.816632 -1.647976 0.937687 49.000000 8 341.618063
0.796762 -1.608583 0.713562 52.000000 6 341.618065
0.780773 -1.576996 0.515132 59.000000 4 341.618068
0.773113 -1.562209 0.335016 39.000000 2 341.618070
0.759674 -1.535727 0.162791 37.000000 0 341.618073
0.012863 -0.046156 3.939124 10.000000 31 341.618084
0.376669 -0.815376 5.710207 47.000000 28 341.618086
0.489620 -1.063056 5.650353 97.000000 27 341.618089
0.751118 -1.549377 5.548349 96.000000 25 341.618091
0.696930 -1.417551 3.780892 39.000000 23 341.618094
0.879899 -1.788944 3.719304 37.000000 21 341.618096
0.947924 -1.927256 3.227045 16.000000 19 341.618099
0.913478 -1.857226 2.553752 23.000000 17 341.618102
0.130006 -0.322152 5.829628 89.000000 30 341.618109
0.246997 -0.570038 5.741793 97.000000 29 341.618112
0.621060 -1.304573 5.596447 99.000000 26 341.618114
0.612658 -1.251643 3.843790 57.000000 24 341.618117
0.784447 -1.601215 3.748947 39.000000 22 341.618120
0.961449 -1.961665 3.643527 11.000000 20 341.618122
0.923053 -1.883331 2.851013 23.000000 18 341.618125
0.885274 -1.806254 2.258942 29.000000 16 341.618127
0.877509 -1.778612 2.028780 31.000000 15 341.618085
0.852209 -1.727337 1.634919 35.000000 13 341.618088
0.831352 -1.685803 1.316964 38.000000 11 341.618090
0.815762 -1.654197 1.051615 40.000000 9 341.618093
0.795645 -1.614113 0.815388 45.000000 7 341.618095
0.784660 -1.592529 0.611445 51.000000 5 341.618098
0.770738 -1.564273 0.422552 46.000000 3 341.618100
0.759006 -1.541140 0.246874 34.000000 1 341.618103
0.859641 -1.749315 1.816541 34.000000 14 341.618111
0.833660 -1.696451 1.459896 37.000000 12 341.618113
0.818114 -1.665550 1.175616 40.000000 10 341.618116
0.806873 -1.642670 0.933491 49.000000 8 341.618118
0.789060 -1.607115 0.711920 51.000000 6 341.618121
0.773122 -1.575348 0.513960 59.000000 4 341.618123
0.765474 -1.560452 0.334326 39.000000 2 341.618126
0.752109 -1.533884 0.162589 36.000000 0 341.618129
0.012694 -0.046157 3.934124 10.000000 31 341.618139
0.373497 -0.815979 5.705267 61.000000 28 341.618142
0.485906 -1.064759 5.650353 96.000000 27 341.618144
0.745705 -1.551989 5.548349 95.000000 25 341.618147
0.691978 -1.419975 3.780892 40.000000 23 341.618149
0.873649 -1.792005 3.719304 37.000000 21 341.618152
0.936258 -1.920435 3.210513 16.000000 19 341.618155
0.902774 -1.851758 2.542241 23.000000 17 341.618157
0.129044 -0.322851 5.834620 88.000000 30 341.618165
0.245106 -0.570854 5.741793 98.000000 29 341.618167
0.616731 -1.306625 5.596447 99.000000 26 341.618170
0.608504 -1.253668 3.843790 53.000000 24 341.618173
0.778853 -1.603943 3.748947 39.000000 22 341.618175
0.951177 -1.957972 3.630729 12.000000 20 341.618178
0.911206 -1.875697 2.835055 23.000000 18 341.618180
0.874834 -1.800032 2.247916 30.000000 16 341.618183
0.868162 -1.775257 2.021770 31.000000 15 341.618140
0.842754 -1.723307 1.628643 36.000000 13 341.618143
0.821790 -1.681181 1.311481 38.000000 11 341.618146
0.806092 -1.649074 1.046979 40.000000 9 341.618148
0.786216 -1.608413 0.811642 44.000000 7 341.618151
0.775163 -1.586501 0.608626 51.000000 5 341.618153
0.760962 -1.558126 0.420687 46.000000 3 341.618156
0.749253 -1.534830 0.245981 34.000000 1 341.618158
0.850259 -1.745590 1.809892 34.000000 14 341.618166
0.824193 -1.692083 1.454010 37.000000 12 341.618169
0.808810 -1.660501 1.170551 40.000000 10 341.618171
0.797446 -1.637176 0.929295 49.000000 8 341.618174
0.781659 -1.605477 0.710277 51.000000 6 341.618176
0.763640 -1.569162 0.511615 58.000000 4 341.618179
0.758129 -1.558529 0.333636 39.000000 2 341.618182
0.742649 -1.527384 0.162186 36.000000 0 341.618184
0.012541 -0.046199 3.934124 10.000000 31 341.618195
0.370469 -0.816505 5.700328 70.000000 28 341.618197
0.482373 -1.066364 5.650353 96.000000 27 341.618200
0.740554 -1.554454 5.548349 96.000000 25 341.618202
0.687265 -1.422262 3.780892 39.000000 23 341.618205
0.867702 -1.794892 3.719304 37.000000 21 341.618208
0.923761 -1.910862 3.189849 16.000000 19 341.618210
0.892443 -1.846083 2.530730 24.000000 17 341.618213
0.128022 -0.323569 5.839611 83.000000 30 341.618220
0.243111 -0.571706 5.741793 98.000000 29 341.618223
0.612166 -1.308770 5.596447 99.000000 26 341.618226
0.604124 -1.255784 3.843790 53.000000 24 341.618228
0.773530 -1.606517 3.748947 39.000000 22 341.618231
0.940151 -1.951716 3.613666 13.000000 20 341.618233
0.901057 -1.870563 2.823087 23.000000 18 341.618236
0.864131 -1.793912 2.236891 30.000000 16 341.618238
0.857602 -1.768500 2.011257 31.000000 15 341.618196
0.833637 -1.719087 1.622368 36.000000 13 341.618199
0.812562 -1.676372 1.305998 38.000000 11 341.618201
0.796754 -1.643764 1.042343 40.000000 9 341.618204
0.778576 -1.606975 0.809769 44.000000 7 341.618206
0.767529 -1.584880 0.607217 51.000000 5 341.618209
0.753650 -1.556220 0.419754 48.000000 3 341.618211
0.741989 -1.532824 0.245535 34.000000 1 341.618214
0.839593 -1.738312 1.799917 35.000000 14 341.618222
0.815062 -1.687527 1.448124 38.000000 12 341.618224
0.799261 -1.655550 1.165486 39.000000 10 341.618227
0.787780 -1.631775 0.925099 49.000000 8 341.618229
0.771946 -1.599690 0.706991 53.000000 6 341.618232
0.756046 -1.567441 0.510443 58.000000 4 341.618234
0.748382 -1.552244 0.332256 39.000000 2 341.618237
0.735144 -1.525466 0.161984 36.000000 0 341.618240
0.012379 -0.046243 3.934124 10.000000 31 341.618250
0.367298 -0.817085 5.695389 75.000000 28 341.618253
0.478648 -1.068041 5.650353 97.000000 27 341.618255
0.735124 -1.557029 5.548349 96.000000 25 341.618258
0.683140 -1.426414 3.785494 39.000000 23 341.618260
0.861431 -1.797910 3.719304 37.000000 21 341.618263
0.912222 -1.903924 3.173317 16.000000 19 341.618265
0.880453 -1.837622 2.515382 24.000000 17 341.618268
0.126996 -0.324284 5.844603 79.000000 30 341.618276
0.241114 -0.572551 5.741793 98.000000 29 341.618278
0.607594 -1.310899 5.596447 99.000000 26 341.618281
0.599737 -1.257885 3.843790 52.000000 24 341.618283
0.767917 -1.609208 3.748947 39.000000 22 341.618286
0.928838 -1.945572 3.596602 11.000000 20 341.618288
0.890626 -1.865537 2.811118 23.000000 18 341.618291
0.854943 -1.790799 2.229541 30.000000 16 341.618294
0.848334 -1.765054 2.004248 31.000000 15 341.618251
0.824259 -1.714969 1.616092 36.000000 13 341.618254
0.803084 -1.671660 1.300515 37.000000 11 341.618256
0.787175 -1.638549 1.037707 40.000000 9 341.618259
0.768948 -1.601325 0.806022 44.000000 7 341.618262
0.757841 -1.578900 0.604399 50.000000 5 341.618264
0.746087 -1.554412 0.418822 48.000000 3 341.618267
0.734480 -1.530914 0.245089 34.000000 1 341.618269
0.830295 -1.734496 1.793267 35.000000 14 341.618277
0.805676 -1.683070 1.442237 38.000000 12 341.618280
0.789755 -1.650552 1.160421 39.000000 10 341.618282
0.780120 -1.630421 0.923001 47.000000 8 341.618285
0.764320 -1.598114 0.705349 55.000000 6 341.618287
0.748474 -1.565685 0.509270 60.000000 4 341.618290
0.740824 -1.550378 0.331567 39.000000 2 341.618292
0.727662 -1.523515 0.161783 36.000000 0 341.618295
0.012218 -0.046286 3.934124 10.000000 31 341.618306
0.364128 -0.817652 5.690450 83.000000 28 341.618308
0.474917 -1.069706 5.650353 97.000000 27 341.618311
0.729684 -1.559586 5.548349 96.000000 25 341.618313
0.678157 -1.428790 3.785494 40.000000 23 341.618316
0.855150 -1.800906 3.719304 37.000000 21 341.618318
0.901949 -1.899470 3.160918 16.000000 19 341.618321
0.869907 -1.831996 2.503871 24.000000 17 341.618323
0.125864 -0.324725 5.844603 73.000000 30 341.618331
0.239114 -0.573389 5.741793 98.000000 29 341.618334
0.603014 -1.313012 5.596447 99.000000 26 341.618336
0.595342 -1.259971 3.843790 52.000000 24 341.618339
0.763227 -1.613847 3.753448 39.000000 22 341.618341
0.917580 -1.939373 3.579538 9.000000 20 341.618344
0.878953 -1.857737 2.795160 23.000000 18 341.618347
0.844337 -1.784579 2.218515 30.000000 16 341.618349
0.837567 -1.758345 1.993734 31.000000 15 341.618307
0.814919 -1.710807 1.609816 37.000000 13 341.618309
0.795447 -1.670677 1.297774 38.000000 11 341.618312
0.777642 -1.633287 1.033071 40.000000 9 341.618314
0.761362 -1.599813 0.804149 45.000000 7 341.618317
0.750264 -1.577203 0.602990 52.000000 5 341.618320
0.738547 -1.552571 0.417889 48.000000 3 341.618322
0.726993 -1.528971 0.244643 34.000000 1 341.618325
0.821034 -1.730636 1.786618 35.000000 14 341.618332
0.796331 -1.678568 1.436351 38.000000 12 341.618335
0.780294 -1.645507 1.155357 40.000000 10 341.618338
0.770535 -1.624932 0.918805 49.000000 8 341.618340
0.754691 -1.592238 0.702063 55.000000 6 341.618343
0.738842 -1.559503 0.506926 60.000000 4 341.618345
0.733289 -1.548479 0.330877 39.000000 2 341.618348
0.718064 -1.517014 0.161380 36.000000 0 341.618350
0.012056 -0.046328 3.934124 10.000000 31 341.618361
0.361271 -0.818918 5.690450 89.000000 28 341.618364
0.471180 -1.071357 5.650353 97.000000 27 341.618366
0.724236 -1.562123 5.548349 96.000000 25 341.618369
0.673165 -1.431149 3.785494 38.000000 23 341.618371
0.847838 -1.801712 3.714915 37.000000 21 341.618374
0.891719 -1.894969 3.148519 16.000000 19 341.618376
0.858047 -1.823419 2.488523 25.000000 17 341.618379
0.124729 -0.325162 5.844603 66.000000 30 341.618387
0.237111 -0.574220 5.741793 98.000000 29 341.618389
0.598427 -1.315109 5.596447 99.000000 26 341.618392
0.590209 -1.260479 3.839097 53.000000 24 341.618394
0.757589 -1.616501 3.753448 39.000000 22 341.618397
0.906376 -1.933118 3.562474 9.000000 20 341.618400
0.868625 -1.852607 2.783192 24.000000 18 341.618402
0.833785 -1.778306 2.207490 31.000000 16 341.618405
0.828379 -1.754808 1.986725 31.000000 15 341.618362
0.805619 -1.706600 1.603541 37.000000 13 341.618365
0.786041 -1.665881 1.292291 38.000000 11 341.618367
0.770045 -1.631985 1.030753 40.000000 9 341.618370
0.751818 -1.594075 0.800403 45.000000 7 341.618373
0.740663 -1.571134 0.600171 52.000000 5 341.618375
0.728933 -1.546253 0.416024 46.000000 3 341.618378
0.717406 -1.522490 0.243750 33.000000 1 341.618380
0.811811 -1.726732 1.779968 35.000000 14 341.618388
0.787027 -1.674022 1.430465 38.000000 12 341.618391
0.770879 -1.640417 1.150292 40.000000 10 341.618393
0.760998 -1.619397 0.914608 47.000000 8 341.618396
0.745113 -1.586313 0.698778 55.000000 6 341.618398
0.731328 -1.557673 0.505753 60.000000 4 341.618401
0.723671 -1.542063 0.329497 37.000000 2 341.618403
0.710643 -1.514989 0.161178 36.000000 0 341.618406
0.011895 -0.046370 3.934124 10.000000 31 341.618417
0.358100 -0.819462 5.685510 96.000000 28 341.618419
0.467437 -1.072995 5.650353 98.000000 27 341.618422
0.718779 -1.564642 5.548349 97.000000 25 341.618424
0.668165 -1.433490 3.785494 38.000000 23 341.618427
0.841544 -1.804661 3.714915 36.000000 21 341.618429
0.881531 -1.890419 3.136120 16.000000 19 341.618432
0.847612 -1.817686 2.477013 25.000000 17 341.618434
0.123492 -0.325325 5.839611 62.000000 30 341.618442
0.235106 -0.575045 5.741793 98.000000 29 341.618445
0.593833 -1.317190 5.596447 99.000000 26 341.618447
0.585805 -1.262531 3.839097 52.000000 24 341.618450
0.751941 -1.619136 3.753448 39.000000 22 341.618452
0.895227 -1.926810 3.545411 9.000000 20 341.618455
0.858343 -1.847428 2.771223 24.000000 18 341.618458
0.824716 -1.775057 2.200139 31.000000 16 341.618460
0.817715 -1.747999 1.976211 31.000000 15 341.618418
0.796358 -1.702350 1.597265 37.000000 13 341.618420
0.776680 -1.661039 1.286808 38.000000 11 341.618423
0.760591 -1.626637 1.026117 40.000000 9 341.618426
0.744286 -1.592490 0.798530 45.000000 7 341.618428
0.733143 -1.569363 0.598762 50.000000 5 341.618431
0.721452 -1.544338 0.415091 48.000000 3 341.618433
0.709980 -1.520472 0.243304 34.000000 1 341.618436
0.802624 -1.722785 1.773318 35.000000 14 341.618444
0.779472 -1.673095 1.427522 38.000000 12 341.618446
0.761508 -1.635282 1.145227 39.000000 10 341.618449
0.753425 -1.617929 0.912510 47.000000 8 341.618451
0.737579 -1.584623 0.697135 56.000000 6 341.618454
0.721786 -1.551402 0.503409 59.000000 4 341.618456
0.716196 -1.540089 0.328807 36.000000 2 341.618459
0.703244 -1.512930 0.160977 36.000000 0 341.618461
0.011733 -0.046411 3.934124 10.000000 31 341.618472
0.355546 -0.821420 5.690450 98.000000 28 341.618475
0.463689 -1.074620 5.650353 97.000000 27 341.618477
0.713313 -1.567141 5.548349 96.000000 25 341.618480
0.663157 -1.435813 3.785494 40.000000 23 341.618482
0.835240 -1.807587 3.714915 35.000000 21 341.618485
0.871386 -1.885821 3.123721 17.000000 19 341.618487
0.835883 -1.808993 2.461665 25.000000 17 341.618490
0.122355 -0.325754 5.839611 56.000000 30 341.618498
0.233097 -0.575862 5.741793 98.000000 29 341.618500
0.589232 -1.319255 5.596447 98.000000 26 341.618503
0.581394 -1.264568 3.839097 50.000000 24 341.618505
0.746285 -1.621751 3.753448 39.000000 22 341.618508
0.885224 -1.922816 3.532613 11.000000 20 341.618511
0.848108 -1.842199 2.759255 24.000000 18 341.618513
0.814262 -1.768687 2.189114 31.000000 16 341.618516
0.808609 -1.744371 1.969202 31.000000 15 341.618473
0.787136 -1.698056 1.590990 37.000000 13 341.618476
0.769119 -1.659946 1.284066 38.000000 11 341.618478
0.753046 -1.625262 1.023799 40.000000 9 341.618481
0.734826 -1.586665 0.794784 47.000000 7 341.618484
0.723630 -1.563206 0.595944 50.000000 5 341.618486
0.711930 -1.537931 0.413226 48.000000 3 341.618489
0.700486 -1.513902 0.242412 34.000000 1 341.618491
0.793476 -1.718795 1.766669 35.000000 14 341.618499
0.770239 -1.668466 1.421635 38.000000 12 341.618502
0.753989 -1.634015 1.142694 39.000000 10 341.618504
0.743969 -1.612307 0.908314 49.000000 8 341.618507
0.728087 -1.578612 0.693850 55.000000 6 341.618509
0.714331 -1.549498 0.502236 59.000000 4 341.618512
0.706671 -1.533585 0.327428 35.000000 2 341.618514
0.693779 -1.506300 0.160574 36.000000 0 341.618517
0.011578 -0.046495 3.939124 10.000000 31 341.618528
0.352676 -0.822656 5.690450 102.000000 28 341.618530
0.459935 -1.076232 5.650353 97.000000 27 341.618533
0.707838 -1.569622 5.548349 97.000000 25 341.618535
0.658141 -1.438119 3.785494 39.000000 23 341.618538
0.829922 -1.812670 3.719304 35.000000 21 341.618540
0.862455 -1.883734 3.115456 17.000000 19 341.618543
0.825560 -1.803155 2.450154 25.000000 17 341.618546
0.121117 -0.325907 5.834620 51.000000 30 341.618553
0.231085 -0.576672 5.741793 99.000000 29 341.618556
0.584623 -1.321303 5.596447 97.000000 26 341.618558
0.576977 -1.266590 3.839097 50.000000 24 341.618561
0.740619 -1.624346 3.753448 40.000000 22 341.618564
0.875259 -1.918775 3.519815 13.000000 20 341.618566
0.837919 -1.836922 2.747286 25.000000 18 341.618569
0.805269 -1.765349 2.181763 31.000000 16 341.618571
0.798049 -1.737461 1.958688 32.000000 15 341.618529
0.777955 -1.693718 1.584714 37.000000 13 341.618531
0.759830 -1.655020 1.278583 38.000000 11 341.618534
0.743671 -1.619828 1.019163 40.000000 9 341.618537
0.727350 -1.585007 0.792911 47.000000 7 341.618539
0.716169 -1.561362 0.594534 49.000000 5 341.618542
0.704509 -1.535942 0.412293 48.000000 3 341.618544
0.693122 -1.511811 0.241965 34.000000 1 341.618547
0.784364 -1.714763 1.760019 35.000000 14 341.618555
0.761047 -1.663793 1.415749 38.000000 12 341.618557
0.744695 -1.628795 1.137630 39.000000 10 341.618560
0.736450 -1.610767 0.906216 49.000000 8 341.618562
0.720609 -1.576849 0.692207 55.000000 6 341.618565
0.706898 -1.547561 0.501064 61.000000 4 341.618567
0.699256 -1.531537 0.326738 36.000000 2 341.618570
0.686443 -1.504167 0.160372 36.000000 0 341.618572
0.011408 -0.046492 3.934124 10.000000 31 341.618583
0.349802 -0.823882 5.690450 103.000000 28 341.618586
0.456175 -1.077831 5.650353 98.000000 27 341.618588
0.702354 -1.572083 5.548349 96.000000 25 341.618591
0.653117 -1.440408 3.785494 40.000000 23 341.618593
0.823590 -1.815556 3.719304 36.000000 21 341.618596
0.853549 -1.881607 3.107190 18.000000 19 341.618598
0.813963 -1.794347 2.434806 25.000000 17 341.618601
0.119979 -0.326328 5.834620 50.000000 30 341.618609
0.229071 -0.577475 5.741793 99.000000 29 341.618611
0.579503 -1.322184 5.591607 97.000000 26 341.618614
0.572552 -1.268596 3.839097 52.000000 24 341.618616
0.734945 -1.626921 3.753448 40.000000 22 341.618619
0.864260 -1.912313 3.502751 14.000000 20 341.618622
0.827779 -1.831596 2.735318 24.000000 18 341.618624
0.794913 -1.758881 2.170738 31.000000 16 341.618627
0.789025 -1.733744 1.951679 32.000000 15 341.618584
0.768813 -1.689337 1.578439 37.000000 13 341.618587
0.752317 -1.653856 1.275842 38.000000 11 341.618590
0.736178 -1.618382 1.016845 40.000000 9 341.618592
0.719894 -1.583316 0.791038 47.000000 7 341.618595
0.708730 -1.559485 0.593125 49.000000 5 341.618597
