# .PCD v.7 - Point Cloud Data file format
VERSION .7
FIELDS x y z intensity ring timestamp
SIZE 4 4 4 4 2 8
TYPE F F F F U D
COUNT 1 1 1 1 1 1
WIDTH 944
HEIGHT 1
VIEWPOINT 0 0 0 1 0 0 0
POINTS 944
DATA ascii
0.107683 2.362437 2.403766 17.000000 15 342.574887
0.063597 1.395246 1.208181 28.000000 13 342.574890
0.114397 2.500065 1.725442 19.000000 11 342.574892
0.077220 1.687583 0.970484 27.000000 9 342.574895
0.079594 1.732829 0.789165 29.000000 7 342.574897
0.080887 1.754289 0.605808 26.000000 5 342.574900
0.082808 1.795969 0.432811 24.000000 3 342.574902
0.084720 1.830488 0.257137 11.000000 1 342.574905
0.062783 1.331477 1.267941 71.000000 14 342.574913
0.064474 1.367282 1.080229 72.000000 12 342.574915
0.119733 2.529664 1.573207 18.000000 10 342.574918
0.081807 1.728356 0.887334 28.000000 8 342.574920
0.083391 1.755336 0.700421 30.000000 6 342.574923
0.084737 1.777118 0.519821 28.000000 4 342.574925
0.088530 1.849874 0.350192 17.000000 2 342.574928
0.089152 1.856091 0.168635 11.000000 0 342.574931
0.009727 0.042156 3.404144 9.000000 31 342.574941
0.046214 0.619842 3.951831 34.000000 28 342.574944
0.060940 0.804586 3.902757 84.000000 27 342.574946
0.056669 1.012322 3.286553 12.000000 25 342.574949
0.057163 1.132733 2.731516 21.000000 23 342.574951
0.087634 1.742264 3.262883 15.000000 21 342.574954
0.109031 2.167532 3.260109 13.000000 19 342.574957
0.113807 2.262418 2.787805 13.000000 17 342.574959
0.025505 0.208591 3.463606 9.000000 30 342.574967
0.044141 0.448762 4.155913 87.000000 29 342.574969
0.064197 1.017699 3.960795 9.000000 26 342.574972
0.056824 1.088341 3.017864 16.000000 24 342.574975
0.068220 1.315243 2.785769 18.000000 22 342.574977
0.101350 1.960308 3.280923 13.000000 20 342.574980
0.114676 2.217980 3.014583 16.000000 18 342.574982
0.119271 2.306785 2.582356 16.000000 16 342.574985
0.115929 2.362047 2.403766 17.000000 15 342.574942
0.068276 1.391128 1.205043 28.000000 13 342.574945
0.123123 2.499650 1.725442 19.000000 11 342.574948
0.082893 1.682878 0.968166 27.000000 9 342.574950
0.085642 1.732541 0.789165 29.000000 7 342.574953
0.087010 1.753996 0.605808 26.000000 5 342.574955
0.089077 1.795669 0.432811 24.000000 3 342.574958
0.091109 1.830182 0.257137 12.000000 1 342.574960
0.067430 1.331249 1.267941 71.000000 14 342.574968
0.069247 1.367049 1.080229 72.000000 12 342.574971
0.128344 2.524925 1.570675 18.000000 10 342.574973
0.087609 1.723527 0.885236 28.000000 8 342.574976
0.089518 1.755035 0.700421 30.000000 6 342.574978
0.090940 1.776811 0.519821 28.000000 4 342.574981
0.094986 1.849554 0.350192 17.000000 2 342.574984
0.095630 1.855768 0.168635 11.000000 0 342.574986
0.009874 0.042121 3.404144 9.000000 31 342.574997
0.048500 0.621226 3.961709 34.000000 28 342.574999
0.063748 0.804369 3.902757 84.000000 27 342.575002
0.060114 1.010627 3.281781 11.000000 25 342.575004
0.061117 1.132527 2.731516 21.000000 23 342.575007
0.093715 1.741948 3.262883 15.000000 21 342.575010
0.116445 2.164329 3.255976 13.000000 19 342.575012
0.121531 2.258805 2.783968 13.000000 17 342.575015
0.026233 0.208500 3.463606 9.000000 30 342.575022
0.045707 0.448606 4.155913 90.000000 29 342.575025
0.067665 1.016213 3.955956 9.000000 26 342.575028
0.060623 1.088136 3.017864 16.000000 24 342.575030
0.072811 1.314996 2.785769 18.000000 22 342.575033
0.108336 1.962546 3.285189 13.000000 20 342.575035
0.122418 2.217566 3.014583 15.000000 18 342.575038
0.127322 2.306355 2.582356 16.000000 16 342.575040
0.124173 2.361628 2.403766 17.000000 15 342.574998
0.073131 1.390881 1.205043 30.000000 13 342.575001
0.131627 2.495030 1.722701 18.000000 11 342.575003
0.088767 1.682579 0.968166 27.000000 9 342.575006
0.091689 1.732231 0.789165 30.000000 7 342.575008
0.093132 1.753682 0.605808 26.000000 5 342.575011
0.095084 1.790442 0.431878 23.000000 3 342.575013
0.097232 1.824880 0.256690 12.000000 1 342.575016
0.072077 1.331006 1.267941 69.000000 14 342.575024
0.073799 1.362763 1.077286 72.000000 12 342.575026
0.136923 2.520156 1.568142 19.000000 10 342.575029
0.093625 1.723211 0.885236 29.000000 8 342.575031
0.095386 1.749996 0.698778 30.000000 6 342.575034
0.096876 1.771629 0.518649 29.000000 4 342.575036
0.101442 1.849211 0.350192 17.000000 2 342.575039
0.101833 1.850435 0.168433 10.000000 0 342.575042
0.010035 0.042128 3.409143 9.000000 31 342.575053
0.050731 0.621827 3.966648 34.000000 28 342.575056
0.066471 0.803127 3.897861 86.000000 27 342.575058
0.063641 1.010411 3.281781 11.000000 25 342.575061
0.065070 1.132307 2.731516 21.000000 23 342.575063
0.099795 1.741610 3.262883 15.000000 21 342.575066
0.123838 2.161099 3.251843 13.000000 19 342.575068
0.129232 2.255167 2.780132 13.000000 17 342.575071
0.026961 0.208407 3.463606 9.000000 30 342.575079
0.047273 0.448443 4.155913 92.000000 29 342.575081
0.071212 1.015971 3.955956 9.000000 26 342.575084
0.064421 1.087918 3.017864 16.000000 24 342.575086
0.077401 1.314734 2.785769 19.000000 22 342.575089
0.115186 1.962156 3.285189 13.000000 20 342.575091
0.129981 2.214116 3.010593 15.000000 18 342.575094
0.135174 2.302512 2.578681 16.000000 16 342.575097
0.132216 2.357620 2.400261 17.000000 15 342.575054
0.077986 1.390617 1.205043 30.000000 13 342.575057
0.140336 2.494555 1.722701 18.000000 11 342.575059
0.094639 1.682259 0.968166 28.000000 9 342.575062
0.097474 1.727272 0.787292 29.000000 7 342.575065
0.098981 1.748556 0.604399 26.000000 5 342.575067
0.101333 1.790099 0.431878 24.000000 3 342.575070
0.103602 1.824529 0.256690 12.000000 1 342.575072
0.076508 1.327018 1.264617 69.000000 14 342.575080
0.078556 1.362497 1.077286 72.000000 12 342.575083
0.145470 2.515359 1.565610 19.000000 10 342.575085
0.099377 1.718343 0.883138 28.000000 8 342.575088
0.101495 1.749652 0.698778 29.000000 6 342.575090
0.103059 1.771280 0.518649 28.000000 4 342.575093
0.107608 1.843902 0.349502 17.000000 2 342.575095
0.108292 1.850068 0.168433 10.000000 0 342.575098
0.010182 0.042093 3.409143 9.000000 31 342.575109
0.053034 0.623195 3.976527 34.000000 28 342.575111
0.069274 0.802890 3.897861 86.000000 27 342.575114
0.067168 1.010183 3.281781 12.000000 25 342.575116
0.069022 1.132073 2.731516 22.000000 23 342.575119
0.105874 1.741251 3.262883 15.000000 21 342.575121
0.131381 2.160654 3.251843 13.000000 19 342.575124
0.137103 2.254702 2.780132 13.000000 17 342.575126
0.027648 0.208025 3.458614 9.000000 30 342.575134
0.048838 0.448276 4.155913 97.000000 29 342.575137
0.074665 1.014462 3.951116 10.000000 26 342.575139
0.068218 1.087687 3.017864 16.000000 24 342.575142
0.081990 1.314456 2.785769 19.000000 22 342.575144
0.122035 1.961742 3.285189 13.000000 20 342.575147
0.137709 2.213649 3.010593 15.000000 18 342.575150
0.143210 2.302026 2.578681 16.000000 16 342.575152
0.140445 2.357144 2.400261 17.000000 15 342.575110
0.082608 1.386450 1.201905 30.000000 13 342.575112
0.149042 2.494051 1.722701 18.000000 11 342.575115
0.100511 1.681918 0.968166 27.000000 9 342.575117
0.103503 1.726921 0.787292 29.000000 7 342.575120
0.105084 1.748200 0.604399 26.000000 5 342.575123
0.107286 1.784831 0.430946 24.000000 3 342.575125
0.109970 1.824156 0.256690 12.000000 1 342.575128
0.081139 1.326743 1.264617 71.000000 14 342.575135
0.083065 1.358180 1.074342 72.000000 12 342.575138
0.153985 2.510533 1.563077 19.000000 10 342.575141
0.105375 1.717985 0.883138 28.000000 8 342.575143
0.107311 1.744574 0.697135 29.000000 6 342.575146
0.109242 1.770910 0.518649 28.000000 4 342.575148
0.114044 1.843515 0.349502 17.000000 2 342.575151
0.114440 1.844692 0.168232 11.000000 0 342.575153
0.010328 0.042057 3.409143 9.000000 31 342.575164
0.055348 0.624554 3.986405 34.000000 28 342.575167
0.072076 0.802643 3.897861 86.000000 27 342.575169
0.070694 1.009942 3.281781 12.000000 25 342.575172
0.072973 1.131825 2.731516 18.000000 23 342.575174
0.111951 1.740871 3.262883 15.000000 21 342.575177
0.138742 2.157374 3.247710 13.000000 19 342.575179
0.144767 2.251010 2.776294 13.000000 17 342.575182
0.028374 0.207927 3.458614 9.000000 30 342.575190
0.050402 0.448102 4.155913 98.000000 29 342.575192
0.078206 1.014195 3.951116 9.000000 26 342.575195
0.071900 1.085720 3.013170 16.000000 24 342.575197
0.086807 1.314147 2.785769 18.000000 22 342.575200
0.129224 1.961282 3.285189 13.000000 20 342.575203
0.145624 2.210122 3.006604 16.000000 18 342.575205
0.151424 2.298103 2.575006 16.000000 16 342.575208
0.148448 2.353080 2.396757 17.000000 15 342.575165
0.087447 1.386154 1.201905 30.000000 13 342.575168
0.157483 2.489342 1.719959 18.000000 11 342.575170
0.106102 1.677136 0.965848 27.000000 9 342.575173
0.109237 1.721923 0.785419 30.000000 7 342.575176
0.111186 1.747823 0.604399 26.000000 5 342.575178
0.113827 1.784426 0.430946 24.000000 3 342.575181
0.116337 1.818771 0.256244 12.000000 1 342.575183
0.086002 1.326437 1.264617 71.000000 14 342.575191
0.088042 1.357866 1.074342 72.000000 12 342.575194
0.162906 2.505649 1.560545 19.000000 10 342.575196
0.111376 1.713059 0.881040 29.000000 8 342.575199
0.113705 1.744169 0.697135 29.000000 6 342.575201
0.115415 1.765647 0.517477 28.000000 4 342.575204
0.120476 1.838143 0.348812 17.000000 2 342.575206
0.120878 1.844282 0.168232 10.000000 0 342.575209
0.010482 0.042019 3.409143 9.000000 31 342.575220
0.057780 0.625894 3.996284 35.000000 28 342.575222
0.075017 0.802374 3.897861 84.000000 27 342.575225
0.074395 1.009676 3.281781 12.000000 25 342.575227
0.077121 1.131550 2.731516 18.000000 23 342.575230
0.118331 1.740449 3.262883 15.000000 21 342.575232
0.146457 2.154044 3.243577 13.000000 19 342.575235
0.153016 2.250464 2.776294 13.000000 17 342.575237
0.029095 0.207536 3.453622 9.000000 30 342.575245
0.052044 0.447915 4.155913 99.000000 29 342.575248
0.081923 1.013902 3.951116 9.000000 26 342.575250
0.075879 1.085449 3.013170 15.000000 24 342.575253
0.091393 1.313836 2.785769 18.000000 22 342.575255
0.136069 1.960819 3.285189 13.000000 20 342.575258
0.153337 2.209600 3.006604 16.000000 18 342.575261
0.159444 2.297560 2.575006 16.000000 16 342.575263
0.156834 2.348962 2.393252 17.000000 15 342.575221
0.092527 1.385824 1.201905 30.000000 13 342.575223
0.166606 2.488748 1.719959 19.000000 11 342.575226
0.112248 1.676736 0.965848 27.000000 9 342.575229
0.115547 1.721511 0.785419 30.000000 7 342.575231
0.117269 1.742617 0.602990 26.000000 5 342.575234
0.120056 1.784018 0.430946 23.000000 3 342.575236
0.122685 1.818354 0.256244 12.000000 1 342.575239
0.090631 1.326128 1.264617 69.000000 14 342.575247
0.092506 1.353518 1.071399 72.000000 12 342.575249
0.171357 2.500764 1.558012 20.000000 10 342.575252
0.117355 1.712659 0.881040 29.000000 8 342.575254
0.119792 1.743761 0.697135 29.000000 6 342.575257
0.121577 1.765234 0.517477 28.000000 4 342.575259
0.126891 1.837711 0.348812 16.000000 2 342.575262
0.127292 1.838842 0.168030 10.000000 0 342.575264
0.010644 0.042023 3.414144 9.000000 31 342.575275
0.060114 0.627235 4.006162 35.000000 28 342.575278
0.077719 0.801093 3.892966 84.000000 27 342.575280
0.077804 1.007921 3.277009 12.000000 25 342.575283
0.080930 1.129325 2.726914 22.000000 23 342.575285
0.124406 1.740025 3.262883 14.000000 21 342.575288
0.153976 2.153519 3.243577 13.000000 19 342.575290
0.160642 2.246719 2.772458 13.000000 17 342.575293
0.029819 0.207433 3.453622 9.000000 30 342.575301
0.053543 0.447200 4.150941 99.000000 29 342.575303
0.085461 1.013609 3.951116 10.000000 26 342.575306
0.079667 1.085177 3.013170 16.000000 24 342.575308
0.095820 1.311337 2.781268 18.000000 22 342.575311
0.142913 1.960332 3.285189 13.000000 20 342.575314
0.160830 2.206046 3.002614 16.000000 18 342.575316
0.167217 2.293608 2.571331 16.000000 16 342.575319
0.165032 2.348400 2.393252 17.000000 15 342.575276
0.097091 1.381609 1.198768 30.000000 13 342.575279
0.174999 2.483980 1.717218 19.000000 11 342.575281
0.118100 1.676334 0.965848 27.000000 9 342.575284
0.121229 1.716473 0.783546 30.000000 7 342.575287
0.123352 1.742197 0.602990 26.000000 5 342.575289
0.126282 1.783588 0.430946 23.000000 3 342.575292
0.129032 1.817915 0.256244 12.000000 1 342.575294
0.094992 1.322079 1.261292 71.000000 14 342.575302
0.097230 1.353187 1.071399 72.000000 12 342.575305
0.180085 2.500151 1.558012 20.000000 10 342.575307
0.123333 1.712239 0.881040 29.000000 8 342.575310
0.125538 1.738622 0.695493 29.000000 6 342.575312
0.127738 1.764799 0.517477 28.000000 4 342.575315
0.132947 1.832318 0.348122 16.000000 2 342.575317
0.133710 1.838387 0.168030 9.000000 0 342.575320
0.010790 0.041986 3.414144 9.000000 31 342.575331
0.062458 0.628568 4.016041 34.000000 28 342.575333
0.080515 0.800817 3.892966 86.000000 27 342.575336
0.081321 1.007644 3.277009 11.000000 25 342.575338
0.084872 1.129035 2.726914 22.000000 23 342.575341
0.130479 1.739581 3.262883 14.000000 21 342.575343
0.161281 2.150162 3.239444 13.000000 19 342.575346
0.168484 2.246144 2.772458 13.000000 17 342.575349
0.030543 0.207327 3.453622 9.000000 30 342.575356
0.055104 0.447011 4.150941 99.000000 29 342.575359
0.088999 1.013305 3.951116 9.000000 26 342.575361
0.083455 1.084893 3.013170 16.000000 24 342.575364
0.100397 1.310994 2.781268 18.000000 22 342.575367
0.149954 1.962421 3.289455 13.000000 20 342.575369
0.168530 2.205471 3.002614 16.000000 18 342.575372
0.175222 2.293011 2.571331 16.000000 16 342.575374
0.172966 2.344253 2.389748 17.000000 15 342.575332
0.101913 1.381262 1.198768 30.000000 13 342.575334
0.183360 2.479184 1.714476 19.000000 11 342.575337
0.123624 1.671493 0.963530 27.000000 9 342.575340
0.127220 1.716039 0.783546 30.000000 7 342.575342
0.129432 1.741756 0.602990 24.000000 5 342.575345
0.132507 1.783136 0.430946 23.000000 3 342.575347
0.135007 1.812487 0.255798 12.000000 1 342.575350
0.099606 1.321740 1.261292 69.000000 14 342.575358
0.101953 1.352840 1.071399 74.000000 12 342.575360
0.188486 2.495208 1.555480 19.000000 10 342.575363
0.128967 1.707273 0.878942 29.000000 8 342.575365
0.131607 1.738173 0.695493 30.000000 6 342.575368
0.133898 1.764342 0.517477 28.000000 4 342.575370
0.138966 1.826905 0.347432 16.000000 2 342.575373
0.139746 1.832927 0.167829 9.000000 0 342.575375
0.010937 0.041948 3.414144 9.000000 31 342.575386
0.064731 0.629119 4.020980 34.000000 28 342.575389
0.083310 0.800531 3.892966 84.000000 27 342.575391
0.084838 1.007354 3.277009 11.000000 25 342.575394
0.088659 1.126785 2.722311 23.000000 23 342.575396
0.136550 1.739114 3.262883 15.000000 21 342.575399
0.168786 2.149586 3.239444 13.000000 19 342.575401
0.176072 2.242347 2.768620 13.000000 17 342.575404
0.031266 0.207220 3.453622 9.000000 30 342.575412
0.056664 0.446816 4.150941 99.000000 29 342.575414
0.092536 1.012988 3.951116 9.000000 26 342.575417
0.087241 1.084595 3.013170 16.000000 24 342.575419
0.104973 1.310636 2.781268 18.000000 22 342.575422
0.156803 1.961886 3.289455 13.000000 20 342.575425
0.175987 2.201865 2.998625 16.000000 18 342.575427
0.182955 2.289006 2.567656 16.000000 16 342.575430
0.181148 2.343635 2.389748 17.000000 15 342.575387
0.106734 1.380898 1.198768 30.000000 13 342.575390
0.192013 2.478529 1.714476 19.000000 11 342.575393
0.129458 1.671051 0.963530 27.000000 9 342.575395
0.133209 1.715584 0.783546 30.000000 7 342.575398
0.135511 1.741293 0.602990 24.000000 5 342.575400
0.138350 1.777765 0.430013 24.000000 3 342.575403
0.140945 1.807039 0.255352 10.000000 1 342.575405
0.104219 1.321384 1.261292 69.000000 14 342.575413
0.106674 1.352475 1.071399 74.000000 12 342.575416
0.196855 2.490237 1.552948 19.000000 10 342.575418
0.134926 1.706812 0.878942 29.000000 8 342.575421
0.137673 1.737703 0.695493 29.000000 6 342.575423
0.140056 1.763864 0.517477 28.000000 4 342.575426
0.144557 1.816535 0.346053 16.000000 2 342.575428
0.145746 1.827448 0.167627 9.000000 0 342.575431
0.011083 0.041909 3.414144 9.000000 31 342.575442
0.067092 0.630434 4.030859 35.000000 28 342.575444
0.086213 0.801248 3.897861 84.000000 27 342.575447
0.088223 1.005563 3.272238 12.000000 25 342.575449
0.092592 1.126468 2.722311 23.000000 23 342.575452
0.142816 1.741015 3.267272 15.000000 21 342.575454
0.176058 2.146180 3.235311 13.000000 19 342.575457
0.183899 2.241718 2.768620 13.000000 17 342.575460
0.031944 0.206823 3.448631 9.000000 30 342.575467
0.058223 0.446615 4.150941 99.000000 29 342.575470
0.096071 1.012659 3.951116 10.000000 26 342.575472
0.091027 1.084284 3.013170 16.000000 24 342.575475
0.109547 1.310261 2.781268 18.000000 22 342.575478
0.163867 1.963926 3.293721 13.000000 20 342.575480
0.183421 2.198234 2.994635 16.000000 18 342.575483
0.190662 2.284975 2.563981 16.000000 16 342.575485
0.189041 2.339434 2.386243 17.000000 15 342.575443
0.111240 1.376637 1.195630 30.000000 13 342.575445
0.200326 2.473676 1.711735 20.000000 11 342.575448
0.135290 1.670589 0.963530 27.000000 9 342.575451
0.138822 1.710488 0.781673 29.000000 7 342.575453
0.141200 1.736028 0.601580 26.000000 5 342.575456
0.144554 1.777272 0.430013 24.000000 3 342.575458
0.146848 1.801573 0.254906 9.000000 1 342.575461
0.108525 1.317290 1.257967 67.000000 14 342.575469
0.111395 1.352095 1.071399 72.000000 12 342.575471
0.205547 2.489535 1.552948 20.000000 10 342.575474
0.140883 1.706331 0.878942 29.000000 8 342.575476
0.143738 1.737212 0.695493 29.000000 6 342.575479
0.146212 1.763364 0.517477 28.000000 4 342.575481
0.150487 1.811085 0.345363 14.000000 2 342.575484
0.151710 1.821950 0.167426 10.000000 0 342.575487
0.011229 0.041870 3.414144 9.000000 31 342.575497
0.069463 0.631741 4.040737 35.000000 28 342.575500
0.089009 0.800942 3.897861 82.000000 27 342.575502
0.091733 1.005250 3.272238 12.000000 25 342.575505
0.096357 1.124192 2.717709 23.000000 23 342.575507
0.148688 1.738119 3.262883 15.000000 21 342.575510
0.183549 2.145552 3.235311 13.000000 19 342.575513
0.191449 2.237869 2.764784 13.000000 17 342.575515
0.032665 0.206710 3.448631 9.000000 30 342.575523
0.059782 0.446409 4.150941 99.000000 29 342.575525
0.099605 1.012318 3.951116 10.000000 26 342.575528
0.094811 1.083959 3.013170 16.000000 24 342.575531
0.113931 1.307701 2.776767 18.000000 22 342.575533
0.170947 1.965940 3.297987 13.000000 20 342.575536
0.190832 2.194577 2.990646 16.000000 18 342.575538
0.198637 2.284295 2.563981 16.000000 16 342.575541
0.197206 2.338759 2.386243 17.000000 15 342.575498
0.116045 1.376240 1.195630 30.000000 13 342.575501
0.208607 2.468795 1.708994 20.000000 11 342.575504
0.140748 1.665692 0.961212 27.000000 9 342.575506
0.144792 1.709993 0.781673 29.000000 7 342.575509
0.147259 1.735525 0.601580 26.000000 5 342.575511
0.150757 1.776756 0.430013 23.000000 3 342.575514
0.152713 1.796087 0.254459 9.000000 1 342.575516
0.113122 1.316903 1.257967 69.000000 14 342.575524
0.115768 1.347670 1.068456 72.000000 12 342.575527
0.213866 2.484507 1.550415 20.000000 10 342.575529
0.146449 1.701307 0.876844 29.000000 8 342.575532
0.149395 1.731995 0.693850 30.000000 6 342.575534
0.151948 1.758000 0.516304 28.000000 4 342.575537
0.155953 1.800681 0.343983 13.000000 2 342.575539
0.157637 1.816432 0.167224 11.000000 0 342.575542
0.011360 0.041790 3.409143 9.000000 31 342.575553
0.071844 0.633038 4.050616 35.000000 28 342.575555
0.091805 0.800627 3.897861 81.000000 27 342.575558
0.095241 1.004923 3.272238 11.000000 25 342.575560
0.100280 1.123849 2.717709 22.000000 23 342.575563
0.155180 1.742362 3.271661 15.000000 21 342.575565
0.191037 2.144898 3.235311 13.000000 19 342.575568
0.198975 2.233993 2.760947 13.000000 17 342.575571
0.033387 0.206595 3.448631 9.000000 30 342.575578
0.061340 0.446198 4.150941 99.000000 29 342.575581
0.103138 1.011964 3.951116 9.000000 26 342.575583
0.098438 1.081903 3.008478 16.000000 24 342.575586
0.118495 1.307296 2.776767 18.000000 22 342.575589
0.177809 1.965331 3.297987 13.000000 20 342.575591
0.198492 2.193898 2.990646 16.000000 18 342.575594
0.206304 2.280212 2.560305 16.000000 16 342.575596
0.205056 2.334504 2.382739 17.000000 15 342.575554
0.120848 1.375826 1.195630 30.000000 13 342.575557
0.216857 2.463886 1.706252 20.000000 11 342.575559
0.146561 1.665191 0.961212 27.000000 9 342.575562
0.150353 1.704859 0.779800 29.000000 7 342.575564
0.152894 1.730221 0.600171 25.000000 5 342.575567
0.156958 1.776219 0.430013 23.000000 3 342.575569
0.158543 1.790583 0.254013 10.000000 1 342.575572
0.117386 1.312781 1.254642 69.000000 14 342.575580
0.120471 1.347258 1.068456 74.000000 12 342.575582
0.222537 2.483745 1.550415 20.000000 10 342.575585
0.152387 1.700785 0.876844 29.000000 8 342.575587
0.155440 1.731463 0.693850 29.000000 6 342.575590
0.158083 1.757459 0.516304 28.000000 4 342.575592
0.161793 1.795193 0.343293 12.000000 2 342.575595
0.163527 1.810895 0.167023 11.000000 0 342.575598
0.011506 0.041750 3.409143 9.000000 31 342.575608
0.074326 0.635099 4.065434 34.000000 28 342.575611
0.094719 0.801312 3.902757 80.000000 27 342.575613
0.098749 1.004585 3.272238 11.000000 25 342.575616
0.104203 1.123492 2.717709 22.000000 23 342.575618
0.161261 1.741809 3.271661 15.000000 21 342.575621
0.198263 2.141416 3.231178 13.000000 19 342.575624
0.206772 2.233285 2.760947 13.000000 17 342.575626
0.034108 0.206477 3.448631 9.000000 30 342.575634
0.062897 0.445981 4.150941 99.000000 29 342.575636
0.106538 1.010347 3.946277 9.000000 26 342.575639
0.102214 1.081553 3.008478 16.000000 24 342.575642
0.123058 1.306874 2.776767 18.000000 22 342.575644
0.184912 1.967295 3.302253 13.000000 20 342.575647
0.205867 2.190191 2.986656 16.000000 18 342.575649
0.214262 2.279478 2.560305 16.000000 16 342.575652
0.213204 2.333774 2.382739 17.000000 15 342.575609
0.125296 1.371519 1.192492 30.000000 13 342.575612
0.225456 2.463114 1.706252 20.000000 11 342.575615
0.152373 1.664669 0.961212 28.000000 9 342.575617
0.156303 1.704324 0.779800 28.000000 7 342.575620
0.158932 1.729677 0.600171 25.000000 5 342.575622
0.162708 1.770769 0.429081 23.000000 3 342.575625
0.164336 1.785059 0.253567 10.000000 1 342.575627
0.121968 1.312363 1.254642 69.000000 14 342.575635
0.125174 1.346830 1.068456 74.000000 12 342.575638
0.230806 2.478661 1.547883 21.000000 10 342.575640
0.158323 1.700243 0.876844 29.000000 8 342.575643
0.161483 1.730910 0.693850 29.000000 6 342.575645
0.163765 1.752057 0.515132 28.000000 4 342.575648
0.167597 1.789687 0.342604 12.000000 2 342.575651
0.169381 1.805339 0.166821 11.000000 0 342.575653
0.011652 0.041710 3.409143 9.000000 31 342.575664
0.076729 0.636378 4.075312 35.000000 28 342.575666
0.097639 0.801987 3.907652 63.000000 27 342.575669
0.102255 1.004234 3.272238 11.000000 25 342.575671
0.108124 1.123121 2.717709 22.000000 23 342.575674
0.165735 1.724543 3.240940 12.000000 21 342.575677
0.205737 2.140711 3.231178 14.000000 19 342.575679
0.214260 2.229358 2.757110 13.000000 17 342.575682
0.034878 0.206642 3.453622 9.000000 30 342.575689
0.064453 0.445759 4.150941 99.000000 29 342.575692
0.110064 1.009969 3.946277 9.000000 26 342.575695
0.105820 1.079472 3.003785 16.000000 24 342.575697
0.127407 1.304269 2.772266 18.000000 22 342.575700
0.191778 1.966638 3.302253 13.000000 20 342.575702
0.213511 2.189459 2.986656 16.000000 18 342.575705
0.222218 2.278716 2.560305 16.000000 16 342.575707
0.221012 2.329466 2.379234 17.000000 15 342.575665
0.130082 1.371074 1.192492 30.000000 13 342.575668
0.233657 2.458150 1.703511 19.000000 11 342.575670
0.157764 1.659717 0.958894 28.000000 9 342.575673
0.161812 1.699153 0.777927 28.000000 7 342.575675
0.164969 1.729112 0.600171 27.000000 5 342.575678
0.168888 1.770190 0.429081 15.000000 3 342.575680
0.170092 1.779517 0.253121 12.000000 1 342.575683
0.126548 1.311929 1.254642 71.000000 14 342.575691
0.129874 1.346384 1.068456 74.000000 12 342.575693
0.239457 2.477840 1.547883 21.000000 10 342.575696
0.164257 1.699680 0.876844 29.000000 8 342.575698
0.167524 1.730335 0.693850 30.000000 6 342.575701
0.169879 1.751475 0.515132 27.000000 4 342.575703
0.173364 1.784162 0.341914 15.000000 2 342.575706
0.175681 1.804736 0.166821 11.000000 0 342.575709
0.011813 0.041710 3.414144 9.000000 31 342.575719
0.079143 0.637649 4.085191 31.000000 28 342.575722
0.100565 0.802652 3.912547 31.000000 27 342.575724
0.105759 1.003871 3.272238 11.000000 25 342.575727
0.112043 1.122737 2.717709 22.000000 23 342.575729
0.168666 1.692962 3.183887 11.000000 21 342.575732
0.213208 2.139980 3.231178 14.000000 19 342.575734
0.221723 2.225407 2.753273 13.000000 17 342.575737
0.035599 0.206519 3.453622 9.000000 30 342.575745
0.066009 0.445531 4.150941 98.000000 29 342.575747
0.113589 1.009578 3.946277 10.000000 26 342.575750
0.109413 1.077380 2.999092 15.000000 24 342.575752
0.131959 1.303817 2.772266 18.000000 22 342.575755
0.198642 1.965956 3.302253 13.000000 20 342.575757
0.220849 2.185701 2.982667 16.000000 18 342.575760
0.229830 2.274553 2.556630 16.000000 16 342.575763
0.229142 2.328680 2.379234 17.000000 15 342.575720
0.134867 1.370611 1.192492 30.000000 13 342.575723
0.241826 2.453158 1.700769 19.000000 11 342.575725
0.163556 1.659156 0.958894 27.000000 9 342.575728
0.167742 1.698578 0.777927 28.000000 7 342.575731
0.171004 1.728526 0.600171 27.000000 5 342.575733
0.174583 1.764701 0.428148 15.000000 3 342.575736
0.175811 1.773957 0.252674 12.000000 1 342.575738
0.131127 1.311480 1.254642 71.000000 14 342.575746
0.134573 1.345923 1.068456 74.000000 12 342.575749
0.247675 2.472699 1.545350 21.000000 10 342.575751
0.169736 1.694580 0.874746 29.000000 8 342.575754
0.173092 1.725041 0.692207 30.000000 6 342.575756
0.175506 1.746035 0.513960 21.000000 4 342.575759
0.179095 1.778619 0.341224 15.000000 2 342.575761
0.181479 1.799141 0.166620 11.000000 0 342.575764
0.011958 0.041668 3.414144 9.000000 31 342.575775
0.081566 0.638910 4.095069 31.000000 28 342.575777
0.103627 0.804316 3.922338 17.000000 27 342.575780
0.109263 1.003495 3.272238 12.000000 25 342.575782
0.115761 1.120396 2.713106 22.000000 23 342.575785
0.220677 2.139223 3.231178 14.000000 19 342.575790
0.229489 2.224619 2.753273 13.000000 17 342.575792
0.036320 0.206394 3.453622 9.000000 30 342.575800
0.067563 0.445298 4.150941 98.000000 29 342.575803
0.117112 1.009176 3.946277 9.000000 26 342.575805
0.113173 1.076991 2.999092 15.000000 24 342.575808
0.136282 1.301182 2.767766 19.000000 22 342.575810
0.205503 1.965251 3.302253 13.000000 20 342.575813
0.228477 2.184917 2.982667 16.000000 18 342.575816
0.237768 2.273737 2.556630 16.000000 16 342.575818
0.237269 2.327866 2.379234 17.000000 15 342.575776
0.139651 1.370132 1.192492 29.000000 13 342.575778
0.249963 2.448139 1.698028 19.000000 11 342.575781
0.169347 1.658575 0.958894 27.000000 9 342.575783
0.173670 1.697982 0.777927 28.000000 7 342.575786
0.177037 1.727918 0.600171 26.000000 5 342.575789
0.179740 1.754308 0.426283 23.000000 3 342.575791
0.181494 1.768378 0.252228 11.000000 1 342.575794
0.135704 1.311014 1.254642 71.000000 14 342.575801
0.139270 1.345445 1.068456 72.000000 12 342.575804
0.256305 2.471820 1.545350 21.000000 10 342.575807
0.175651 1.693977 0.874746 29.000000 8 342.575809
0.179112 1.724427 0.692207 30.000000 6 342.575812
0.181097 1.740577 0.512787 20.000000 4 342.575814
0.184789 1.773057 0.340534 16.000000 2 342.575817
0.187239 1.793528 0.166418 11.000000 0 342.575819
0.012120 0.041667 3.419143 9.000000 31 342.575830
0.083897 0.639391 4.100008 36.000000 28 342.575833
0.106702 0.805968 3.932128 9.000000 27 342.575835
0.112598 1.001624 3.267466 12.000000 25 342.575838
0.119671 1.119985 2.713106 22.000000 23 342.575840
0.158623 1.486871 2.806463 10.000000 21 342.575843
0.227844 2.135641 3.227045 14.000000 19 342.575845
0.236913 2.220617 2.749436 13.000000 17 342.575848
0.037040 0.206266 3.453622 9.000000 30 342.575856
0.069117 0.445059 4.150941 99.000000 29 342.575858
0.120784 1.010009 3.951116 9.000000 26 342.575861
0.116745 1.074874 2.994400 16.000000 24 342.575863
0.140824 1.300699 2.767766 20.000000 22 342.575866
0.212642 1.967114 3.306518 13.000000 20 342.575869
0.235779 2.181110 2.978677 16.000000 18 342.575871
0.245339 2.269523 2.552955 16.000000 16 342.575874
0.245394 2.327024 2.379234 17.000000 15 342.575831
0.144025 1.365765 1.189354 29.000000 13 342.575834
0.258507 2.447252 1.698028 20.000000 11 342.575836
0.175135 1.657974 0.958894 27.000000 9 342.575839
0.179108 1.692755 0.776054 29.000000 7 342.575842
0.183067 1.727290 0.600171 17.000000 5 342.575844
0.185345 1.748785 0.425350 22.000000 3 342.575847
0.187666 1.767734 0.252228 11.000000 1 342.575849
0.140279 1.310532 1.254642 71.000000 14 342.575857
0.143536 1.340931 1.065513 72.000000 12 342.575860
0.264931 2.470910 1.545350 21.000000 10 342.575862
0.181563 1.693354 0.874746 29.000000 8 342.575865
0.184626 1.719096 0.690565 29.000000 6 342.575867
0.186652 1.735102 0.511615 20.000000 4 342.575870
0.190446 1.767478 0.339844 15.000000 2 342.575872
0.192962 1.787897 0.166217 12.000000 0 342.575875
0.012265 0.041624 3.419143 9.000000 31 342.575886
0.086337 0.640635 4.109887 37.000000 28 342.575888
0.109790 0.807608 3.941918 7.000000 27 342.575891
0.116094 1.001225 3.267466 12.000000 25 342.575893
0.123366 1.117618 2.708504 22.000000 23 342.575896
0.163024 1.479164 2.793297 15.000000 21 342.575898
0.235298 2.134833 3.227045 14.000000 19 342.575901
0.244663 2.219777 2.749436 13.000000 17 342.575903
0.037760 0.206135 3.453622 9.000000 30 342.575911
0.070755 0.445342 4.155913 98.000000 29 342.575914
0.124309 1.009582 3.951116 10.000000 26 342.575916
0.120497 1.074460 2.994400 16.000000 24 342.575919
0.145121 1.298035 2.763264 20.000000 22 342.575921
0.219507 1.966360 3.306518 13.000000 20 342.575924
0.243391 2.180274 2.978677 16.000000 18 342.575927
0.252884 2.265283 2.549280 16.000000 16 342.575929
0.253128 2.322608 2.375730 17.000000 15 342.575887
0.148791 1.365254 1.189354 31.000000 13 342.575889
0.266594 2.442178 1.695286 20.000000 11 342.575892
0.180922 1.657352 0.958894 29.000000 9 342.575895
0.185016 1.692120 0.776054 28.000000 7 342.575897
0.188573 1.721871 0.598762 17.000000 5 342.575900
0.190914 1.743244 0.424418 22.000000 3 342.575902
0.193292 1.762118 0.251782 12.000000 1 342.575905
0.144442 1.306323 1.251317 69.000000 14 342.575913
0.148216 1.340422 1.065513 74.000000 12 342.575915
0.273080 2.465685 1.542818 21.000000 10 342.575918
0.187472 1.692710 0.874746 29.000000 8 342.575920
0.190105 1.713747 0.688922 25.000000 6 342.575923
0.192170 1.729609 0.510443 26.000000 4 342.575925
0.196615 1.766802 0.339844 15.000000 2 342.575928
0.199202 1.787212 0.166217 12.000000 0 342.575930
0.012410 0.041581 3.419143 9.000000 31 342.575941
0.088679 0.641099 4.114826 38.000000 28 342.575944
0.112891 0.809237 3.951709 7.000000 27 342.575946
0.119411 0.999330 3.262694 12.000000 25 342.575949
0.127266 1.117181 2.708504 22.000000 23 342.575951
0.168728 1.483347 2.802074 17.000000 21 342.575954
0.242430 2.131202 3.222912 14.000000 19 342.575956
0.252410 2.218909 2.749436 13.000000 17 342.575959
0.038424 0.205718 3.448631 9.000000 30 342.575967
0.072309 0.445093 4.155913 98.000000 29 342.575969
0.127832 1.009142 3.951116 10.000000 26 342.575972
0.124247 1.074032 2.994400 16.000000 24 342.575974
0.149651 1.297520 2.763264 19.000000 22 342.575977
0.226668 1.968173 3.310784 13.000000 20 342.575980
0.250655 2.176417 2.974688 16.000000 18 342.575982
0.260401 2.261019 2.545605 16.000000 16 342.575985
0.261234 2.321710 2.375730 17.000000 15 342.575942
0.153556 1.364726 1.189354 31.000000 13 342.575945
0.275117 2.441232 1.695286 20.000000 11 342.575947
0.186706 1.656711 0.958894 29.000000 9 342.575950
0.190401 1.686857 0.774181 24.000000 7 342.575953
0.193504 1.711669 0.595944 22.000000 5 342.575955
0.196446 1.737686 0.423485 23.000000 3 342.575958
0.199442 1.761432 0.251782 12.000000 1 342.575960
0.149001 1.305811 1.251317 71.000000 14 342.575968
0.152894 1.339897 1.065513 74.000000 12 342.575971
0.281685 2.464717 1.542818 21.000000 10 342.575973
0.192865 1.687536 0.872647 30.000000 8 342.575976
0.195012 1.703689 0.685637 22.000000 6 342.575978
0.197099 1.719270 0.508098 26.000000 4 342.575981
0.202781 1.766105 0.339844 16.000000 2 342.575983
0.204869 1.781543 0.166015 13.000000 0 342.575986
0.012555 0.041537 3.419143 9.000000 31 342.575997
0.091026 0.641555 4.119765 40.000000 28 342.575999
0.116005 0.810853 3.961499 7.000000 27 342.576002
0.122898 0.998907 3.262694 12.000000 25 342.576004
0.131165 1.116730 2.708504 23.000000 23 342.576007
0.173905 1.482749 2.802074 17.000000 21 342.576009
0.249540 2.127548 3.218779 14.000000 19 342.576012
0.260154 2.218014 2.749436 14.000000 17 342.576015
0.039142 0.205582 3.448631 9.000000 30 342.576022
0.073863 0.444838 4.155913 98.000000 29 342.576025
0.131191 1.007442 3.946277 10.000000 26 342.576027
0.127995 1.073592 2.994400 16.000000 24 342.576030
0.154406 1.296963 2.763264 20.000000 22 342.576033
0.233880 1.967329 3.310784 13.000000 20 342.576035
0.258630 2.175483 2.974688 16.000000 18 342.576038
0.268687 2.260049 2.545605 15.000000 16 342.576040
0.268926 2.317241 2.372225 18.000000 15 342.575998
0.158319 1.364182 1.189354 31.000000 13 342.576000
0.283154 2.436103 1.692545 20.000000 11 342.576003
0.192488 1.656049 0.958894 29.000000 9 342.576006
0.195752 1.681577 0.772308 23.000000 7 342.576008
0.198923 1.706218 0.594534 25.000000 5 342.576011
0.202244 1.732075 0.422552 23.000000 3 342.576013
0.205318 1.755743 0.251336 12.000000 1 342.576016
0.153786 1.305256 1.251317 71.000000 14 342.576024
0.157331 1.335313 1.062570 74.000000 12 342.576026
0.290212 2.459386 1.540285 22.000000 10 342.576029
0.199048 1.686818 0.872647 29.000000 8 342.576031
0.200701 1.698273 0.683994 22.000000 6 342.576034
0.202828 1.713709 0.506926 27.000000 4 342.576036
0.209253 1.765350 0.339844 15.000000 2 342.576039
0.211086 1.780817 0.166015 13.000000 0 342.576041
0.012691 0.041451 3.414144 10.000000 31 342.576052
0.093490 0.641986 4.124705 40.000000 28 342.576055
0.119273 0.812437 3.971290 6.000000 27 342.576057
0.126559 0.998450 3.262694 12.000000 25 342.576060
0.135022 1.114302 2.703901 21.000000 23 342.576062
0.178475 1.474966 2.788908 17.000000 21 342.576065
0.256998 2.123826 3.214646 14.000000 19 342.576067
0.268282 2.217046 2.749436 14.000000 17 342.576070
0.039895 0.205438 3.448631 9.000000 30 342.576078
0.075492 0.444564 4.155913 98.000000 29 342.576080
0.134883 1.006954 3.946277 9.000000 26 342.576083
0.131929 1.073116 2.994400 16.000000 24 342.576085
0.158932 1.296416 2.763264 19.000000 22 342.576088
0.240746 1.966501 3.310784 13.000000 20 342.576091
0.265856 2.171576 2.970698 16.000000 18 342.576093
0.276162 2.255733 2.541929 15.000000 16 342.576096
0.276993 2.312699 2.368721 18.000000 15 342.576053
0.163318 1.363592 1.189354 31.000000 13 342.576056
0.292081 2.435049 1.692545 20.000000 11 342.576059
0.198028 1.650934 0.956576 28.000000 9 342.576061
0.201361 1.676246 0.770435 22.000000 7 342.576064
0.204029 1.695951 0.591716 25.000000 5 342.576066
0.208289 1.731359 0.422552 23.000000 3 342.576069
0.211445 1.755016 0.251336 12.000000 1 342.576071
0.158342 1.304711 1.251317 71.000000 14 342.576079
0.161991 1.334756 1.062570 74.000000 12 342.576082
0.298275 2.454078 1.537753 21.000000 10 342.576084
0.204388 1.681607 0.870549 28.000000 8 342.576087
0.206057 1.692874 0.682351 28.000000 6 342.576089
0.208221 1.708165 0.505753 27.000000 4 342.576092
0.215414 1.764609 0.339844 15.000000 2 342.576094
0.217005 1.775072 0.165813 13.000000 0 342.576097
0.012836 0.041406 3.414144 9.000000 31 342.576108
0.095960 0.643192 4.134583 50.000000 28 342.576110
0.122412 0.814030 3.981081 6.000000 27 342.576113
0.130043 0.998002 3.262694 12.000000 25 342.576115
0.138911 1.113824 2.703901 21.000000 23 342.576118
0.183919 1.476712 2.793297 17.000000 21 342.576120
0.264062 2.120123 3.210513 13.000000 19 342.576123
0.275623 2.212915 2.745599 14.000000 17 342.576126
0.040612 0.205297 3.448631 9.000000 30 342.576133
0.077044 0.444298 4.155913 98.000000 29 342.576136
0.138397 1.006477 3.946277 9.000000 26 342.576138
0.135674 1.072649 2.994400 16.000000 24 342.576141
0.163456 1.295853 2.763264 19.000000 22 342.576144
0.247283 1.963061 3.306518 12.000000 20 342.576146
0.273435 2.170635 2.970698 16.000000 18 342.576149
0.284034 2.254755 2.541929 16.000000 16 342.576151
0.284628 2.308179 2.365216 18.000000 15 342.576109
0.168076 1.363014 1.189354 31.000000 13 342.576111
0.300067 2.429865 1.689803 20.000000 11 342.576114
0.203790 1.650232 0.956576 28.000000 9 342.576117
0.206642 1.670932 0.768562 23.000000 7 342.576119
0.209358 1.690468 0.590307 25.000000 5 342.576122
0.213727 1.725746 0.421620 23.000000 3 342.576124
0.216957 1.749325 0.250890 12.000000 1 342.576127
0.162432 1.300445 1.247992 71.000000 14 342.576135
0.166649 1.334182 1.062570 74.000000 12 342.576137
0.306839 2.453022 1.537753 21.000000 10 342.576140
0.209693 1.676380 0.868451 22.000000 8 342.576142
0.211378 1.687459 0.680709 29.000000 6 342.576145
0.214182 1.707428 0.505753 27.000000 4 342.576147
0.221572 1.763846 0.339844 16.000000 2 342.576150
0.223200 1.774304 0.165813 12.000000 0 342.576153
0.012980 0.041361 3.414144 9.000000 31 342.576163
0.098323 0.643621 4.139523 53.000000 28 342.576166
0.125563 0.815610 3.990871 6.000000 27 342.576168
0.133526 0.997542 3.262694 12.000000 25 342.576171
0.142798 1.113332 2.703901 22.000000 23 342.576173
0.188463 1.471308 2.784519 16.000000 21 342.576176
0.271461 2.119189 3.210513 13.000000 19 342.576179
0.283346 2.211939 2.745599 14.000000 17 342.576181
0.041329 0.205154 3.448631 9.000000 30 342.576189
0.078594 0.444026 4.155913 98.000000 29 342.576191
0.141909 1.005988 3.946277 10.000000 26 342.576194
0.139417 1.072169 2.994400 16.000000 24 342.576197
0.167979 1.295275 2.763264 20.000000 22 342.576199
0.250784 1.936321 3.263859 9.000000 20 342.576202
0.280623 2.166678 2.966709 16.000000 18 342.576204
0.291903 2.253750 2.541929 16.000000 16 342.576207
0.292683 2.307171 2.365216 18.000000 15 342.576164
0.172343 1.358557 1.186217 31.000000 13 342.576167
0.308547 2.428803 1.689803 20.000000 11 342.576170
0.208991 1.645116 0.954258 28.000000 9 342.576172
0.212474 1.670200 0.768562 27.000000 7 342.576175
0.214651 1.684968 0.588898 25.000000 5 342.576177
0.219750 1.724990 0.421620 23.000000 3 342.576180
0.223062 1.748557 0.250890 12.000000 1 342.576182
0.166971 1.299870 1.247992 71.000000 14 342.576190
0.170790 1.329583 1.059627 74.000000 12 342.576193
0.314850 2.447660 1.535221 21.000000 10 342.576195
0.214964 1.671137 0.866353 22.000000 8 342.576198
0.217267 1.686711 0.680709 29.000000 6 342.576200
0.219519 1.701849 0.504581 27.000000 4 342.576203
0.227728 1.763062 0.339844 17.000000 2 342.576205
0.228752 1.768559 0.165612 12.000000 0 342.576208
0.013141 0.041356 3.419143 9.000000 31 342.576219
0.100810 0.644809 4.149401 61.000000 28 342.576221
0.128886 0.818184 4.005557 7.000000 27 342.576224
0.137007 0.997070 3.262694 12.000000 25 342.576226
0.146683 1.112827 2.703901 22.000000 23 342.576229
0.194849 1.480142 2.802074 15.000000 21 342.576231
0.278490 2.115438 3.206380 13.000000 19 342.576234
0.290646 2.207758 2.741762 14.000000 17 342.576237
0.042045 0.205008 3.448631 9.000000 30 342.576244
0.080144 0.443749 4.155913 98.000000 29 342.576247
0.145600 1.006732 3.951116 10.000000 26 342.576249
0.143159 1.071676 2.994400 16.000000 24 342.576252
0.172499 1.294681 2.763264 19.000000 22 342.576255
0.248941 1.870803 3.157211 7.000000 20 342.576257
0.288184 2.165685 2.966709 16.000000 18 342.576260
0.299769 2.252717 2.541929 16.000000 16 342.576262
0.300274 2.302599 2.361711 18.000000 15 342.576220
0.177084 1.357947 1.186217 31.000000 13 342.576223
0.316482 2.423565 1.687062 20.000000 11 342.576225
0.214158 1.639984 0.951940 24.000000 9 342.576228
0.217701 1.664852 0.766689 28.000000 7 342.576230
0.219909 1.679452 0.587488 24.000000 5 342.576233
0.225132 1.719341 0.420687 23.000000 3 342.576235
0.228517 1.742830 0.250443 12.000000 1 342.576238
0.171507 1.299279 1.247992 71.000000 14 342.576246
0.175430 1.328979 1.059627 74.000000 12 342.576248
0.323392 2.446546 1.535221 21.000000 10 342.576251
0.220202 1.665877 0.864255 24.000000 8 342.576253
0.222534 1.681261 0.679066 29.000000 6 342.576256
0.225458 1.701073 0.504581 27.000000 4 342.576258
0.233229 1.757347 0.339155 17.000000 2 342.576261
0.234924 1.767750 0.165612 12.000000 0 342.576264
0.013285 0.041310 3.419143 9.000000 31 342.576274
0.103183 0.645221 4.154341 64.000000 28 342.576277
0.132066 0.819740 4.015347 7.000000 27 342.576279
0.140487 0.996586 3.262694 12.000000 25 342.576282
0.150567 1.112308 2.703901 23.000000 23 342.576284
0.206755 1.529310 2.894236 13.000000 21 342.576287
0.285872 2.114453 3.206380 13.000000 19 342.576290
0.298351 2.206730 2.741762 14.000000 17 342.576292
0.042699 0.204577 3.443639 9.000000 30 342.576300
0.081692 0.443467 4.155913 98.000000 29 342.576302
0.149113 1.006217 3.951116 10.000000 26 342.576305
0.146665 1.069460 2.989707 16.000000 24 342.576308
0.177017 1.294071 2.763264 19.000000 22 342.576310
0.295334 2.161680 2.962719 16.000000 18 342.576315
0.307171 2.248298 2.538254 16.000000 16 342.576318
0.308309 2.301537 2.361711 18.000000 15 342.576275
0.181823 1.357321 1.186217 31.000000 13 342.576278
0.324939 2.422445 1.687062 21.000000 11 342.576281
0.219293 1.634835 0.949622 21.000000 9 342.576283
0.222894 1.659487 0.764816 28.000000 7 342.576286
0.225770 1.678674 0.587488 25.000000 5 342.576288
0.231132 1.718545 0.420687 23.000000 3 342.576291
0.233935 1.737086 0.249997 12.000000 1 342.576293
0.176041 1.298673 1.247992 71.000000 14 342.576301
0.180068 1.328359 1.059627 74.000000 12 342.576304
0.331930 2.445403 1.535221 21.000000 10 342.576306
0.226015 1.665098 0.864255 28.000000 8 342.576309
0.228401 1.680474 0.679066 29.000000 6 342.576311
0.231395 1.700275 0.504581 28.000000 4 342.576314
0.239362 1.756522 0.339155 16.000000 2 342.576317
0.241093 1.766919 0.165612 12.000000 0 342.576319
0.013430 0.041263 3.419143 9.000000 31 342.576330
0.105686 0.646390 4.164219 74.000000 28 342.576332
0.135591 0.823292 4.034928 7.000000 27 342.576335
0.144178 0.997567 3.267466 12.000000 25 342.576337
0.154449 1.111776 2.703901 23.000000 23 342.576340
0.230203 1.659096 3.135612 12.000000 21 342.576343
0.293251 2.113442 3.206380 14.000000 19 342.576345
0.305612 2.202500 2.737925 14.000000 17 342.576348
0.043413 0.204427 3.443639 9.000000 30 342.576355
0.083240 0.443179 4.155913 98.000000 29 342.576358
0.152814 1.006934 3.955956 10.000000 26 342.576361
0.150397 1.068941 2.989707 16.000000 24 342.576363
0.181533 1.293445 2.763264 19.000000 22 342.576366
0.210220 1.499683 2.547182 10.000000 20 342.576368
0.302878 2.160635 2.962719 16.000000 18 342.576371
0.315017 2.247212 2.538254 16.000000 16 342.576373
0.316341 2.300446 2.361711 18.000000 15 342.576331
0.186560 1.356678 1.186217 31.000000 13 342.576334
0.332823 2.417154 1.684320 20.000000 11 342.576336
0.224394 1.629671 0.947304 21.000000 9 342.576339
0.228053 1.654106 0.762943 28.000000 7 342.576341
0.230972 1.673123 0.586079 26.000000 5 342.576344
0.236458 1.712862 0.419754 24.000000 3 342.576346
0.239997 1.736259 0.249997 12.000000 1 342.576349
0.180573 1.298050 1.247992 71.000000 14 342.576357
0.184704 1.327722 1.059627 74.000000 12 342.576359
0.340464 2.444229 1.535221 20.000000 10 342.576362
0.231200 1.659804 0.862157 29.000000 8 342.576364
0.233613 1.674989 0.677423 29.000000 6 342.576367
0.236656 1.694643 0.503409 29.000000 4 342.576369
0.245492 1.755676 0.339155 16.000000 2 342.576372
0.246566 1.761119 0.165410 12.000000 0 342.576375
0.013574 0.041216 3.419143 9.000000 31 342.576385
0.108070 0.646784 4.169158 76.000000 28 342.576388
0.138972 0.825826 4.049613 8.000000 27 342.576390
0.147441 0.995581 3.262694 12.000000 25 342.576393
0.158329 1.111230 2.703901 22.000000 23 342.576395
0.243419 1.710463 3.232162 13.000000 21 342.576398
0.300627 2.112406 3.206380 14.000000 19 342.576400
0.313298 2.201420 2.737925 14.000000 17 342.576403
0.044189 0.204557 3.448631 9.000000 30 342.576411
0.084786 0.442885 4.155913 98.000000 29 342.576413
0.156521 1.007637 3.960795 9.000000 26 342.576416
0.153881 1.066702 2.985014 16.000000 24 342.576418
0.185737 1.290648 2.758764 20.000000 22 342.576421
0.217309 1.511848 2.568512 16.000000 20 342.576423
0.310418 2.159565 2.962719 16.000000 18 342.576426
0.322377 2.242743 2.534579 16.000000 16 342.576429
0.324370 2.299328 2.361711 18.000000 15 342.576386
0.190751 1.352164 1.183079 31.000000 13 342.576389
0.341258 2.415977 1.684320 20.000000 11 342.576391
0.229461 1.624491 0.944986 26.000000 9 342.576394
0.233825 1.653300 0.762943 28.000000 7 342.576397
0.236811 1.672307 0.586079 26.000000 5 342.576399
0.242435 1.712026 0.419754 24.000000 3 342.576402
0.245357 1.730480 0.249551 12.000000 1 342.576404
0.185103 1.297412 1.247992 73.000000 14 342.576412
0.188766 1.323068 1.056684 74.000000 12 342.576415
0.348994 2.443026 1.535221 20.000000 10 342.576417
0.236992 1.658987 0.862157 30.000000 8 342.576420
0.239459 1.674163 0.677423 30.000000 6 342.576422
0.242570 1.693807 0.503409 29.000000 4 342.576425
0.250916 1.749906 0.338465 16.000000 2 342.576427
0.252712 1.760248 0.165410 13.000000 0 342.576430
0.013717 0.041168 3.419143 9.000000 31 342.576441
0.110459 0.647168 4.174098 87.000000 28 342.576443
0.142373 0.828346 4.064299 8.000000 27 342.576446
0.150915 0.995060 3.262694 13.000000 25 342.576448
0.162489 1.112604 2.708504 22.000000 23 342.576451
0.253884 1.740421 3.289215 15.000000 21 342.576453
0.307999 2.111344 3.206380 14.000000 19 342.576456
0.320980 2.200312 2.737925 14.000000 17 342.576458
0.044903 0.204401 3.448631 9.000000 30 342.576466
0.086332 0.442587 4.155913 98.000000 29 342.576469
0.160433 1.009569 3.970474 8.000000 26 342.576471
0.157603 1.066158 2.985014 16.000000 24 342.576474
0.190241 1.289992 2.758764 20.000000 22 342.576476
0.222585 1.511080 2.568512 17.000000 20 342.576479
0.317515 2.155487 2.958730 17.000000 18 342.576482
0.330204 2.241604 2.534579 16.000000 16 342.576484
0.331883 2.294652 2.358207 18.000000 15 342.576442
0.195470 1.351490 1.183079 31.000000 13 342.576444
0.349090 2.410633 1.681579 21.000000 11 342.576447
0.235130 1.623680 0.944986 28.000000 9 342.576449
0.238930 1.647886 0.761070 28.000000 7 342.576452
0.241958 1.666722 0.584670 26.000000 5 342.576455
0.247704 1.706308 0.418822 23.000000 3 342.576457
0.251396 1.729613 0.249551 11.000000 1 342.576460
0.189091 1.293063 1.244668 73.000000 14 342.576467
0.193384 1.322401 1.056684 74.000000 12 342.576470
0.357520 2.441793 1.535221 20.000000 10 342.576473
0.242124 1.653659 0.860059 30.000000 8 342.576475
0.244616 1.668645 0.675780 30.000000 6 342.576478
0.247775 1.688141 0.502236 29.000000 4 342.576480
0.257023 1.749020 0.338465 16.000000 2 342.576483
0.258855 1.759355 0.165410 12.000000 0 342.576485
0.013843 0.041080 3.414144 9.000000 31 342.576496
0.112851 0.647544 4.179037 90.000000 28 342.576499
0.145969 0.831855 4.083880 8.000000 27 342.576501
0.154388 0.994527 3.262694 13.000000 25 342.576504
0.166372 1.112030 2.708504 21.000000 23 342.576506
0.260312 1.741894 3.293604 15.000000 21 342.576509
0.314535 2.104689 3.198114 14.000000 19 342.576511
0.328185 2.196008 2.734088 14.000000 17 342.576514
0.045616 0.204243 3.448631 9.000000 30 342.576522
0.087876 0.442283 4.155913 98.000000 29 342.576524
0.164158 1.010245 3.975312 7.000000 26 342.576527
0.161324 1.065601 2.985014 16.000000 24 342.576529
0.194743 1.289320 2.758764 20.000000 22 342.576532
0.227858 1.510294 2.568512 18.000000 20 342.576535
0.325038 2.154365 2.958730 17.000000 18 342.576537
0.337521 2.237085 2.530904 16.000000 16 342.576540
0.339891 2.293480 2.358207 18.000000 15 342.576497
0.200186 1.350799 1.183079 31.000000 13 342.576500
0.357503 2.409400 1.681579 21.000000 11 342.576502
0.240147 1.618467 0.942668 29.000000 9 342.576505
0.244680 1.647042 0.761070 28.000000 7 342.576508
0.247774 1.665868 0.584670 26.000000 5 342.576510
0.253659 1.705433 0.418822 23.000000 3 342.576513
0.257432 1.728725 0.249551 11.000000 1 342.576515
0.193603 1.292395 1.244668 71.000000 14 342.576523
0.197999 1.321718 1.056684 72.000000 12 342.576526
0.365401 2.436266 1.532688 20.000000 10 342.576528
0.247895 1.652803 0.860059 30.000000 8 342.576531
0.250439 1.667781 0.675780 30.000000 6 342.576533
0.253666 1.687266 0.502236 29.000000 4 342.576536
0.263126 1.748112 0.338465 16.000000 2 342.576538
0.264995 1.758441 0.165410 12.000000 0 342.576541
0.013987 0.041032 3.414144 8.000000 31 342.576552
0.115110 0.647146 4.179037 96.000000 28 342.576554
