# .PCD v.7 - Point Cloud Data file format
VERSION .7
FIELDS x y z intensity ring timestamp
SIZE 4 4 4 4 2 8
TYPE F F F F U D
COUNT 1 1 1 1 1 1
WIDTH 929
HEIGHT 1
VIEWPOINT 0 0 0 1 0 0 0
POINTS 929
DATA ascii
-1.765834 2.043567 2.259336 11.000000 13 342.363107
-1.780836 2.061655 1.870740 11.000000 11 342.363109
-1.755895 2.032785 1.492040 14.000000 9 342.363112
-1.836609 2.126977 1.223709 12.000000 7 342.363114
-1.884154 2.182809 0.936969 11.000000 5 342.363117
-1.951536 2.260872 0.658505 16.000000 3 342.363119
-3.467999 4.019129 0.568591 9.000000 1 342.363122
-1.754612 2.037034 2.474861 11.000000 14 342.363130
-1.774388 2.059998 2.063245 14.000000 12 342.363132
-1.745277 2.026916 1.656777 14.000000 10 342.363135
-1.801238 2.091912 1.363592 12.000000 8 342.363137
-1.854983 2.155091 1.078238 12.000000 6 342.363140
-1.911759 2.221836 0.797660 14.000000 4 342.363142
-2.276585 2.646771 0.578521 9.000000 2 342.363145
-3.524104 4.098592 0.311722 10.000000 0 342.363148
-0.021737 0.036902 3.354146 7.000000 31 342.363158
-0.340165 0.417357 3.423330 3.000000 28 342.363161
-0.497427 0.611881 3.814643 88.000000 27 342.363163
-0.792859 0.937063 3.968909 95.000000 25 342.363166
-1.193319 1.394699 4.383823 9.000000 23 342.363168
-2.006724 2.344572 5.720533 7.000000 21 342.363171
-1.398408 1.633838 3.231178 10.000000 19 342.363173
-1.543868 1.803794 2.918261 9.000000 17 342.363176
-0.122344 0.165487 3.388731 10.000000 30 342.363184
-0.228814 0.294542 3.430087 9.000000 29 342.363186
-0.636236 0.762800 3.859171 91.000000 26 342.363189
-1.019443 1.195690 4.327145 88.000000 24 342.363191
-1.342461 1.573459 4.338556 10.000000 22 342.363194
-1.342031 1.572407 3.451560 11.000000 20 342.363196
-1.443761 1.691607 3.018572 10.000000 18 342.363199
-1.737221 2.035450 2.979274 11.000000 16 342.363202
-1.746635 2.035664 2.715671 9.000000 15 342.363159
-1.763760 2.055627 2.265612 11.000000 13 342.363162
-1.776350 2.071032 1.873482 11.000000 11 342.363164
-1.745904 2.035539 1.489722 14.000000 9 342.363167
-1.817103 2.119298 1.216217 13.000000 7 342.363170
-1.867157 2.178445 0.932741 11.000000 5 342.363172
-1.927648 2.249022 0.653842 15.000000 3 342.363175
-3.359982 3.921539 0.555651 2.000000 1 342.363177
-1.752345 2.048822 2.481511 11.000000 14 342.363185
-1.769814 2.069251 2.066188 14.000000 12 342.363188
-1.738191 2.032995 1.656777 13.000000 10 342.363190
-1.788026 2.091287 1.359396 12.000000 8 342.363193
-1.838245 2.150784 1.073310 13.000000 6 342.363195
-1.894519 2.217409 0.794143 13.000000 4 342.363198
-3.490312 4.088071 0.310513 10.000000 0 342.363203
-0.021627 0.037017 3.359145 7.000000 31 342.363214
-0.338706 0.418542 3.423330 3.000000 28 342.363216
-0.495288 0.613613 3.814643 88.000000 27 342.363219
-0.783820 0.932964 3.940279 93.000000 25 342.363221
-1.189708 1.400345 4.388425 9.000000 23 342.363224
-2.010939 2.366167 5.755643 8.000000 21 342.363226
-1.387229 1.632277 3.218779 9.000000 19 342.363229
-1.537563 1.809172 2.918261 9.000000 17 342.363231
-0.121765 0.165913 3.388731 10.000000 30 342.363239
-0.227784 0.295339 3.430087 9.000000 29 342.363242
-0.633570 0.765016 3.859171 91.000000 26 342.363244
-1.015263 1.199242 4.327145 88.000000 24 342.363247
-1.331329 1.571489 4.320553 10.000000 22 342.363249
-1.333161 1.573103 3.443028 11.000000 20 342.363252
-1.432002 1.689739 3.006604 10.000000 18 342.363255
-1.730105 2.041502 2.979274 10.000000 16 342.363257
-1.741831 2.044463 2.719175 10.000000 15 342.363215
-1.759098 2.064734 2.268750 11.000000 13 342.363217
-1.774533 2.083587 1.878964 11.000000 11 342.363220
-1.738788 2.041621 1.489722 15.000000 9 342.363222
-1.800678 2.115038 1.210598 13.000000 7 342.363225
-1.847104 2.170336 0.927105 11.000000 5 342.363228
-1.916602 2.251996 0.652909 14.000000 3 342.363230
-3.362407 3.952209 0.557882 2.000000 1 342.363233
-1.747600 2.057773 2.484836 11.000000 14 342.363240
-1.765197 2.078497 2.069131 13.000000 12 342.363243
-1.731084 2.039051 1.656777 13.000000 10 342.363246
-1.774841 2.090596 1.355199 12.000000 8 342.363248
-1.821559 2.146385 1.068382 13.000000 6 342.363251
-1.874190 2.209183 0.789454 13.000000 4 342.363253
-2.001810 2.360449 0.523335 6.000000 2 342.363256
-3.446944 4.065932 0.308699 11.000000 0 342.363258
-0.021498 0.037093 3.359145 7.000000 31 342.363269
-0.337729 0.420328 3.428269 3.000000 28 342.363272
-0.493143 0.615338 3.814643 88.000000 27 342.363274
-0.778645 0.933400 3.930735 90.000000 25 342.363277
-1.184813 1.404489 4.388425 9.000000 23 342.363279
-1.998032 2.367679 5.742477 8.000000 21 342.363282
-1.376079 1.630657 3.206380 9.000000 19 342.363284
-1.531238 1.814528 2.918261 9.000000 17 342.363287
-0.121016 0.166102 3.383740 10.000000 30 342.363295
-0.226428 0.295708 3.425115 9.000000 29 342.363297
-0.630895 0.767223 3.859171 89.000000 26 342.363300
-1.012181 1.204099 4.331838 85.000000 24 342.363302
-1.321630 1.571127 4.307051 9.000000 22 342.363305
-1.324304 1.573756 3.434496 12.000000 20 342.363308
-1.420274 1.687809 2.994635 10.000000 18 342.363310
-1.725151 2.050123 2.982949 9.000000 16 342.363313
-1.739291 2.055976 2.726184 10.000000 15 342.363270
-1.756909 2.076806 2.275025 12.000000 13 342.363273
-1.769949 2.092961 1.881706 11.000000 11 342.363275
-1.728790 2.044295 1.487404 14.000000 9 342.363278
-1.784306 2.110689 1.204978 13.000000 7 342.363281
-1.830228 2.165778 0.922877 11.000000 5 342.363283
-1.896047 2.243664 0.649179 14.000000 3 342.363286
-2.220566 2.628611 0.401262 15.000000 1 342.363288
-1.745221 2.069571 2.491486 12.000000 14 342.363296
-1.760536 2.087736 2.072074 13.000000 12 342.363299
-1.726734 2.048377 1.659310 12.000000 10 342.363301
-1.761682 2.089839 1.351003 12.000000 8 342.363304
-1.801883 2.138286 1.061811 13.000000 6 342.363306
-1.857072 2.204559 0.785937 13.000000 4 342.363309
-1.948901 2.314390 0.513678 8.000000 2 342.363311
-3.416644 4.058829 0.307691 11.000000 0 342.363314
-0.021368 0.037168 3.359145 7.000000 31 342.363325
-0.336744 0.422112 3.433208 3.000000 28 342.363327
-0.490993 0.617056 3.814643 88.000000 27 342.363330
-0.773477 0.933812 3.921192 89.000000 25 342.363332
-1.179903 1.408616 4.388425 9.000000 23 342.363335
-1.997449 2.383821 5.764421 9.000000 21 342.363337
-1.364956 1.628980 3.193982 9.000000 19 342.363340
-1.526954 1.822319 2.922098 9.000000 17 342.363342
-0.120436 0.166524 3.383740 10.000000 30 342.363350
-0.225395 0.296496 3.425115 9.000000 29 342.363353
-0.628213 0.769420 3.859171 91.000000 26 342.363355
-1.007972 1.207625 4.331838 80.000000 24 342.363358
-1.311676 1.570946 4.293549 8.000000 22 342.363360
-1.313511 1.572594 3.421699 12.000000 20 342.363363
-1.408282 1.686063 2.982667 10.000000 18 342.363366
-1.717625 2.056432 2.982949 9.000000 16 342.363368
-1.734397 2.064766 2.729689 9.000000 15 342.363326
-1.752153 2.085907 2.278163 12.000000 13 342.363328
-1.768010 2.105531 1.887189 11.000000 11 342.363331
-1.721644 2.050317 1.487404 14.000000 9 342.363334
-1.767986 2.106253 1.199359 13.000000 7 342.363336
-1.813406 2.161129 0.918649 12.000000 5 342.363339
-1.878340 2.239308 0.646381 13.000000 3 342.363341
-2.217316 2.644365 0.402155 16.000000 1 342.363344
-1.740021 2.078817 2.494811 12.000000 14 342.363352
-1.755467 2.097274 2.075017 13.000000 12 342.363354
-1.719215 2.054692 1.659310 12.000000 10 342.363357
-1.745273 2.085840 1.344709 12.000000 8 342.363359
-1.784944 2.134008 1.056883 13.000000 6 342.363362
-1.839626 2.200164 0.782420 13.000000 4 342.363364
-1.940405 2.321518 0.513678 7.000000 2 342.363367
-0.021213 0.037206 3.354146 7.000000 31 342.363380
-0.335677 0.423953 3.438148 3.000000 28 342.363383
-0.488728 0.618852 3.814643 88.000000 27 342.363385
-0.770049 0.936640 3.921192 88.000000 25 342.363388
-1.173483 1.411429 4.383823 9.000000 23 342.363390
-1.987166 2.389284 5.760032 9.000000 21 342.363393
-1.353578 1.627481 3.181583 9.000000 19 342.363395
-1.520265 1.827903 2.922098 10.000000 17 342.363398
-0.119686 0.166707 3.378748 10.000000 30 342.363406
-0.223717 0.296427 3.415172 9.000000 29 342.363408
-0.626316 0.772586 3.864011 91.000000 26 342.363411
-1.004852 1.212465 4.336531 64.000000 24 342.363413
-1.302014 1.570485 4.280046 8.000000 22 342.363416
-1.304684 1.573155 3.413167 11.000000 20 342.363419
-1.396616 1.684009 2.970698 10.000000 18 342.363421
-1.712961 2.064725 2.986624 9.000000 16 342.363424
-1.729101 2.073848 2.733193 9.000000 15 342.363381
-1.746989 2.095305 2.281301 12.000000 13 342.363384
-1.762958 2.115209 1.889930 11.000000 11 342.363386
-1.716954 2.060017 1.489722 13.000000 9 342.363389
-1.751718 2.101727 1.193740 13.000000 7 342.363392
-1.796638 2.156389 0.914422 12.000000 5 342.363394
-1.857937 2.230753 0.642651 14.000000 3 342.363397
-2.144343 2.575544 0.393231 6.000000 1 342.363399
-1.735141 2.087750 2.498135 12.000000 14 342.363407
-1.750719 2.106498 2.077960 13.000000 12 342.363410
-1.715148 2.063698 1.661842 12.000000 10 342.363412
-1.735446 2.088125 1.342611 15.000000 8 342.363415
-1.768804 2.129019 1.051955 13.000000 6 342.363417
-1.823003 2.195035 0.778903 13.000000 4 342.363420
-1.923206 2.316509 0.511609 6.000000 2 342.363422
-0.021072 0.037236 3.349146 7.000000 31 342.363436
-0.334749 0.425675 3.443087 3.000000 28 342.363438
-0.486673 0.620469 3.814643 89.000000 27 342.363441
-0.765994 0.938032 3.916420 86.000000 25 342.363443
-1.168797 1.415313 4.383823 9.000000 23 342.363446
-1.973129 2.388472 5.742477 8.000000 21 342.363448
-1.342798 1.625452 3.169184 9.000000 19 342.363451
-1.516236 1.835406 2.925935 9.000000 17 342.363454
-0.119103 0.167124 3.378748 10.000000 30 342.363461
-0.222681 0.297207 3.415172 9.000000 29 342.363464
-0.623615 0.774767 3.864011 91.000000 26 342.363466
-1.000613 1.215965 4.336531 31.000000 24 342.363469
-1.292646 1.569751 4.266543 8.000000 22 342.363472
-1.296144 1.573446 3.404635 11.000000 20 342.363474
-1.385275 1.681652 2.958730 10.000000 18 342.363477
-1.705743 2.070692 2.986624 9.000000 16 342.363479
-1.724490 2.082317 2.736698 10.000000 15 342.363437
-1.744997 2.107083 2.287576 11.000000 13 342.363439
-1.758601 2.124264 1.892672 11.000000 11 342.363442
-1.710113 2.065699 1.489722 13.000000 9 342.363445
-1.735504 2.097115 1.188121 13.000000 7 342.363447
-1.779927 2.151558 0.910194 12.000000 5 342.363450
-1.838004 2.221762 0.638920 13.000000 3 342.363452
-2.138964 2.586479 0.393677 6.000000 1 342.363455
-1.730585 2.096372 2.501460 12.000000 14 342.363463
-1.748870 2.118526 2.083847 13.000000 12 342.363465
-1.710678 2.072997 1.664374 13.000000 10 342.363468
-1.719481 2.083669 1.336317 15.000000 8 342.363470
-1.752346 2.124251 1.047027 13.000000 6 342.363473
-1.806053 2.190135 0.775386 14.000000 4 342.363475
-1.911958 2.319387 0.510919 6.000000 2 342.363478
-2.185706 2.652413 0.232319 16.000000 0 342.363480
-0.020924 0.037270 3.344146 7.000000 31 342.363491
-0.332783 0.426228 3.438148 3.000000 28 342.363494
-0.484504 0.622164 3.814643 84.000000 27 342.363496
-0.762716 0.940700 3.916420 88.000000 25 342.363499
-1.163849 1.419384 4.383823 9.000000 23 342.363501
-1.331762 1.623602 3.156785 9.000000 19 342.363506
-1.509820 1.840688 2.925935 9.000000 17 342.363509
-0.118519 0.167538 3.378748 10.000000 30 342.363517
-0.221324 0.297553 3.410201 9.000000 29 342.363519
-0.620907 0.776939 3.864011 89.000000 26 342.363522
-0.997455 1.220787 4.341224 12.000000 24 342.363524
-1.284402 1.570882 4.257542 8.000000 22 342.363527
-1.287341 1.573924 3.396103 11.000000 20 342.363530
-1.371763 1.677145 2.942772 9.000000 18 342.363532
-1.700651 2.079258 2.990299 9.000000 16 342.363535
-1.721741 2.093833 2.743707 10.000000 15 342.363492
-1.740103 2.116168 2.290714 11.000000 13 342.363495
-1.753830 2.133621 1.895413 11.000000 11 342.363498
-1.705705 2.075078 1.492040 13.000000 9 342.363500
-1.719344 2.092415 1.182502 14.000000 7 342.363503
-1.763270 2.146636 0.905967 12.000000 5 342.363505
-1.820884 2.216777 0.636122 13.000000 3 342.363508
-1.880258 2.289874 0.358426 13.000000 1 342.363510
-1.725624 2.105289 2.504785 12.000000 14 342.363518
-1.744027 2.127744 2.086790 13.000000 12 342.363521
-1.706163 2.082291 1.666907 13.000000 10 342.363523
-1.715073 2.093169 1.338415 15.000000 8 342.363526
-1.735944 2.119395 1.042099 13.000000 6 342.363528
-1.786080 2.181382 0.770697 14.000000 4 342.363531
-1.897577 2.318382 0.509539 5.000000 2 342.363533
-2.179598 2.663892 0.232520 15.000000 0 342.363536
-0.020776 0.037303 3.339146 7.000000 31 342.363547
-0.330818 0.426773 3.433208 3.000000 28 342.363549
-0.482329 0.623851 3.814643 85.000000 27 342.363552
-0.759427 0.943357 3.916420 86.000000 25 342.363554
-1.158887 1.423438 4.383823 9.000000 23 342.363557
-1.381507 1.696287 4.074786 4.000000 21 342.363559
-1.320755 1.621695 3.144386 9.000000 19 342.363562
-1.503386 1.845947 2.925935 9.000000 17 342.363565
-0.117934 0.167951 3.378748 10.000000 30 342.363572
-0.220600 0.298754 3.415172 9.000000 29 342.363575
-0.618191 0.779102 3.864011 89.000000 26 342.363577
-0.993187 1.224261 4.341224 10.000000 24 342.363580
-1.273147 1.568815 4.239538 9.000000 22 342.363583
-1.276632 1.572557 3.383305 10.000000 20 342.363585
-1.359908 1.675142 2.930803 9.000000 18 342.363588
-1.690882 2.082845 2.986624 9.000000 16 342.363590
-1.716677 2.102593 2.747211 10.000000 15 342.363548
-1.735168 2.125245 2.293852 12.000000 13 342.363550
-1.749016 2.142969 1.898155 12.000000 11 342.363553
-1.701253 2.084452 1.494358 14.000000 9 342.363556
-1.703237 2.087627 1.176883 14.000000 7 342.363558
-1.746670 2.141625 0.901739 12.000000 5 342.363561
-1.803435 2.212014 0.633324 14.000000 3 342.363563
-1.852975 2.273588 0.355749 11.000000 1 342.363566
-1.720253 2.114496 2.508110 12.000000 14 342.363574
-1.741318 2.140393 2.092676 13.000000 12 342.363576
-1.701240 2.091875 1.669439 13.000000 10 342.363579
-1.707390 2.099441 1.338415 17.000000 8 342.363581
-1.719227 2.114750 1.037171 13.000000 6 342.363584
-1.768876 2.176598 0.767180 14.000000 4 342.363586
-1.882822 2.317634 0.508159 5.000000 2 342.363589
-2.167135 2.667607 0.232319 14.000000 0 342.363592
-0.020639 0.037379 3.339146 7.000000 31 342.363602
-0.328778 0.427366 3.428269 4.000000 28 342.363605
-0.480039 0.625615 3.814643 88.000000 27 342.363607
-0.755965 0.946134 3.916420 85.000000 25 342.363610
-1.154890 1.429196 4.388425 9.000000 23 342.363612
-1.375281 1.701339 4.074786 12.000000 21 342.363615
-1.309495 1.619960 3.131987 10.000000 19 342.363618
-1.496610 1.851444 2.925935 9.000000 17 342.363620
-0.117317 0.168382 3.378748 10.000000 30 342.363628
-0.219819 0.299992 3.420144 9.000000 29 342.363630
-0.615331 0.781363 3.864011 92.000000 26 342.363633
-0.987611 1.226549 4.336531 10.000000 24 342.363636
-1.263564 1.568162 4.226036 9.000000 22 342.363638
-1.266225 1.570912 3.370507 10.000000 20 342.363641
-1.348379 1.672839 2.918835 10.000000 18 342.363643
-1.687857 2.094014 2.993975 8.000000 16 342.363646
-1.713449 2.114412 2.754220 10.000000 15 342.363603
-1.729818 2.134615 2.296990 12.000000 13 342.363606
-1.746414 2.155863 1.903638 12.000000 11 342.363609
-1.696390 2.094116 1.496676 14.000000 9 342.363611
-1.686822 2.083048 1.171264 15.000000 7 342.363614
-1.729754 2.136827 0.897511 12.000000 5 342.363616
-1.783340 2.203023 0.629594 14.000000 3 342.363619
-1.838762 2.272299 0.354857 11.000000 1 342.363621
-1.717555 2.126298 2.514760 11.000000 14 342.363629
-1.736376 2.149602 2.095619 13.000000 12 342.363632
-1.696636 2.101155 1.671972 13.000000 10 342.363634
-1.702902 2.108919 1.340513 16.000000 8 342.363637
-1.705902 2.113389 1.033886 13.000000 6 342.363639
-1.752111 2.171411 0.763663 14.000000 4 342.363642
-1.868502 2.316483 0.506780 4.000000 2 342.363644
-0.020509 0.037450 3.339146 7.000000 31 342.363658
-0.325400 0.426040 3.408512 4.000000 28 342.363660
-0.477853 0.627287 3.814643 88.000000 27 342.363663
-0.752657 0.948767 3.916420 85.000000 25 342.363665
-1.149894 1.433218 4.388425 9.000000 23 342.363668
-1.363335 1.698656 4.057231 14.000000 21 342.363670
-1.298548 1.617937 3.119588 10.000000 19 342.363673
-1.490138 1.856657 2.925935 9.000000 17 342.363676
-0.116729 0.168791 3.378748 10.000000 30 342.363683
-0.218770 0.300757 3.420144 9.000000 29 342.363686
-0.612600 0.783506 3.864011 92.000000 26 342.363688
-0.983324 1.229989 4.336531 10.000000 24 342.363691
-1.252640 1.565761 4.208032 8.000000 22 342.363694
-1.255845 1.569214 3.357709 10.000000 20 342.363696
-1.336881 1.670476 2.906866 10.000000 18 342.363699
-1.672064 2.089305 2.979274 6.000000 16 342.363701
-1.708294 2.123158 2.757725 10.000000 15 342.363659
-1.727237 2.146706 2.303265 12.000000 13 342.363662
-1.741498 2.165205 1.906379 12.000000 11 342.363664
-1.691846 2.103477 1.498994 14.000000 9 342.363667
-1.670826 2.078084 1.165645 15.000000 7 342.363669
-1.713269 2.131634 0.893284 12.000000 5 342.363672
-1.766407 2.197748 0.626796 14.000000 3 342.363674
-1.827700 2.274822 0.354410 11.000000 1 342.363677
-1.712459 2.135193 2.518085 11.000000 14 342.363685
-1.733920 2.161956 2.101505 13.000000 12 342.363687
-1.694685 2.113792 1.677037 13.000000 10 342.363690
-1.695530 2.114850 1.340513 14.000000 8 342.363692
-1.689655 2.108276 1.028958 13.000000 6 342.363695
-1.735403 2.166134 0.760146 15.000000 4 342.363697
-1.851118 2.311395 0.504710 4.000000 2 342.363700
-1.854494 2.316439 0.213375 11.000000 0 342.363703
-0.020378 0.037522 3.339146 7.000000 31 342.363713
-0.329070 0.433987 3.462844 4.000000 28 342.363716
-0.475660 0.628951 3.814643 88.000000 27 342.363718
-0.750265 0.952562 3.921192 86.000000 25 342.363721
-1.146102 1.438752 4.393028 8.000000 23 342.363723
-1.349933 1.694036 4.035287 13.000000 21 342.363726
-1.287632 1.615858 3.107190 10.000000 19 342.363729
-1.483648 1.861848 2.925935 9.000000 17 342.363731
-0.116139 0.169197 3.378748 10.000000 30 342.363739
-0.218031 0.301953 3.425115 9.000000 29 342.363741
-0.609861 0.785639 3.864011 91.000000 26 342.363744
-0.979024 1.233414 4.336531 10.000000 24 342.363747
-1.240395 1.561598 4.185528 7.000000 22 342.363749
-1.243870 1.565420 3.340646 10.000000 20 342.363752
-1.325417 1.668053 2.894898 11.000000 18 342.363754
-1.705324 2.134681 2.764734 10.000000 15 342.363714
-1.722162 2.155764 2.306403 11.000000 13 342.363717
-1.739148 2.177805 1.911862 12.000000 11 342.363720
-1.687258 2.112831 1.501312 14.000000 9 342.363722
-1.675131 2.098396 1.173137 16.000000 7 342.363725
-1.696840 2.126352 0.889056 12.000000 5 342.363727
-1.749532 2.192382 0.623998 14.000000 3 342.363730
-1.807326 2.265616 0.352625 11.000000 1 342.363732
-1.709647 2.147001 2.524734 12.000000 14 342.363740
-1.728880 2.171158 2.104449 13.000000 12 342.363743
-1.689981 2.123067 1.679569 13.000000 10 342.363745
-1.690964 2.124307 1.342611 14.000000 8 342.363748
-1.676405 2.106771 1.025672 13.000000 6 342.363750
-1.718754 2.160766 0.756629 14.000000 4 342.363753
-1.836874 2.310091 0.503331 3.000000 2 342.363756
-1.846397 2.322899 0.213375 10.000000 0 342.363758
-0.020264 0.037633 3.344146 7.000000 31 342.363769
-0.325685 0.432649 3.443087 4.000000 28 342.363771
-0.473462 0.630608 3.814643 88.000000 27 342.363774
-0.746935 0.955175 3.921192 86.000000 25 342.363776
-1.141073 1.442744 4.393028 8.000000 23 342.363779
-1.332119 1.683707 4.000178 11.000000 21 342.363782
-1.276746 1.613722 3.094791 10.000000 19 342.363784
-1.477140 1.867015 2.925935 9.000000 17 342.363787
-0.115386 0.169361 3.373756 10.000000 30 342.363794
-0.216975 0.302712 3.425115 10.000000 29 342.363797
-0.607115 0.787763 3.864011 91.000000 26 342.363800
-0.974713 1.236824 4.336531 10.000000 24 342.363802
-1.234936 1.565918 4.185528 7.000000 22 342.363805
-1.231937 1.561562 3.323582 10.000000 20 342.363807
-1.315853 1.667937 2.886919 11.000000 18 342.363810
-1.702294 2.146209 2.771743 10.000000 15 342.363770
-1.719465 2.167862 2.312679 11.000000 13 342.363773
-1.734133 2.187139 1.914603 11.000000 11 342.363775
-1.685377 2.125651 1.505948 14.000000 9 342.363778
-1.667796 2.104231 1.173137 15.000000 7 342.363780
-1.680470 2.120982 0.884829 12.000000 5 342.363783
-1.732718 2.186925 0.621200 14.000000 3 342.363785
-1.793222 2.264102 0.351733 11.000000 1 342.363788
-1.704458 2.155885 2.528059 11.000000 14 342.363796
-1.728811 2.186692 2.113278 13.000000 12 342.363798
-1.687906 2.135718 1.684634 14.000000 10 342.363801
-1.686353 2.133757 1.344709 14.000000 8 342.363803
-1.663185 2.105198 1.022387 14.000000 6 342.363806
-1.702164 2.155309 0.753112 14.000000 4 342.363808
-1.819594 2.304828 0.501261 3.000000 2 342.363811
-1.819707 2.305799 0.212166 10.000000 0 342.363814
-0.020149 0.037744 3.349146 7.000000 31 342.363825
-0.329285 0.440633 3.497419 4.000000 28 342.363828
-0.471258 0.632256 3.814643 88.000000 27 342.363830
-0.743597 0.957776 3.921192 86.000000 25 342.363833
-1.134823 1.445181 4.388425 10.000000 23 342.363835
-1.283316 1.633711 3.872907 8.000000 21 342.363838
-1.265890 1.611530 3.082392 10.000000 19 342.363840
-1.470614 1.872160 2.925935 9.000000 17 342.363843
-0.114794 0.169763 3.373756 10.000000 30 342.363851
-0.215917 0.303467 3.425115 10.000000 29 342.363853
-0.604362 0.789878 3.864011 91.000000 26 342.363856
-0.970390 1.240219 4.336531 10.000000 24 342.363858
-1.232148 1.573649 4.194530 9.000000 22 342.363861
-1.221654 1.559694 3.310784 9.000000 20 342.363863
-1.308164 1.670147 2.882929 13.000000 18 342.363866
-2.302314 2.939405 4.125926 6.000000 16 342.363869
-1.699205 2.157742 2.778752 10.000000 15 342.363826
-1.716704 2.179967 2.318954 11.000000 13 342.363829
-1.731661 2.199750 1.920086 11.000000 11 342.363831
-1.680688 2.135002 1.508266 14.000000 9 342.363834
-1.666174 2.117326 1.176883 15.000000 7 342.363837
-1.664158 2.115523 0.880601 13.000000 5 342.363839
-1.715962 2.181377 0.618403 14.000000 3 342.363842
-1.776073 2.258604 0.350394 11.000000 1 342.363844
-1.699229 2.164759 2.531384 11.000000 14 342.363852
-1.721168 2.192713 2.113278 13.000000 12 342.363855
-1.685764 2.148381 1.689699 14.000000 10 342.363857
-1.681696 2.143201 1.346807 14.000000 8 342.363860
-1.652912 2.107275 1.020744 16.000000 6 342.363862
-1.685632 2.149762 0.749595 14.000000 4 342.363865
-1.808482 2.307267 0.500571 3.000000 2 342.363867
-1.808566 2.308204 0.211964 10.000000 0 342.363870
-0.020034 0.037854 3.354146 7.000000 31 342.363881
-0.330519 0.445526 3.527054 5.000000 28 342.363883
-0.469048 0.633898 3.814643 88.000000 27 342.363886
-0.740249 0.960366 3.921192 88.000000 25 342.363888
-1.129771 1.449134 4.388425 10.000000 23 342.363891
-1.267292 1.624956 3.842186 7.000000 21 342.363893
-1.256796 1.611501 3.074126 10.000000 19 342.363896
-1.464070 1.877282 2.925935 10.000000 17 342.363898
-0.114201 0.170163 3.373756 10.000000 30 342.363906
-0.214857 0.304219 3.425115 9.000000 29 342.363909
-0.601601 0.791982 3.864011 91.000000 26 342.363911
-0.966054 1.243598 4.336531 11.000000 24 342.363914
-1.227984 1.579659 4.199031 9.000000 22 342.363916
-1.209798 1.555713 3.293721 10.000000 20 342.363919
-1.300476 1.672324 2.878940 14.000000 18 342.363922
-2.281634 2.934043 4.107550 7.000000 16 342.363924
-1.693859 2.166469 2.782257 10.000000 15 342.363882
-1.709084 2.185946 2.318954 11.000000 13 342.363884
-1.726547 2.209076 1.922828 7.000000 11 342.363887
-1.678681 2.147837 1.512902 14.000000 9 342.363889
-1.661628 2.126782 1.178756 15.000000 7 342.363892
-1.650858 2.113758 0.877783 11.000000 5 342.363895
-1.699266 2.175740 0.615605 14.000000 3 342.363897
-1.755920 2.249089 0.348610 11.000000 1 342.363900
-1.696253 2.176568 2.538033 11.000000 14 342.363907
-1.711019 2.195519 2.110335 10.000000 12 342.363910
-1.686203 2.164455 1.697296 15.000000 10 342.363913
-1.679783 2.156219 1.351003 14.000000 8 342.363915
-1.645546 2.113032 1.020744 16.000000 6 342.363918
-1.669161 2.144127 0.746078 14.000000 4 342.363920
-1.791293 2.301841 0.498502 3.000000 2 342.363923
-1.785160 2.294787 0.210956 10.000000 0 342.363925
-0.019902 0.037924 3.354146 7.000000 31 342.363936
-0.333105 0.452311 3.571508 7.000000 28 342.363939
-0.466832 0.635531 3.814643 88.000000 27 342.363941
-0.736892 0.962944 3.921192 88.000000 25 342.363944
-1.123510 1.451523 4.383823 9.000000 23 342.363946
-1.245995 1.609203 3.061727 10.000000 19 342.363951
-1.457508 1.882381 2.925935 10.000000 17 342.363954
-0.113606 0.170560 3.373756 10.000000 30 342.363962
-0.213793 0.304967 3.425115 9.000000 29 342.363964
-0.598833 0.794078 3.864011 92.000000 26 342.363967
-0.961708 1.246963 4.336531 10.000000 24 342.363969
-1.225123 1.587384 4.208032 9.000000 22 342.363972
-1.199579 1.553734 3.280923 10.000000 20 342.363975
-1.294631 1.676854 2.878940 15.000000 18 342.363977
-2.267235 2.936623 4.100200 8.000000 16 342.363980
-1.690660 2.178003 2.789266 10.000000 15 342.363937
-1.701444 2.191899 2.318954 11.000000 13 342.363940
-1.673889 2.157183 1.515220 14.000000 9 342.363945
-1.657035 2.136232 1.180629 15.000000 7 342.363948
-1.637590 2.111925 0.874964 11.000000 5 342.363950
-1.682631 2.170012 0.612807 14.000000 3 342.363953
-1.738906 2.243396 0.347271 12.000000 1 342.363955
-1.688645 2.182476 2.538033 11.000000 14 342.363963
-1.715712 2.217463 2.125051 3.000000 12 342.363966
-1.686550 2.180559 1.704893 16.000000 10 342.363968
-1.675023 2.165659 1.353101 14.000000 8 342.363971
-1.638160 2.118763 1.020744 15.000000 6 342.363973
-1.655721 2.142249 0.743734 14.000000 4 342.363976
-1.783247 2.308080 0.498502 3.000000 2 342.363978
-1.767978 2.289142 0.210352 10.000000 0 342.363981
-0.019770 0.037993 3.354146 7.000000 31 342.363992
-0.339313 0.464140 3.655475 9.000000 28 342.363994
-0.464611 0.637157 3.814643 88.000000 27 342.363997
-0.733526 0.965511 3.921192 88.000000 25 342.363999
-1.118437 1.455436 4.383823 9.000000 23 342.364002
-1.137649 1.479912 3.486705 11.000000 21 342.364004
-1.235225 1.606850 3.049328 10.000000 19 342.364007
-1.450929 1.887457 2.925935 10.000000 17 342.364009
-0.113010 0.170956 3.373756 10.000000 30 342.364017
-0.212728 0.305712 3.425115 9.000000 29 342.364020
-0.596057 0.796163 3.864011 92.000000 26 342.364022
-0.957349 1.250312 4.336531 10.000000 24 342.364025
-1.220621 1.593593 4.212533 10.000000 22 342.364027
-1.187531 1.549839 3.263859 9.000000 20 342.364030
-1.288476 1.681587 2.878940 15.000000 18 342.364033
-2.237899 2.920694 4.067123 9.000000 16 342.364035
-1.685224 2.186716 2.792771 10.000000 15 342.363993
-1.717545 2.228659 2.350332 10.000000 13 342.363995
-2.509815 3.257876 2.780907 8.000000 11 342.363998
-1.669053 2.166523 1.517538 14.000000 9 342.364001
-1.652397 2.145676 1.182502 15.000000 7 342.364003
-1.624355 2.110026 0.872146 12.000000 5 342.364006
-1.668674 2.168379 0.610942 13.000000 3 342.364008
-1.721562 2.237912 0.345932 12.000000 1 342.364011
-1.687457 2.197536 2.548008 11.000000 14 342.364019
-1.689047 2.200405 1.715023 14.000000 10 342.364024
-1.672601 2.178984 1.357298 14.000000 8 342.364026
-1.633259 2.128500 1.022387 15.000000 6 342.364029
-1.638983 2.136733 0.740217 14.000000 4 342.364031
-1.759709 2.294952 0.495053 2.000000 2 342.364034
-1.747816 2.279442 0.209546 10.000000 0 342.364036
-0.019614 0.038025 3.349146 7.000000 31 342.364047
-0.343079 0.472931 3.714746 12.000000 28 342.364050
-0.462273 0.638855 3.814643 88.000000 27 342.364052
-0.729982 0.968193 3.921192 88.000000 25 342.364055
-1.113095 1.459526 4.383823 9.000000 23 342.364057
-1.133670 1.485976 3.491094 11.000000 21 342.364060
-1.224207 1.604654 3.036930 11.000000 19 342.364062
-1.444001 1.892762 2.925935 9.000000 17 342.364065
-0.112383 0.171369 3.373756 10.000000 30 342.364073
-0.211606 0.306489 3.425115 9.000000 29 342.364075
-0.593135 0.798342 3.864011 92.000000 26 342.364078
-0.952760 1.253813 4.336531 9.000000 24 342.364080
-1.219006 1.603044 4.226036 10.000000 22 342.364083
-1.177377 1.547748 3.251061 9.000000 20 342.364086
-1.282598 1.686075 2.878940 15.000000 18 342.364088
-2.223585 2.923091 4.059772 9.000000 16 342.364091
-1.677198 2.192878 2.792771 10.000000 15 342.364048
-2.490237 3.257087 2.772682 8.000000 11 342.364053
-1.663792 2.176145 1.519856 14.000000 9 342.364056
-1.647336 2.155402 1.184375 15.000000 7 342.364059
-1.613698 2.112153 0.870737 13.000000 5 342.364061
-1.652148 2.162480 0.608144 13.000000 3 342.364064
-1.701649 2.228077 0.344148 11.000000 1 342.364066
-1.709208 2.242020 2.591231 11.000000 14 342.364074
-2.300180 3.017224 2.846125 9.000000 12 342.364077
-1.670487 2.192029 1.361494 14.000000 8 342.364082
-1.628681 2.137944 1.024030 15.000000 6 342.364084
-1.625625 2.134707 0.737872 15.000000 4 342.364087
-1.766685 2.320782 0.498502 2.000000 2 342.364089
-1.730374 2.273905 0.208941 10.000000 0 342.364092
-0.019481 0.038093 3.349146 7.000000 31 342.364103
-0.349591 0.485481 3.803653 15.000000 28 342.364105
-0.460040 0.640465 3.814643 87.000000 27 342.364108
-0.726598 0.970735 3.921192 86.000000 25 342.364110
-1.107993 1.463403 4.383823 9.000000 23 342.364113
-1.124137 1.484195 3.477928 12.000000 21 342.364115
-1.213501 1.602188 3.024531 11.000000 19 342.364118
-1.437385 1.897792 2.925935 9.000000 17 342.364121
-0.111784 0.171760 3.373756 10.000000 30 342.364128
-0.210234 0.306785 3.420144 9.000000 29 342.364131
-0.590345 0.800408 3.864011 92.000000 26 342.364133
-0.948378 1.257131 4.336531 9.000000 24 342.364136
-1.246205 1.650741 4.338556 14.000000 22 342.364139
-1.167252 1.545605 3.238263 9.000000 20 342.364141
-1.276705 1.690542 2.878940 15.000000 18 342.364144
-2.203153 2.917308 4.041397 9.000000 16 342.364146
-1.697570 2.235643 2.838330 10.000000 15 342.364104
-2.054677 2.705948 2.820998 8.000000 13 342.364106
-2.458628 3.239114 2.750751 7.000000 11 342.364109
-1.658864 2.185468 1.522174 14.000000 9 342.364112
-1.642605 2.164832 1.186248 15.000000 7 342.364114
-1.606316 2.117773 0.870737 16.000000 5 342.364117
-1.635684 2.156492 0.605346 14.000000 3 342.364119
-1.684834 2.222098 0.342809 10.000000 1 342.364122
-1.787010 2.361124 2.717575 10.000000 14 342.364130
-2.289634 3.025235 2.846125 10.000000 12 342.364132
-2.495616 3.298590 2.515270 8.000000 10 342.364135
-1.668301 2.205086 1.365690 14.000000 8 342.364137
-1.626905 2.151150 1.027315 16.000000 6 342.364140
-1.612301 2.132614 0.735528 14.000000 4 342.364142
-1.746630 2.311131 0.495743 2.000000 2 342.364145
-1.713391 2.267972 0.208337 10.000000 0 342.364147
-0.019332 0.038120 3.344146 7.000000 31 342.364158
-0.351055 0.491125 3.838228 6.000000 28 342.364161
-0.457801 0.642067 3.814643 88.000000 27 342.364163
-0.723205 0.973265 3.921192 86.000000 25 342.364166
-1.102878 1.467261 4.383823 8.000000 23 342.364168
-1.118949 1.488110 3.477928 12.000000 21 342.364171
-1.202827 1.599667 3.012132 10.000000 19 342.364173
-1.432679 1.905360 2.929772 10.000000 17 342.364176
-0.111184 0.172149 3.373756 10.000000 30 342.364184
-0.209161 0.307517 3.420144 9.000000 29 342.364186
-0.587547 0.802464 3.864011 91.000000 26 342.364189
-0.943984 1.260434 4.336531 9.000000 24 342.364191
-1.277004 1.703875 4.464580 23.000000 22 342.364194
-1.157157 1.543409 3.225466 9.000000 20 342.364197
-1.270796 1.694988 2.878940 15.000000 18 342.364199
-2.182788 2.911419 4.023021 10.000000 16 342.364202
-1.749864 2.321292 2.936457 11.000000 15 342.364159
-2.075682 2.753515 2.861790 9.000000 13 342.364162
-2.439757 3.237659 2.742526 7.000000 11 342.364165
-1.653891 2.194784 1.524493 15.000000 9 342.364167
-1.637827 2.174255 1.188121 15.000000 7 342.364170
-1.601799 2.127200 0.872146 15.000000 5 342.364172
-1.622237 2.154341 0.603481 14.000000 3 342.364175
-1.668083 2.216029 0.341470 10.000000 1 342.364177
-1.868486 2.486768 2.850569 10.000000 14 342.364185
-2.281488 3.036440 2.849068 10.000000 12 342.364188
-2.473730 3.293493 2.505140 8.000000 10 342.364190
-1.663320 2.214525 1.367788 14.000000 8 342.364193
-1.622222 2.160592 1.028958 16.000000 6 342.364195
-1.599012 2.130454 0.733183 14.000000 4 342.364198
-1.696471 2.261949 0.207732 10.000000 0 342.364203
-0.019199 0.038187 3.344146 7.000000 31 342.364214
-0.349787 0.492981 3.843167 6.000000 28 342.364216
-0.455557 0.643661 3.814643 88.000000 27 342.364219
-0.719804 0.975784 3.921192 85.000000 25 342.364221
-1.098918 1.472668 4.388425 9.000000 23 342.364224
-1.109449 1.486247 3.464762 11.000000 21 342.364226
-1.192186 1.597091 2.999733 10.000000 19 342.364229
-1.426019 1.910349 2.929772 10.000000 17 342.364232
-0.110427 0.172292 3.368765 9.000000 30 342.364239
-0.208087 0.308245 3.420144 9.000000 29 342.364242
-0.584743 0.804510 3.864011 91.000000 26 342.364244
-0.939578 1.263721 4.336531 9.000000 24 342.364247
-1.265849 1.701334 4.446577 18.000000 22 342.364250
-1.148648 1.543255 3.216934 9.000000 20 342.364252
-1.264872 1.699414 2.878940 15.000000 18 342.364255
-2.164515 2.908142 4.008320 10.000000 16 342.364257
-1.807990 2.415898 3.045098 10.000000 15 342.364215
-2.070723 2.766977 2.868065 9.000000 13 342.364217
-2.408403 3.219370 2.720595 8.000000 11 342.364220
-1.654181 2.211186 1.531446 16.000000 9 342.364223
-1.633004 2.183672 1.189994 15.000000 7 342.364225
-1.597237 2.136620 0.873555 14.000000 5 342.364228
-1.608824 2.152122 0.601615 15.000000 3 342.364230
-1.654375 2.213860 0.340578 11.000000 1 342.364233
-1.879889 2.520215 2.880493 11.000000 14 342.364241
-2.270875 3.044386 2.849068 10.000000 12 342.364243
-2.457064 3.295195 2.500075 8.000000 10 342.364246
-1.661005 2.227594 1.371984 14.000000 8 342.364248
-1.620314 2.173814 1.032243 16.000000 6 342.364251
-1.585757 2.128227 0.730838 17.000000 4 342.364253
-0.227705 0.305708 0.145316 4.000000 2 342.364256
-1.679615 2.255836 0.207127 10.000000 0 342.364259
-0.019081 0.038295 3.349146 7.000000 31 342.364269
-0.349406 0.496106 3.857985 9.000000 28 342.364272
-0.453308 0.645247 3.814643 88.000000 27 342.364274
-0.716393 0.978290 3.921192 85.000000 25 342.364277
-1.093771 1.476495 4.388425 9.000000 23 342.364279
-1.101401 1.486261 3.455984 11.000000 21 342.364282
-1.183253 1.596721 2.991467 10.000000 19 342.364285
-1.421250 1.917891 2.933609 10.000000 17 342.364287
-0.109825 0.172676 3.368765 10.000000 30 342.364295
-0.207009 0.308970 3.420144 9.000000 29 342.364297
-0.581931 0.806546 3.864011 91.000000 26 342.364300
-0.936186 1.268382 4.341224 9.000000 24 342.364303
-1.258609 1.703990 4.442076 16.000000 22 342.364305
-1.138604 1.540963 3.204136 9.000000 20 342.364308
-1.258932 1.703818 2.878940 15.000000 18 342.364310
-2.144278 2.902047 3.989944 10.000000 16 342.364313
-1.799546 2.422195 3.045098 11.000000 15 342.364270
-2.063373 2.777313 2.871203 9.000000 13 342.364273
-2.382192 3.207615 2.704146 9.000000 11 342.364276
-1.630899 2.196804 1.193740 15.000000 7 342.364281
-1.592628 2.146035 0.874964 14.000000 5 342.364283
-1.592520 2.145890 0.598817 16.000000 3 342.364286
-1.637736 2.207623 0.339239 11.000000 1 342.364288
-1.875525 2.532764 2.887142 11.000000 14 342.364296
-2.265045 3.058791 2.854955 10.000000 12 342.364299
-2.425027 3.276031 2.479816 9.000000 10 342.364301
-1.655920 2.237026 1.374082 14.000000 8 342.364304
-1.615525 2.183253 1.033886 15.000000 6 342.364306
-1.581209 2.137657 0.732011 23.000000 4 342.364309
-0.223692 0.302519 0.144627 6.000000 2 342.364311
-1.662821 2.249632 0.206523 10.000000 0 342.364314
-0.018963 0.038402 3.354146 7.000000 31 342.364325
-0.349006 0.499234 3.872802 12.000000 28 342.364327
-0.451053 0.646826 3.814643 88.000000 27 342.364330
-0.712974 0.980785 3.921192 85.000000 25 342.364332
-1.089768 1.481878 4.393028 9.000000 23 342.364335
-1.093367 1.486237 3.447207 11.000000 21 342.364337
-1.172670 1.594041 2.979068 10.000000 19 342.364340
-1.414547 1.922840 2.933609 10.000000 17 342.364343
-0.109222 0.173058 3.368765 9.000000 30 342.364350
-0.205930 0.309691 3.420144 9.000000 29 342.364353
-0.579112 0.808572 3.864011 92.000000 26 342.364355
-0.931753 1.271642 4.341224 9.000000 24 342.364358
-1.252653 1.708373 4.442076 14.000000 22 342.364361
-1.130133 1.540722 3.195604 10.000000 20 342.364363
-1.252977 1.708202 2.878940 15.000000 18 342.364366
-2.124109 2.895846 3.971569 10.000000 16 342.364368
-1.780496 2.414111 3.027575 11.000000 15 342.364326
-2.053666 2.784499 2.871203 9.000000 13 342.364329
-2.353611 3.192352 2.684955 10.000000 11 342.364331
-1.625971 2.206215 1.195613 14.000000 7 342.364336
-1.587972 2.155444 0.876374 15.000000 5 342.364339
-1.582106 2.147481 0.597885 16.000000 3 342.364341
-1.621160 2.201296 0.337901 11.000000 1 342.364344
-1.866673 2.539296 2.887142 11.000000 14 342.364352
-2.259142 3.073192 2.860841 9.000000 12 342.364354
-2.408471 3.277528 2.474751 10.000000 10 342.364357
-1.650789 2.246450 1.376180 12.000000 8 342.364359
-1.610690 2.192685 1.035529 15.000000 6 342.364362
-1.576615 2.147082 0.733183 22.000000 4 342.364364
-0.222635 0.303298 0.144627 8.000000 2 342.364367
-1.646092 2.243339 0.205918 10.000000 0 342.364370
-0.018829 0.038468 3.354146 7.000000 31 342.364380
-0.348589 0.502365 3.887620 20.000000 28 342.364383
-0.448792 0.648396 3.814643 87.000000 27 342.364385
-0.709546 0.983268 3.921192 85.000000 25 342.364388
-1.084589 1.485673 4.393028 9.000000 23 342.364390
-1.085347 1.486175 3.438430 12.000000 21 342.364393
-1.163779 1.593580 2.970802 10.000000 19 342.364396
-1.409717 1.930355 2.937446 9.000000 17 342.364398
-0.108465 0.173192 3.363773 9.000000 30 342.364406
-0.204847 0.310407 3.420144 9.000000 29 342.364408
-0.576286 0.810589 3.864011 91.000000 26 342.364411
-0.927308 1.274887 4.341224 8.000000 24 342.364414
-1.247964 1.714496 4.446577 12.000000 22 342.364416
-1.120143 1.538332 3.182806 10.000000 20 342.364419
-1.247007 1.712566 2.878940 15.000000 18 342.364421
-2.102014 2.886799 3.949517 10.000000 16 342.364424
-1.772059 2.420311 3.027575 11.000000 15 342.364381
-2.046234 2.794792 2.874341 9.000000 13 342.364384
-2.327636 3.180303 2.668507 10.000000 11 342.364387
-1.623735 2.219360 1.199359 14.000000 7 342.364392
-1.583271 2.164846 0.877783 14.000000 5 342.364394
-1.571700 2.149026 0.596952 16.000000 3 342.364397
-1.607588 2.198901 0.337008 12.000000 1 342.364399
-1.859999 2.548813 2.890467 11.000000 14 342.364407
-2.250784 3.084324 2.863784 9.000000 12 342.364410
-2.386852 3.271982 2.464621 9.000000 10 342.364412
-1.605809 2.202110 1.037171 16.000000 6 342.364417
-1.571973 2.156500 0.734355 20.000000 4 342.364420
-0.218659 0.300071 0.143937 11.000000 2 342.364423
-1.629427 2.236957 0.205314 10.000000 0 342.364425
-0.018694 0.038533 3.354146 7.000000 31 342.364436
-0.348154 0.505499 3.902438 26.000000 28 342.364438
-0.446526 0.649959 3.814643 87.000000 27 342.364441
-0.706109 0.985739 3.921192 86.000000 25 342.364443
-1.079396 1.489450 4.393028 9.000000 23 342.364446
-1.075934 1.484136 3.425264 12.000000 21 342.364449
-1.153254 1.590797 2.958403 10.000000 19 342.364451
-1.402971 1.935264 2.937446 9.000000 17 342.364454
-0.107859 0.173570 3.363773 9.000000 30 342.364461
-0.204054 0.311568 3.425115 9.000000 29 342.364464
-0.573453 0.812596 3.864011 92.000000 26 342.364467
-0.921842 1.276717 4.336531 8.000000 24 342.364469
-1.241972 1.718842 4.446577 11.000000 22 342.364472
-1.111711 1.538005 3.174274 10.000000 20 342.364474
-1.241021 1.716908 2.878940 15.000000 18 342.364477
-2.087953 2.888623 3.942167 10.000000 16 342.364479
-1.753116 2.412058 3.010052 11.000000 15 342.364437
-2.038754 2.805066 2.877479 9.000000 13 342.364440
-2.299316 3.164728 2.649316 10.000000 11 342.364442
-2.414767 3.323637 2.236127 9.000000 9 342.364445
-1.618702 2.228766 1.201232 14.000000 7 342.364447
-1.581341 2.178123 0.880601 14.000000 5 342.364450
-1.561304 2.150524 0.596020 19.000000 3 342.364452
-1.591127 2.192408 0.335670 12.000000 1 342.364455
-1.851091 2.555290 2.890467 11.000000 14 342.364463
-2.240004 3.092162 2.863784 9.000000 12 342.364465
-2.365302 3.266327 2.454491 9.000000 10 342.364468
-2.404356 3.320263 1.982517 9.000000 8 342.364470
-1.603651 2.215353 1.040457 16.000000 6 342.364473
-1.570135 2.169849 0.736700 18.000000 4 342.364475
-0.220512 0.304845 0.144627 13.000000 2 342.364478
-1.612826 2.230486 0.204709 10.000000 0 342.364481
-0.018544 0.038557 3.349146 7.000000 31 342.364491
-0.347264 0.507995 3.912317 29.000000 28 342.364494
-0.444255 0.651514 3.814643 88.000000 27 342.364496
-0.702664 0.988197 3.921192 88.000000 25 342.364499
-1.074190 1.493208 4.393028 9.000000 23 342.364501
-1.067948 1.483993 3.416486 11.000000 21 342.364504
-1.144407 1.590245 2.950138 10.000000 19 342.364506
-1.396207 1.940150 2.937446 9.000000 17 342.364509
-0.107253 0.173945 3.363773 9.000000 30 342.364517
-0.202965 0.312278 3.425115 9.000000 29 342.364519
-0.570613 0.814592 3.864011 92.000000 26 342.364522
-0.917380 1.279927 4.336531 8.000000 24 342.364524
-1.237233 1.724936 4.451077 11.000000 22 342.364527
-1.101774 1.535520 3.161477 10.000000 20 342.364529
-1.235021 1.721230 2.878940 15.000000 18 342.364532
-2.069951 2.884877 3.927466 10.000000 16 342.364535
-1.738426 2.409487 2.999539 11.000000 15 342.364492
-2.031228 2.815323 2.880616 9.000000 13 342.364495
-2.268687 3.145604 2.627385 9.000000 11 342.364497
-2.390193 3.314080 2.224536 8.000000 9 342.364500
-1.613623 2.238163 1.203105 14.000000 7 342.364503
-1.576533 2.187522 0.882010 14.000000 5 342.364505
-1.553787 2.155961 0.596020 22.000000 3 342.364508
-1.574732 2.185827 0.334331 13.000000 1 342.364510
-1.844340 2.564768 2.893792 11.000000 14 342.364518
-2.231556 3.103244 2.866727 9.000000 12 342.364521
-2.343820 3.260561 2.444362 9.000000 10 342.364523
-2.398049 3.336006 1.986713 10.000000 8 342.364526
-1.598664 2.224772 1.042099 16.000000 6 342.364528
-1.565387 2.179265 0.737872 18.000000 4 342.364531
-0.222335 0.309636 0.145316 18.000000 2 342.364533
-1.596291 2.223926 0.204104 10.000000 0 342.364536
-0.018395 0.038581 3.344146 6.000000 31 342.364547
-0.345052 0.508561 3.907377 33.000000 28 342.364549
-0.441978 0.653060 3.814643 88.000000 27 342.364552
-0.699211 0.990644 3.921192 86.000000 25 342.364554
-1.070107 1.498539 4.397630 9.000000 23 342.364557
-1.058584 1.481864 3.403321 11.000000 21 342.364559
-1.133942 1.587361 2.937739 11.000000 19 342.364562
-1.387562 1.942403 2.933609 9.000000 17 342.364564
-0.106495 0.174071 3.358782 9.000000 30 342.364572
-0.202163 0.313434 3.430087 9.000000 29 342.364575
-0.567766 0.816579 3.864011 91.000000 26 342.364577
-0.912907 1.283121 4.336531 8.000000 24 342.364580
-1.230903 1.729459 4.451077 11.000000 22 342.364582
-1.093113 1.535299 3.152945 10.000000 20 342.364585
-1.228704 1.725745 2.878940 15.000000 18 342.364588
-2.047566 2.875874 3.905416 10.000000 16 342.364590
-1.721699 2.403943 2.985521 12.000000 15 342.364548
-2.023655 2.825560 2.883754 10.000000 13 342.364550
-2.240655 3.129705 2.608195 9.000000 11 342.364553
-2.373453 3.315199 2.219901 8.000000 9 342.364555
-1.605801 2.243782 1.203105 14.000000 7 342.364558
-1.571679 2.196913 0.883420 14.000000 5 342.364561
-1.548732 2.165637 0.596952 23.000000 3 342.364563
-1.558021 2.179430 0.332992 12.000000 1 342.364566
-1.837096 2.574550 2.897117 11.000000 14 342.364573
-2.217820 3.108112 2.863784 10.000000 12 342.364576
-2.319336 3.251580 2.431700 10.000000 10 342.364579
-2.393713 3.355857 1.993008 11.000000 8 342.364581
-1.595982 2.238306 1.045385 16.000000 6 342.364584
-1.560211 2.188946 0.739045 17.000000 4 342.364586
-0.221199 0.310449 0.145316 7.000000 2 342.364589
-1.579821 2.217278 0.203500 10.000000 0 342.364591
-0.018253 0.038648 3.344146 6.000000 31 342.364602
-0.343186 0.509822 3.907377 34.000000 28 342.364605
-0.439581 0.654676 3.814643 88.000000 27 342.364607
-0.695575 0.993200 3.921192 86.000000 25 342.364610
-1.064607 1.502451 4.397630 8.000000 23 342.364612
-1.048989 1.479870 3.390154 10.000000 21 342.364615
-1.124862 1.586915 2.929473 11.000000 19 342.364617
-1.380434 1.947476 2.933609 9.000000 17 342.364620
-0.105857 0.174460 3.358782 9.000000 30 342.364628
-0.201013 0.314173 3.430087 9.000000 29 342.364630
-0.564769 0.818655 3.864011 91.000000 26 342.364633
-0.909193 1.287868 4.341224 9.000000 24 342.364635
-1.224858 1.733745 4.451077 10.000000 22 342.364638
-1.083232 1.532715 3.140147 10.000000 20 342.364641
-1.222672 1.730023 2.878940 15.000000 18 342.364643
-1.706678 2.401516 2.975007 12.000000 15 342.364603
-2.015540 2.836132 2.886892 10.000000 13 342.364606
-2.207374 3.107217 2.583521 10.000000 11 342.364608
-2.358720 3.320264 2.217582 8.000000 9 342.364611
-1.602934 2.257212 1.206852 8.000000 7 342.364614
-1.566393 2.206571 0.884829 14.000000 5 342.364616
-1.544007 2.175035 0.597885 22.000000 3 342.364619
-1.541758 2.172671 0.331654 12.000000 1 342.364621
-1.830257 2.583994 2.900442 11.000000 14 342.364629
-2.204621 3.112536 2.860841 10.000000 12 342.364632
-2.298007 3.245582 2.421570 10.000000 10 342.364634
-2.361003 3.334560 1.976223 10.000000 8 342.364637
-1.593616 2.251573 1.048670 16.000000 6 342.364639
-1.555367 2.198346 0.740217 17.000000 4 342.364642
-0.220114 0.311219 0.145316 7.000000 2 342.364644
-1.563032 2.210815 0.202895 11.000000 0 342.364647
-0.018118 0.038712 3.344146 6.000000 31 342.364658
-0.341836 0.511663 3.912317 36.000000 28 342.364660
-0.437293 0.656206 3.814643 88.000000 27 342.364663
-0.692104 0.995622 3.921192 86.000000 25 342.364665
-1.060480 1.507756 4.402233 8.000000 23 342.364668
-1.041060 1.479604 3.381377 10.000000 21 342.364670
-1.114458 1.583927 2.917074 11.000000 19 342.364673
-1.373627 1.952282 2.933609 9.000000 17 342.364675
-0.105247 0.174828 3.358782 9.000000 30 342.364683
-0.199915 0.314873 3.430087 9.000000 29 342.364686
-0.561908 0.820621 3.864011 91.000000 26 342.364688
-0.904692 1.291034 4.341224 9.000000 24 342.364691
-1.218799 1.738010 4.451077 10.000000 22 342.364693
-1.073382 1.530082 3.127349 10.000000 20 342.364696
-1.216626 1.734280 2.878940 15.000000 18 342.364699
-1.692118 2.398716 2.964493 12.000000 15 342.364659
-2.007872 2.846331 2.890030 10.000000 13 342.364661
-2.182056 3.094399 2.567072 10.000000 11 342.364664
-2.334350 3.310374 2.205992 9.000000 9 342.364667
-1.561445 2.215947 0.886238 14.000000 5 342.364672
-1.539235 2.184427 0.598817 21.000000 3 342.364674
-1.525561 2.165825 0.330315 13.000000 1 342.364677
-1.821226 2.590368 2.900442 11.000000 14 342.364685
-2.189093 3.113600 2.854955 10.000000 12 342.364687
-2.276747 3.239475 2.411440 10.000000 10 342.364690
-2.349349 3.342781 1.976223 10.000000 8 342.364692
-1.585747 2.257122 1.048670 16.000000 6 342.364695
-1.547684 2.203762 0.740217 16.000000 4 342.364697
-0.219026 0.311985 0.145316 9.000000 2 342.364700
-1.549565 2.208079 0.202492 10.000000 0 342.364702
-0.017998 0.038816 3.349146 6.000000 31 342.364713
-0.340048 0.512853 3.912317 36.000000 28 342.364716
-0.435000 0.657729 3.814643 88.000000 27 342.364718
-0.688624 0.998032 3.921192 86.000000 25 342.364721
-1.055211 1.511448 4.402233 9.000000 23 342.364723
-1.031773 1.477336 3.368211 9.000000 21 342.364726
-1.104088 1.580886 2.904675 11.000000 19 342.364728
-1.366804 1.957065 2.933609 9.000000 17 342.364731
-0.104636 0.175195 3.358782 9.000000 30 342.364739
-0.198814 0.315569 3.430087 9.000000 29 342.364741
-0.559040 0.822578 3.864011 91.000000 26 342.364744
-0.900180 1.294184 4.341224 9.000000 24 342.364746
-1.212725 1.742254 4.451077 11.000000 22 342.364749
-1.063563 1.527399 3.114551 10.000000 20 342.364752
-1.210565 1.738517 2.878940 14.000000 18 342.364754
-1.631828 2.343513 3.174058 15.000000 16 342.364757
-1.677598 2.395845 2.953980 12.000000 15 342.364714
-2.000157 2.856512 2.893167 10.000000 13 342.364717
-2.140070 3.057464 2.531433 10.000000 11 342.364719
-2.312619 3.303985 2.196720 9.000000 9 342.364722
-2.363194 3.377495 1.753777 9.000000 7 342.364725
-1.556450 2.225315 0.887647 15.000000 5 342.364727
-1.534416 2.193812 0.599750 21.000000 3 342.364730
-1.512285 2.162974 0.329423 13.000000 1 342.364732
-1.814309 2.599771 2.903767 11.000000 14 342.364740
-2.173585 3.114593 2.849068 10.000000 12 342.364743
-2.255559 3.233259 2.401310 10.000000 10 342.364745
-2.327279 3.336072 1.967831 10.000000 8 342.364748
-1.577858 2.262644 1.048670 15.000000 6 342.364750
-1.542762 2.213139 0.741389 16.000000 4 342.364753
-0.217936 0.312748 0.145316 10.000000 2 342.364755
-1.533281 2.201176 0.201888 10.000000 0 342.364758
-0.017876 0.038919 3.354146 6.000000 31 342.364769
-0.338682 0.514687 3.917256 37.000000 28 342.364771
-0.432701 0.659243 3.814643 88.000000 27 342.364774
-0.685980 1.001662 3.925964 86.000000 25 342.364776
-1.045477 1.508699 4.383823 9.000000 23 342.364779
-1.023880 1.476991 3.359434 9.000000 21 342.364781
