# .PCD v.7 - Point Cloud Data file format
VERSION .7
FIELDS x y z intensity ring timestamp
SIZE 4 4 4 4 2 8
TYPE F F F F U D
COUNT 1 1 1 1 1 1
WIDTH 944
HEIGHT 1
VIEWPOINT 0 0 0 1 0 0 0
POINTS 944
DATA ascii
0.403894 0.757919 4.152413 10.000000 27 342.481604
0.455047 0.896017 3.257922 10.000000 25 342.481606
0.505370 1.008807 2.717709 16.000000 23 342.481609
0.634124 1.266351 2.661637 23.000000 21 342.481611
0.951588 1.900306 3.193982 15.000000 19 342.481614
0.991322 1.979647 2.726414 14.000000 17 342.481617
0.105619 0.177979 3.408698 9.000000 30 342.481624
0.216999 0.386120 4.081341 97.000000 29 342.481627
0.495889 0.959532 4.193077 10.000000 26 342.481629
0.485949 0.965834 2.994400 16.000000 24 342.481632
0.556323 1.106646 2.623739 22.000000 22 342.481635
0.917658 1.826176 3.413167 13.000000 20 342.481637
0.979617 1.949470 2.962719 16.000000 18 342.481640
1.017351 2.024554 2.534579 18.000000 16 342.481642
1.027637 2.058439 2.340684 19.000000 15 342.481600
1.053338 2.109913 1.983212 20.000000 13 342.481603
1.075277 2.152919 1.662389 22.000000 11 342.481605
1.107191 2.216810 1.383093 22.000000 9 342.481608
0.754630 1.510258 0.770435 30.000000 7 342.481610
0.763784 1.527911 0.591716 26.000000 5 342.481613
0.779730 1.559810 0.422552 24.000000 3 342.481615
0.797360 1.594381 0.252674 11.000000 1 342.481618
1.042338 2.079705 2.152351 23.000000 14 342.481626
1.067904 2.130708 1.818962 24.000000 12 342.481628
1.092616 2.179064 1.517494 22.000000 10 342.481631
0.755218 1.506171 0.866353 29.000000 8 342.481633
0.764657 1.524331 0.682351 30.000000 6 342.481636
0.774028 1.542341 0.506926 28.000000 4 342.481638
0.802091 1.597564 0.341224 16.000000 2 342.481641
0.811642 1.615884 0.166620 12.000000 0 342.481644
0.025837 0.034429 3.379145 9.000000 31 342.481654
0.304956 0.569091 4.104948 98.000000 28 342.481657
0.406537 0.756504 4.152413 10.000000 27 342.481659
0.458172 0.894424 3.257922 10.000000 25 342.481662
0.508889 1.007037 2.717709 16.000000 23 342.481664
0.637461 1.261992 2.657248 23.000000 21 342.481667
0.958215 1.896972 3.193982 14.000000 19 342.481670
0.998226 1.976175 2.726414 14.000000 17 342.481672
0.106090 0.177362 3.403706 9.000000 30 342.481680
0.218346 0.385360 4.081341 97.000000 29 342.481682
0.498654 0.956680 4.188238 9.000000 26 342.481685
0.489318 0.964132 2.994400 16.000000 24 342.481688
0.560182 1.104697 2.623739 22.000000 22 342.481690
0.925206 1.825288 3.417433 13.000000 20 342.481693
0.986416 1.946038 2.962719 17.000000 18 342.481695
1.024412 2.020991 2.534579 17.000000 16 342.481698
1.034816 2.054839 2.340684 19.000000 15 342.481655
1.060696 2.106224 1.983212 21.000000 13 342.481658
1.084667 2.152887 1.665130 22.000000 11 342.481661
1.114922 2.212932 1.383093 22.000000 9 342.481663
0.759898 1.507615 0.770435 30.000000 7 342.481666
0.769113 1.525236 0.591716 26.000000 5 342.481668
0.787382 1.561465 0.423485 24.000000 3 342.481671
0.802920 1.591588 0.252674 11.000000 1 342.481673
1.049591 2.076054 2.152351 23.000000 14 342.481681
1.077158 2.130574 1.821905 24.000000 12 342.481684
1.100216 2.175237 1.517494 22.000000 10 342.481686
0.760471 1.503526 0.866353 29.000000 8 342.481689
0.769973 1.521652 0.682351 30.000000 6 342.481691
0.781603 1.543967 0.508098 28.000000 4 342.481694
0.807663 1.594754 0.341224 16.000000 2 342.481697
0.817278 1.613041 0.166620 12.000000 0 342.481699
0.025957 0.034339 3.379145 9.000000 31 342.481710
0.306941 0.568023 4.104948 98.000000 28 342.481712
0.409175 0.755081 4.152413 10.000000 27 342.481715
0.461977 0.894146 3.262694 9.000000 25 342.481717
0.512401 1.005255 2.717709 16.000000 23 342.481720
0.641862 1.259759 2.657248 23.000000 21 342.481723
0.964831 1.893616 3.193982 14.000000 19 342.481725
1.006574 1.975535 2.730251 14.000000 17 342.481728
0.106708 0.176990 3.403706 9.000000 30 342.481735
0.219424 0.384133 4.076370 97.000000 29 342.481738
0.501990 0.954934 4.188238 9.000000 26 342.481741
0.492680 0.962418 2.994400 15.000000 24 342.481743
0.564035 1.102735 2.623739 22.000000 22 342.481746
0.931572 1.822047 3.417433 13.000000 20 342.481748
0.993203 1.942583 2.962719 16.000000 18 342.481751
1.031460 2.017403 2.534579 17.000000 16 342.481753
1.041983 2.051214 2.340684 18.000000 15 342.481711
1.068042 2.102508 1.983212 22.000000 13 342.481714
1.092176 2.149088 1.665130 22.000000 11 342.481716
1.122640 2.209026 1.383093 22.000000 9 342.481719
0.765155 1.504953 0.770435 30.000000 7 342.481721
0.774432 1.522542 0.591716 26.000000 5 342.481724
0.792828 1.558707 0.423485 24.000000 3 342.481726
0.808471 1.588775 0.252674 12.000000 1 342.481729
1.056832 2.072377 2.152351 23.000000 14 342.481737
1.084589 2.126801 1.821905 26.000000 12 342.481739
1.107802 2.171383 1.517494 22.000000 10 342.481742
0.767777 1.504905 0.868451 29.000000 8 342.481744
0.775280 1.518955 0.682351 30.000000 6 342.481747
0.786987 1.541229 0.508098 28.000000 4 342.481749
0.813224 1.591925 0.341224 15.000000 2 342.481752
0.822903 1.610178 0.166620 12.000000 0 342.481755
0.026077 0.034248 3.379145 9.000000 31 342.481766
0.308922 0.566948 4.104948 98.000000 28 342.481769
0.411320 0.752755 4.147518 11.000000 27 342.481771
0.465096 0.892528 3.262694 9.000000 25 342.481774
0.515907 1.003460 2.717709 16.000000 23 342.481776
0.646255 1.257511 2.657248 24.000000 21 342.481779
0.971435 1.890237 3.193982 14.000000 19 342.481781
1.013464 1.972009 2.730251 14.000000 17 342.481784
0.107326 0.176617 3.403706 9.000000 30 342.481792
0.220763 0.383365 4.076370 97.000000 29 342.481794
0.504731 0.952065 4.183399 9.000000 26 342.481797
0.496037 0.960693 2.994400 15.000000 24 342.481799
0.567881 1.100760 2.623739 22.000000 22 342.481802
0.937926 1.818784 3.417433 13.000000 20 342.481804
0.999978 1.939104 2.962719 16.000000 18 342.481807
1.038496 2.013790 2.534579 17.000000 16 342.481810
1.049137 2.047565 2.340684 18.000000 15 342.481767
1.075375 2.098767 1.983212 22.000000 13 342.481770
1.101578 2.148983 1.667871 22.000000 11 342.481772
1.130344 2.205094 1.383093 23.000000 9 342.481775
0.770404 1.502273 0.770435 30.000000 7 342.481778
0.779742 1.519829 0.591716 26.000000 5 342.481780
0.798264 1.555930 0.423485 24.000000 3 342.481783
0.814012 1.585944 0.252674 12.000000 1 342.481785
1.064059 2.068676 2.152351 23.000000 14 342.481793
1.092006 2.123003 1.821905 26.000000 12 342.481796
1.115375 2.167503 1.517494 21.000000 10 342.481798
0.773026 1.502216 0.868451 29.000000 8 342.481801
0.780577 1.516240 0.682351 30.000000 6 342.481803
0.792362 1.538473 0.508098 28.000000 4 342.481806
0.821045 1.593479 0.341914 15.000000 2 342.481808
0.828519 1.607296 0.166620 12.000000 0 342.481811
0.026196 0.034157 3.379145 9.000000 31 342.481822
0.310899 0.565866 4.104948 98.000000 28 342.481824
0.413945 0.751314 4.147518 10.000000 27 342.481827
0.468208 0.890899 3.262694 9.000000 25 342.481829
0.519406 1.001653 2.717709 16.000000 23 342.481832
0.650641 1.255247 2.657248 24.000000 21 342.481834
0.979322 1.889333 3.198114 14.000000 19 342.481837
1.021816 1.971306 2.734088 14.000000 17 342.481839
0.108094 0.176487 3.408698 9.000000 30 342.481847
0.222100 0.382592 4.076370 97.000000 29 342.481850
0.508051 0.950297 4.183399 9.000000 26 342.481852
0.499387 0.958955 2.994400 16.000000 24 342.481855
0.571720 1.098771 2.623739 22.000000 22 342.481857
0.944269 1.815499 3.417433 13.000000 20 342.481860
1.006740 1.935602 2.962719 16.000000 18 342.481863
1.045519 2.010153 2.534579 18.000000 16 342.481865
1.057915 2.047059 2.344189 18.000000 15 342.481823
1.084481 2.098459 1.986350 22.000000 13 342.481825
1.109073 2.145125 1.667871 21.000000 11 342.481828
1.138034 2.201135 1.383093 22.000000 9 342.481830
0.775643 1.499575 0.770435 30.000000 7 342.481833
0.787248 1.521359 0.593125 26.000000 5 342.481836
0.803690 1.553134 0.423485 24.000000 3 342.481838
0.819543 1.583093 0.252674 12.000000 1 342.481841
1.071274 2.064949 2.152351 23.000000 14 342.481848
1.099410 2.119178 1.821905 26.000000 12 342.481851
1.124920 2.167423 1.520026 21.000000 10 342.481854
0.778265 1.499508 0.868451 29.000000 8 342.481856
0.785865 1.513506 0.682351 30.000000 6 342.481859
0.797728 1.535697 0.508098 27.000000 4 342.481861
0.826602 1.590603 0.341914 15.000000 2 342.481864
0.834124 1.604394 0.166620 12.000000 0 342.481866
0.026345 0.034097 3.384145 9.000000 31 342.481877
0.312872 0.564778 4.104948 98.000000 28 342.481880
0.416070 0.748975 4.142623 10.000000 27 342.481882
0.472015 0.890579 3.267466 9.000000 25 342.481885
0.522900 0.999834 2.717709 14.000000 23 342.481887
0.655019 1.252968 2.657248 23.000000 21 342.481890
0.985911 1.885903 3.198114 14.000000 19 342.481892
1.028691 1.967727 2.734088 14.000000 17 342.481895
0.108709 0.176109 3.408698 9.000000 30 342.481903
0.223434 0.381814 4.076370 97.000000 29 342.481905
0.510768 0.947411 4.178559 9.000000 26 342.481908
0.502732 0.957206 2.994400 15.000000 24 342.481910
0.575552 1.096768 2.623739 22.000000 22 342.481913
0.950601 1.812192 3.417433 13.000000 20 342.481916
1.013491 1.932076 2.962719 17.000000 18 342.481918
1.054104 2.009493 2.538254 17.000000 16 342.481921
1.065054 2.043353 2.344189 18.000000 15 342.481878
1.091800 2.094661 1.986350 22.000000 13 342.481881
1.118487 2.144948 1.670613 21.000000 11 342.481883
1.147759 2.201077 1.385411 22.000000 9 342.481886
0.780873 1.496858 0.770435 31.000000 7 342.481889
0.792553 1.518601 0.593125 26.000000 5 342.481891
0.811380 1.554674 0.424418 23.000000 3 342.481894
0.825064 1.580222 0.252674 12.000000 1 342.481896
1.078475 2.061197 2.152351 23.000000 14 342.481904
1.106801 2.115327 1.821905 26.000000 12 342.481907
1.132479 2.163483 1.520026 22.000000 10 342.481909
0.783494 1.496783 0.868451 29.000000 8 342.481912
0.791143 1.510753 0.682351 29.000000 6 342.481914
0.803084 1.532903 0.508098 27.000000 4 342.481917
0.834448 1.592094 0.342604 16.000000 2 342.481919
0.839720 1.601473 0.166620 12.000000 0 342.481922
0.026464 0.034005 3.384145 9.000000 31 342.481933
0.314842 0.563682 4.104948 98.000000 28 342.481935
0.418682 0.747518 4.142623 11.000000 27 342.481938
0.475121 0.888925 3.267466 9.000000 25 342.481940
0.526386 0.998003 2.717709 14.000000 23 342.481943
0.659388 1.250674 2.657248 24.000000 21 342.481945
0.992489 1.882450 3.198114 14.000000 19 342.481948
1.035554 1.964124 2.734088 14.000000 17 342.481950
0.109323 0.175728 3.408698 9.000000 30 342.481958
0.225038 0.381491 4.081341 97.000000 29 342.481961
0.514072 0.945622 4.178559 9.000000 26 342.481963
0.506878 0.956971 2.999092 15.000000 24 342.481966
0.579568 1.094651 2.623739 23.000000 22 342.481968
0.958457 1.811001 3.421699 13.000000 20 342.481971
1.020565 1.928348 2.962719 17.000000 18 342.481974
1.061462 2.005616 2.538254 17.000000 16 342.481976
1.072180 2.039623 2.344189 19.000000 15 342.481934
1.099105 2.090837 1.986350 22.000000 13 342.481936
1.125968 2.141031 1.670613 21.000000 11 342.481939
1.155435 2.197057 1.385411 21.000000 9 342.481942
0.786093 1.494123 0.770435 30.000000 7 342.481944
0.797849 1.515826 0.593125 26.000000 5 342.481947
0.817072 1.551690 0.424418 23.000000 3 342.481949
0.830850 1.577188 0.252674 12.000000 1 342.481952
1.086023 2.057230 2.152351 23.000000 14 342.481960
1.114547 2.111256 1.821905 25.000000 12 342.481962
1.140401 2.159318 1.520026 22.000000 10 342.481965
0.791095 1.497914 0.870549 29.000000 8 342.481967
0.796675 1.507843 0.682351 29.000000 6 342.481970
0.808697 1.529950 0.508098 27.000000 4 342.481972
0.840278 1.589025 0.342604 17.000000 2 342.481975
0.847640 1.602948 0.166821 11.000000 0 342.481977
0.026589 0.033908 3.384145 9.000000 31 342.481988
0.316906 0.562524 4.104948 98.000000 28 342.481991
0.421419 0.745978 4.142623 10.000000 27 342.481993
0.479085 0.888493 3.272238 9.000000 25 342.481996
0.530959 0.997791 2.722311 16.000000 23 342.481998
0.662843 1.246134 2.652859 22.000000 21 342.482001
0.999381 1.878799 3.198114 14.000000 19 342.482003
1.042746 1.960316 2.734088 14.000000 17 342.482006
0.109936 0.175346 3.408698 9.000000 30 342.482014
0.226368 0.380703 4.081341 97.000000 29 342.482016
0.517370 0.943822 4.178559 9.000000 26 342.482019
0.510215 0.955196 2.999092 15.000000 24 342.482021
0.582359 1.090701 2.619238 22.000000 22 342.482024
0.964772 1.807644 3.421699 13.000000 20 342.482027
1.028710 1.927433 2.966709 17.000000 18 342.482029
1.068107 2.002085 2.538254 17.000000 16 342.482032
1.079648 2.035680 2.344189 19.000000 15 342.481989
1.106761 2.086794 1.986350 22.000000 13 342.481992
1.135767 2.140583 1.673354 21.000000 11 342.481994
1.161404 2.188895 1.383093 21.000000 9 342.481997
0.791304 1.491370 0.770435 31.000000 7 342.482000
0.803136 1.513031 0.593125 26.000000 5 342.482002
0.824788 1.553167 0.425350 22.000000 3 342.482005
0.836351 1.574278 0.252674 12.000000 1 342.482007
1.094952 2.056723 2.155676 23.000000 14 342.482015
1.121909 2.107353 1.821905 26.000000 12 342.482018
1.149581 2.159330 1.522558 22.000000 10 342.482020
0.796058 1.495283 0.870549 29.000000 8 342.482023
0.801671 1.505193 0.682351 30.000000 6 342.482025
0.816051 1.531549 0.509270 27.000000 4 342.482028
0.847872 1.590600 0.343293 17.000000 2 342.482030
0.853230 1.599980 0.166821 11.000000 0 342.482033
0.026671 0.033788 3.379145 9.000000 31 342.482044
0.318385 0.560795 4.100008 98.000000 28 342.482046
0.423386 0.743692 4.137728 10.000000 27 342.482049
0.482742 0.888211 3.277009 9.000000 25 342.482051
0.534264 0.996025 2.722311 16.000000 23 342.482054
0.666971 1.243929 2.652859 22.000000 21 342.482056
1.006936 1.877955 3.202247 14.000000 19 342.482059
1.049240 1.956847 2.734088 14.000000 17 342.482062
0.110548 0.174961 3.408698 9.000000 30 342.482069
0.227696 0.379911 4.081341 97.000000 29 342.482072
0.520661 0.942010 4.178559 9.000000 26 342.482074
0.513546 0.953409 2.999092 15.000000 24 342.482077
0.586163 1.088661 2.619238 22.000000 22 342.482080
0.972312 1.806562 3.425965 13.000000 20 342.482082
1.035431 1.923831 2.966709 17.000000 18 342.482085
1.077045 2.001142 2.541929 17.000000 16 342.482087
1.088074 2.035233 2.347693 19.000000 15 342.482045
1.113675 2.083113 1.986350 21.000000 13 342.482047
1.142859 2.136805 1.673354 21.000000 11 342.482050
1.168656 2.185031 1.383093 22.000000 9 342.482053
0.798692 1.492686 0.772308 30.000000 7 342.482055
0.808412 1.510219 0.593125 25.000000 5 342.482058
0.830204 1.550278 0.425350 22.000000 3 342.482060
0.841841 1.571349 0.252674 12.000000 1 342.482063
1.102125 2.052889 2.155676 23.000000 14 342.482071
1.129259 2.103424 1.821905 26.000000 12 342.482073
1.157488 2.155102 1.522558 22.000000 10 342.482076
0.801533 1.492355 0.870549 28.000000 8 342.482078
0.807182 1.502245 0.682351 29.000000 6 342.482081
0.821659 1.528548 0.509270 27.000000 4 342.482083
0.853696 1.587482 0.343293 16.000000 2 342.482086
0.858810 1.596992 0.166821 11.000000 0 342.482088
0.026794 0.033690 3.379145 9.000000 31 342.482099
0.320439 0.559624 4.100008 98.000000 28 342.482102
0.426109 0.742135 4.137728 10.000000 27 342.482104
0.486712 0.887745 3.281781 9.000000 25 342.482107
0.538841 0.995778 2.726914 16.000000 23 342.482109
0.671526 1.241476 2.652859 23.000000 21 342.482112
1.013812 1.874252 3.202247 14.000000 19 342.482114
1.056406 1.952988 2.734088 14.000000 17 342.482117
0.111188 0.174554 3.408698 9.000000 30 342.482125
0.229086 0.379074 4.081341 97.000000 29 342.482127
0.524111 0.940095 4.178559 10.000000 26 342.482130
0.517037 0.951520 2.999092 15.000000 24 342.482132
0.589960 1.086608 2.619238 22.000000 22 342.482135
0.978612 1.803157 3.425965 13.000000 20 342.482138
1.043578 1.922854 2.970698 17.000000 18 342.482140
1.084023 1.997370 2.541929 18.000000 16 342.482143
1.095527 2.031232 2.347693 19.000000 15 342.482100
1.123150 2.082443 1.989488 21.000000 13 342.482103
1.150684 2.132602 1.673354 21.000000 11 342.482106
1.174553 2.176834 1.380775 30.000000 9 342.482108
0.804158 1.489749 0.772308 31.000000 7 342.482111
0.816222 1.511467 0.594534 25.000000 5 342.482113
0.837945 1.551693 0.426283 22.000000 3 342.482116
0.849688 1.572782 0.253121 12.000000 1 342.482118
1.111062 2.052313 2.159001 23.000000 14 342.482126
1.138518 2.103024 1.824848 26.000000 12 342.482129
1.167056 2.154840 1.525091 22.000000 10 342.482131
0.806737 1.489548 0.870549 28.000000 8 342.482134
0.814671 1.503570 0.683994 29.000000 6 342.482136
0.829306 1.529944 0.510443 26.000000 4 342.482139
0.859232 1.584492 0.343293 16.000000 2 342.482141
0.864658 1.593833 0.166821 11.000000 0 342.482144
0.026912 0.033596 3.379145 9.000000 31 342.482155
0.322390 0.558502 4.100008 98.000000 28 342.482157
0.428697 0.740644 4.137728 10.000000 27 342.482160
0.490531 0.887348 3.286553 9.000000 25 342.482162
0.542314 0.993891 2.726914 16.000000 23 342.482165
0.675856 1.239124 2.652859 23.000000 21 342.482167
1.021696 1.873172 3.206380 14.000000 19 342.482170
1.064752 1.952103 2.737925 14.000000 17 342.482173
0.111797 0.174165 3.408698 9.000000 30 342.482180
0.230408 0.378272 4.081341 97.000000 29 342.482183
0.527389 0.938260 4.178559 10.000000 26 342.482185
0.520355 0.949710 2.999092 15.000000 24 342.482188
0.592703 1.082632 2.614737 22.000000 22 342.482191
0.984901 1.799730 3.425965 13.000000 20 342.482193
1.050284 1.919199 2.970698 17.000000 18 342.482196
1.092617 1.996548 2.545605 18.000000 16 342.482198
1.104314 2.030528 2.351198 18.000000 15 342.482156
1.130413 2.078510 1.989488 22.000000 13 342.482158
1.158121 2.128572 1.673354 22.000000 11 342.482161
1.180027 2.168830 1.378457 29.000000 9 342.482164
0.809353 1.486933 0.772308 31.000000 7 342.482166
0.821493 1.508608 0.594534 26.000000 5 342.482169
0.843356 1.548759 0.426283 23.000000 3 342.482171
0.855173 1.569807 0.253121 12.000000 1 342.482174
1.118219 2.048422 2.159001 23.000000 14 342.482182
1.145852 2.099037 1.824848 26.000000 12 342.482184
1.174571 2.150753 1.525091 21.000000 10 342.482187
0.811932 1.486723 0.870549 29.000000 8 342.482189
0.819915 1.500718 0.683994 30.000000 6 342.482192
0.834642 1.527039 0.510443 26.000000 4 342.482194
0.864758 1.581483 0.343293 16.000000 2 342.482197
0.870216 1.590805 0.166821 11.000000 0 342.482200
0.027059 0.033533 3.384145 9.000000 31 342.482210
0.324338 0.557373 4.100008 98.000000 28 342.482213
0.430766 0.738263 4.132833 10.000000 27 342.482215
0.496534 0.890849 3.305640 8.000000 25 342.482218
0.545780 0.991992 2.726914 15.000000 23 342.482220
0.680177 1.236758 2.652859 23.000000 21 342.482223
1.029585 1.872060 3.210513 14.000000 19 342.482226
1.071559 1.948375 2.737925 14.000000 17 342.482228
0.112404 0.173774 3.408698 9.000000 30 342.482236
0.231727 0.377465 4.081341 97.000000 29 342.482238
0.530661 0.936414 4.178559 10.000000 26 342.482241
0.523667 0.947887 2.999092 15.000000 24 342.482244
0.596479 1.080557 2.614737 23.000000 22 342.482246
0.991177 1.796281 3.425965 13.000000 20 342.482249
1.056977 1.915521 2.970698 16.000000 18 342.482251
1.099579 1.992722 2.545605 17.000000 16 342.482254
1.111395 2.026661 2.351198 18.000000 15 342.482211
1.137661 2.074551 1.989488 22.000000 13 342.482214
1.165544 2.124516 1.673354 22.000000 11 342.482217
1.183329 2.156929 1.373821 29.000000 9 342.482219
0.816769 1.488163 0.774181 31.000000 7 342.482222
0.826754 1.505732 0.594534 26.000000 5 342.482224
0.848757 1.545805 0.426283 24.000000 3 342.482227
0.860647 1.566812 0.253121 12.000000 1 342.482229
1.127163 2.047778 2.162326 22.000000 14 342.482237
1.155121 2.098565 1.827791 26.000000 12 342.482240
1.182071 2.146639 1.525091 21.000000 10 342.482242
0.817116 1.483880 0.870549 28.000000 8 342.482245
0.827427 1.501983 0.685637 30.000000 6 342.482247
0.842313 1.528373 0.511615 27.000000 4 342.482250
0.870273 1.578455 0.343293 16.000000 2 342.482252
0.875764 1.587758 0.166821 11.000000 0 342.482255
0.027176 0.033439 3.384145 9.000000 31 342.482266
0.326281 0.556238 4.100008 99.000000 28 342.482268
0.433340 0.736755 4.132833 10.000000 27 342.482271
0.503300 0.895620 3.329498 9.000000 25 342.482273
0.549239 0.990081 2.726914 15.000000 23 342.482276
0.684490 1.234376 2.652859 23.000000 21 342.482278
1.036113 1.868454 3.210513 14.000000 19 342.482281
1.079908 1.947426 2.741762 14.000000 17 342.482284
0.113010 0.173380 3.408698 9.000000 30 342.482291
0.233043 0.376654 4.081341 97.000000 29 342.482294
0.533926 0.934556 4.178559 10.000000 26 342.482296
0.526973 0.946054 2.999092 15.000000 24 342.482299
0.599188 1.076565 2.610236 23.000000 22 342.482302
0.997441 1.792811 3.425965 13.000000 20 342.482304
1.065122 1.914454 2.974688 16.000000 18 342.482307
1.106528 1.988872 2.545605 18.000000 16 342.482309
1.118463 2.022769 2.351198 19.000000 15 342.482267
1.146779 2.073974 1.992625 22.000000 13 342.482270
1.174977 2.124094 1.676096 21.000000 11 342.482272
1.188706 2.148909 1.371503 33.000000 9 342.482275
0.821959 1.485303 0.774181 31.000000 7 342.482277
0.834328 1.507033 0.595944 25.000000 5 342.482280
0.854148 1.542833 0.426283 24.000000 3 342.482282
0.866111 1.563798 0.253121 11.000000 1 342.482285
1.134304 2.043831 2.162326 22.000000 14 342.482293
1.162440 2.094521 1.827791 26.000000 12 342.482295
1.191650 2.146269 1.527623 21.000000 10 342.482298
0.824494 1.484986 0.872647 28.000000 8 342.482300
0.832665 1.499085 0.685637 30.000000 6 342.482303
0.847643 1.525424 0.511615 27.000000 4 342.482305
0.878184 1.579736 0.343983 17.000000 2 342.482308
0.883729 1.589058 0.167023 11.000000 0 342.482311
0.027323 0.033375 3.389144 8.000000 31 342.482321
0.328221 0.555096 4.100008 99.000000 28 342.482324
0.435390 0.734362 4.127937 10.000000 27 342.482326
0.510105 0.900354 3.353357 8.000000 25 342.482329
0.552692 0.988158 2.726914 15.000000 23 342.482331
0.687625 1.229888 2.648471 24.000000 21 342.482334
1.044002 1.867282 3.214646 14.000000 19 342.482337
1.086700 1.943644 2.741762 14.000000 17 342.482339
0.113614 0.172985 3.408698 9.000000 30 342.482347
0.234357 0.375838 4.081341 97.000000 29 342.482349
0.537185 0.932686 4.178559 10.000000 26 342.482352
0.531117 0.945713 3.003785 15.000000 24 342.482355
0.602942 1.074467 2.610236 23.000000 22 342.482357
1.003693 1.789318 3.425965 13.000000 20 342.482360
1.071798 1.910724 2.974688 17.000000 18 342.482362
1.113464 1.984997 2.545605 18.000000 16 342.482365
1.125517 2.018852 2.351198 19.000000 15 342.482322
1.154012 2.069959 1.992625 23.000000 13 342.482325
1.182384 2.119980 1.676096 21.000000 11 342.482328
1.194042 2.140877 1.369185 45.000000 9 342.482330
0.827138 1.482424 0.774181 31.000000 7 342.482333
0.839584 1.504112 0.595944 25.000000 5 342.482335
0.859528 1.539842 0.426283 25.000000 3 342.482338
0.873992 1.565113 0.253567 11.000000 1 342.482340
1.141432 2.039859 2.162326 23.000000 14 342.482348
1.169744 2.090450 1.827791 26.000000 12 342.482351
1.199135 2.142097 1.527623 21.000000 10 342.482353
0.829673 1.482099 0.872647 29.000000 8 342.482356
0.837892 1.496170 0.685637 30.000000 6 342.482358
0.852962 1.522456 0.511615 27.000000 4 342.482361
0.883693 1.576661 0.343983 17.000000 2 342.482364
0.889270 1.585963 0.167023 11.000000 0 342.482366
0.027440 0.033279 3.389144 8.000000 31 342.482377
0.330157 0.553946 4.100008 99.000000 28 342.482379
0.437951 0.732838 4.127937 10.000000 27 342.482382
0.517690 0.906349 3.381987 8.000000 25 342.482384
0.556138 0.986223 2.726914 15.000000 23 342.482387
0.691914 1.227480 2.648471 24.000000 21 342.482390
1.050514 1.863627 3.214646 14.000000 19 342.482392
1.093478 1.939839 2.741762 14.000000 17 342.482395
0.114218 0.172587 3.408698 9.000000 30 342.482402
0.235382 0.374566 4.076370 97.000000 29 342.482405
0.540438 0.930805 4.178559 10.000000 26 342.482408
0.534415 0.943853 3.003785 15.000000 24 342.482410
0.606689 1.072356 2.610236 23.000000 22 342.482413
1.009933 1.785803 3.425965 13.000000 20 342.482415
1.079945 1.909595 2.978677 17.000000 18 342.482418
1.120386 1.981098 2.545605 18.000000 16 342.482420
1.132557 2.014911 2.351198 19.000000 15 342.482378
1.161230 2.065918 1.992625 23.000000 13 342.482381
1.191826 2.119484 1.678837 21.000000 11 342.482383
1.201508 2.136696 1.369185 67.000000 9 342.482386
0.832308 1.479528 0.774181 31.000000 7 342.482388
0.844829 1.501172 0.595944 25.000000 5 342.482391
0.864898 1.536833 0.426283 24.000000 3 342.482393
0.879450 1.562053 0.253567 12.000000 1 342.482396
1.148545 2.035862 2.162326 23.000000 14 342.482404
1.179020 2.089874 1.830735 26.000000 12 342.482406
1.206605 2.137898 1.527623 22.000000 10 342.482409
0.837072 1.483147 0.874746 29.000000 8 342.482411
0.843110 1.493236 0.685637 30.000000 6 342.482414
0.860662 1.523702 0.512787 28.000000 4 342.482416
0.889191 1.573567 0.343983 17.000000 2 342.482419
0.894801 1.582849 0.167023 12.000000 0 342.482422
0.027556 0.033183 3.389144 10.000000 31 342.482432
0.332088 0.552791 4.100008 96.000000 28 342.482435
0.440506 0.731305 4.127937 10.000000 27 342.482437
0.523087 0.908419 3.396302 8.000000 25 342.482440
0.560543 0.985974 2.731516 16.000000 23 342.482442
0.696195 1.225057 2.648471 24.000000 21 342.482445
1.057013 1.859949 3.214646 14.000000 19 342.482447
1.100242 1.936011 2.741762 14.000000 17 342.482450
0.114657 0.171948 3.403706 9.000000 30 342.482458
0.236689 0.373742 4.076370 96.000000 29 342.482460
0.543684 0.928913 4.178559 10.000000 26 342.482463
0.537706 0.941982 3.003785 15.000000 24 342.482465
0.610429 1.070232 2.610236 23.000000 22 342.482468
1.017452 1.784533 3.430230 13.000000 20 342.482470
1.086604 1.905813 2.978677 17.000000 18 342.482473
1.128974 1.980120 2.549280 18.000000 16 342.482476
1.139583 2.010946 2.351198 19.000000 15 342.482433
1.170354 2.065239 1.995763 23.000000 13 342.482436
1.199217 2.115311 1.678837 21.000000 11 342.482438
1.206774 2.128635 1.366867 58.000000 9 342.482441
0.837467 1.476614 0.774181 31.000000 7 342.482444
0.852431 1.502386 0.597353 26.000000 5 342.482446
0.870257 1.533804 0.426283 24.000000 3 342.482449
0.884898 1.558974 0.253567 12.000000 1 342.482451
1.155645 2.031841 2.162326 23.000000 14 342.482459
1.186308 2.085746 1.830735 26.000000 12 342.482462
1.214060 2.133673 1.527623 22.000000 10 342.482464
0.842244 1.480216 0.874746 28.000000 8 342.482467
0.850653 1.494388 0.687279 29.000000 6 342.482469
0.865976 1.520688 0.512787 29.000000 4 342.482472
0.894678 1.570453 0.343983 16.000000 2 342.482474
0.900321 1.579716 0.167023 12.000000 0 342.482477
0.027641 0.033056 3.384145 9.000000 31 342.482488
0.334016 0.551628 4.100008 96.000000 28 342.482490
0.443056 0.729763 4.127937 10.000000 27 342.482493
0.536754 0.924670 3.463106 9.000000 25 342.482495
0.563981 0.984011 2.731516 16.000000 23 342.482498
0.699276 1.220541 2.644082 24.000000 21 342.482500
1.063498 1.856248 3.214646 14.000000 19 342.482503
1.108587 1.934940 2.745599 14.000000 17 342.482505
0.115257 0.171546 3.403706 9.000000 30 342.482513
0.237992 0.372914 4.076370 97.000000 29 342.482516
0.546923 0.927010 4.178559 10.000000 26 342.482518
0.540991 0.940099 3.003785 15.000000 24 342.482521
0.614161 1.068094 2.610236 23.000000 22 342.482523
1.023675 1.780970 3.430230 13.000000 20 342.482526
1.094752 1.904622 2.982667 16.000000 18 342.482529
1.135879 1.976167 2.549280 18.000000 16 342.482531
1.146596 2.006956 2.351198 19.000000 15 342.482489
1.177556 2.061141 1.995763 20.000000 13 342.482491
1.208669 2.114743 1.681579 22.000000 11 342.482494
1.214197 2.124410 1.366867 58.000000 9 342.482496
0.842617 1.473681 0.774181 31.000000 7 342.482499
0.857670 1.499402 0.597353 26.000000 5 342.482502
0.875606 1.530757 0.426283 24.000000 3 342.482504
0.892808 1.560198 0.254013 12.000000 1 342.482507
1.162730 2.027794 2.162326 23.000000 14 342.482514
1.193581 2.081592 1.830735 26.000000 12 342.482517
1.223646 2.133162 1.530156 22.000000 10 342.482520
0.849664 1.481203 0.876844 28.000000 8 342.482522
0.855864 1.491409 0.687279 29.000000 6 342.482525
0.871278 1.517656 0.512787 29.000000 4 342.482527
0.902621 1.571615 0.344673 16.000000 2 342.482530
0.908318 1.580896 0.167224 11.000000 0 342.482532
0.027756 0.032959 3.384145 9.000000 31 342.482543
0.335939 0.550459 4.100008 98.000000 28 342.482546
0.445601 0.728212 4.127937 9.000000 27 342.482548
0.546768 0.934392 3.506052 9.000000 25 342.482551
0.567412 0.982036 2.731516 16.000000 23 342.482553
0.703532 1.218093 2.644082 24.000000 21 342.482556
1.069971 1.852524 3.214646 14.000000 19 342.482558
1.115335 1.931059 2.745599 15.000000 17 342.482561
0.115855 0.171143 3.403706 9.000000 30 342.482569
0.239292 0.372081 4.076370 97.000000 29 342.482571
0.550155 0.925095 4.178559 9.000000 26 342.482574
0.544269 0.938205 3.003785 15.000000 24 342.482576
0.617885 1.065944 2.610236 23.000000 22 342.482579
1.029886 1.777386 3.430230 13.000000 20 342.482582
1.101394 1.900789 2.982667 17.000000 18 342.482584
1.142770 1.972190 2.549280 18.000000 16 342.482587
1.155375 2.006031 2.354702 19.000000 15 342.482544
1.184743 2.057018 1.995763 20.000000 13 342.482547
1.216043 2.110511 1.681579 22.000000 11 342.482549
1.221605 2.120158 1.366867 71.000000 9 342.482552
0.850071 1.474748 0.776054 31.000000 7 342.482555
0.862899 1.496399 0.597353 26.000000 5 342.482557
0.880944 1.527691 0.426283 26.000000 3 342.482560
0.898248 1.557072 0.254013 12.000000 1 342.482562
1.171670 2.026956 2.165651 23.000000 14 342.482570
1.200840 2.077413 1.830735 26.000000 12 342.482573
1.231084 2.128877 1.530156 22.000000 10 342.482575
0.857101 1.482157 0.878942 28.000000 8 342.482578
0.863430 1.492500 0.688922 29.000000 6 342.482580
0.879006 1.518812 0.513960 28.000000 4 342.482583
0.908102 1.568455 0.344673 17.000000 2 342.482585
0.913831 1.577715 0.167224 11.000000 0 342.482588
0.027871 0.032862 3.384145 9.000000 31 342.482599
0.337859 0.549283 4.100008 98.000000 28 342.482601
0.448140 0.726652 4.127937 9.000000 27 342.482604
0.557616 0.945341 3.553769 9.000000 25 342.482606
0.570837 0.980050 2.731516 15.000000 23 342.482609
0.707779 1.215629 2.644082 23.000000 21 342.482611
1.077847 1.851210 3.218779 14.000000 19 342.482614
1.123682 1.929924 2.749436 15.000000 17 342.482616
0.116452 0.170737 3.403706 9.000000 30 342.482624
0.240589 0.371243 4.076370 97.000000 29 342.482627
0.552734 0.922090 4.173720 9.000000 26 342.482629
0.547541 0.936300 3.003785 14.000000 24 342.482632
0.620504 1.061901 2.605735 23.000000 22 342.482634
1.036083 1.773780 3.430230 13.000000 20 342.482637
1.109542 1.899535 2.986656 17.000000 18 342.482640
1.151357 1.971117 2.552955 18.000000 16 342.482642
1.162370 2.001986 2.354702 19.000000 15 342.482600
1.193871 2.056236 1.998901 22.000000 13 342.482602
1.223403 2.106253 1.681579 21.000000 11 342.482605
1.233449 2.123543 1.371503 59.000000 9 342.482608
0.855213 1.471771 0.776054 30.000000 7 342.482610
0.870528 1.497525 0.598762 26.000000 5 342.482613
0.886271 1.524607 0.426283 25.000000 3 342.482615
0.906182 1.558232 0.254459 11.000000 1 342.482618
1.178738 2.022854 2.165651 23.000000 14 342.482626
1.208084 2.073209 1.830735 26.000000 12 342.482628
1.238508 2.124567 1.530156 22.000000 10 342.482631
0.866841 1.486998 0.883138 27.000000 8 342.482633
0.871014 1.493557 0.690565 30.000000 6 342.482636
0.884302 1.515734 0.513960 28.000000 4 342.482638
0.913571 1.565275 0.344673 17.000000 2 342.482641
0.919333 1.574516 0.167224 11.000000 0 342.482643
0.027954 0.032734 3.379145 9.000000 31 342.482654
0.339774 0.548100 4.100008 98.000000 28 342.482657
0.450674 0.725083 4.127937 11.000000 27 342.482659
0.567783 0.954942 3.596715 9.000000 25 342.482662
0.574254 0.978051 2.731516 15.000000 23 342.482664
0.710806 1.211085 2.639693 23.000000 21 342.482667
1.084303 1.847436 3.218779 14.000000 19 342.482669
1.130412 1.925990 2.749436 15.000000 17 342.482672
0.117047 0.170330 3.403706 9.000000 30 342.482680
0.241884 0.370401 4.076370 97.000000 29 342.482682
0.555949 0.920155 4.173720 9.000000 26 342.482685
0.550806 0.934383 3.003785 14.000000 24 342.482687
0.624207 1.059728 2.605735 23.000000 22 342.482690
1.042269 1.770153 3.430230 13.000000 20 342.482693
1.116166 1.895651 2.986656 17.000000 18 342.482695
1.158231 1.967086 2.552955 18.000000 16 342.482698
1.171152 2.000994 2.358207 19.000000 15 342.482655
1.201042 2.052056 1.998901 22.000000 13 342.482658
1.230748 2.101969 1.681579 21.000000 11 342.482660
1.247570 2.130694 1.378457 31.000000 9 342.482663
0.862689 1.472777 0.777927 30.000000 7 342.482666
0.875750 1.494477 0.598762 27.000000 5 342.482668
0.891588 1.521504 0.426283 24.000000 3 342.482671
0.911615 1.555059 0.254459 11.000000 1 342.482673
1.187684 2.021947 2.168975 23.000000 14 342.482681
1.217361 2.072464 1.833678 26.000000 12 342.482684
1.248101 2.123948 1.532688 22.000000 10 342.482686
0.881224 1.499615 0.891530 26.000000 8 342.482689
0.878615 1.494578 0.692207 30.000000 6 342.482691
0.889587 1.512639 0.513960 29.000000 4 342.482694
0.921540 1.566345 0.345363 17.000000 2 342.482696
0.924823 1.571297 0.167224 10.000000 0 342.482699
0.028068 0.032636 3.379145 9.000000 31 342.482710
0.341273 0.546252 4.095069 98.000000 28 342.482712
0.453202 0.723506 4.127937 11.000000 27 342.482715
0.578024 0.964484 3.639660 9.000000 25 342.482717
0.576670 0.974359 2.726914 15.000000 23 342.482720
0.715029 1.208597 2.639693 23.000000 21 342.482722
1.092178 1.846062 3.222912 14.000000 19 342.482725
1.138760 1.924791 2.753273 15.000000 17 342.482728
0.117641 0.169920 3.403706 9.000000 30 342.482735
0.243175 0.369555 4.076370 97.000000 29 342.482738
0.559158 0.918209 4.173720 9.000000 26 342.482740
0.554946 0.933938 3.008478 14.000000 24 342.482743
0.627902 1.057543 2.605735 23.000000 22 342.482746
1.048442 1.766504 3.430230 13.000000 20 342.482748
1.124314 1.894335 2.990646 16.000000 18 342.482751
1.166820 1.965946 2.556630 18.000000 16 342.482753
1.179942 1.999966 2.361711 19.000000 15 342.482711
1.210176 2.051204 2.002039 22.000000 13 342.482713
1.238078 2.097661 1.681579 22.000000 11 342.482716
1.261755 2.137772 1.385411 22.000000 9 342.482719
0.867824 1.469757 0.777927 30.000000 7 342.482721
0.880961 1.491411 0.598762 27.000000 5 342.482724
0.899392 1.522612 0.427215 24.000000 3 342.482726
0.917038 1.551867 0.254459 12.000000 1 342.482729
1.194735 2.017789 2.168975 23.000000 14 342.482737
1.224588 2.068202 1.833678 26.000000 12 342.482739
1.255507 2.119578 1.532688 22.000000 10 342.482742
0.895705 1.512149 0.899922 25.000000 8 342.482744
0.886234 1.495565 0.693850 30.000000 6 342.482747
0.892383 1.505343 0.512787 29.000000 4 342.482749
0.927002 1.563119 0.345363 17.000000 2 342.482752
0.932852 1.572356 0.167426 10.000000 0 342.482754
0.028182 0.032538 3.379145 9.000000 31 342.482765
0.343178 0.545057 4.095069 98.000000 28 342.482768
0.455725 0.721919 4.127937 11.000000 27 342.482770
0.587566 0.972687 3.677834 10.000000 25 342.482773
0.580068 0.972341 2.726914 13.000000 23 342.482775
0.719243 1.206093 2.639693 23.000000 21 342.482778
1.098615 1.842238 3.222912 14.000000 19 342.482780
1.147114 1.923558 2.757110 15.000000 17 342.482783
0.118233 0.169509 3.403706 9.000000 30 342.482791
0.244464 0.368704 4.076370 97.000000 29 342.482793
0.562360 0.916251 4.173720 10.000000 26 342.482796
0.558203 0.931995 3.008478 14.000000 24 342.482798
0.631590 1.055345 2.605735 23.000000 22 342.482801
1.054601 1.762833 3.430230 13.000000 20 342.482804
1.130920 1.890398 2.990646 16.000000 18 342.482806
1.173676 1.961861 2.556630 18.000000 16 342.482809
1.186916 1.995835 2.361711 19.000000 15 342.482766
1.217328 2.046968 2.002039 22.000000 13 342.482769
1.247530 2.096920 1.684320 22.000000 11 342.482772
1.276005 2.144776 1.392365 22.000000 9 342.482774
0.875320 1.470702 0.779800 30.000000 7 342.482777
0.886162 1.488327 0.598762 26.000000 5 342.482779
0.904701 1.519463 0.427215 24.000000 3 342.482782
0.922449 1.548657 0.254459 12.000000 1 342.482784
1.203684 2.016813 2.172300 23.000000 14 342.482792
1.233871 2.067386 1.836621 26.000000 12 342.482795
1.265108 2.118885 1.535221 22.000000 10 342.482797
0.931224 1.559672 0.927197 25.000000 8 342.482800
0.891449 1.492462 0.693850 30.000000 6 342.482802
0.897633 1.502219 0.512787 29.000000 4 342.482805
0.932453 1.559873 0.345363 16.000000 2 342.482807
0.938335 1.569090 0.167426 10.000000 0 342.482810
0.028295 0.032440 3.379145 9.000000 31 342.482821
0.345078 0.543856 4.095069 99.000000 28 342.482823
0.458242 0.720324 4.127937 10.000000 27 342.482826
0.597172 0.980835 3.716008 10.000000 25 342.482828
0.583458 0.970310 2.726914 13.000000 23 342.482831
0.722215 1.201522 2.635305 23.000000 21 342.482833
1.106489 1.840804 3.227045 14.000000 19 342.482836
1.153821 1.919542 2.757110 15.000000 17 342.482839
0.118656 0.168859 3.398715 9.000000 30 342.482846
0.245452 0.367404 4.071399 97.000000 29 342.482849
0.565555 0.914283 4.173720 10.000000 26 342.482851
0.562344 0.931518 3.013170 15.000000 24 342.482854
0.635453 1.053023 2.605735 23.000000 22 342.482857
1.061055 1.758956 3.430230 13.000000 20 342.482859
1.139398 1.888821 2.994635 16.000000 18 342.482862
1.180858 1.957546 2.556630 18.000000 16 342.482864
1.195709 1.994738 2.365216 20.000000 15 342.482822
1.226467 2.046045 2.005176 22.000000 13 342.482824
1.254842 2.092552 1.684320 22.000000 11 342.482827
1.290319 2.151707 1.399319 19.000000 9 342.482830
0.880449 1.467638 0.779800 30.000000 7 342.482832
0.891352 1.485225 0.598762 26.000000 5 342.482835
0.910264 1.516137 0.427215 24.000000 3 342.482837
0.928119 1.545266 0.254459 11.000000 1 342.482840
1.211069 2.012388 2.172300 23.000000 14 342.482848
1.241440 2.062850 1.836621 26.000000 12 342.482850
1.272866 2.114233 1.535221 22.000000 10 342.482853
0.993116 1.649566 0.977550 22.000000 8 342.482855
0.896913 1.489185 0.693850 31.000000 6 342.482858
0.903132 1.498919 0.512787 28.000000 4 342.482860
0.935607 1.552204 0.344673 16.000000 2 342.482863
0.943806 1.565805 0.167426 11.000000 0 342.482866
0.028382 0.032306 3.374145 9.000000 31 342.482876
0.347069 0.542588 4.095069 99.000000 28 342.482879
0.460879 0.718640 4.127937 10.000000 27 342.482881
0.606233 0.987549 3.749410 9.000000 25 342.482884
0.588023 0.969835 2.731516 15.000000 23 342.482886
0.726614 1.198867 2.635305 22.000000 21 342.482889
1.113228 1.836736 3.227045 14.000000 19 342.482892
1.162511 1.918042 2.760947 15.000000 17 342.482894
0.119245 0.168444 3.398715 9.000000 30 342.482902
0.246733 0.366545 4.071399 97.000000 29 342.482904
0.568077 0.911236 4.168881 10.000000 26 342.482907
0.565592 0.929550 3.013170 15.000000 24 342.482910
0.639125 1.050798 2.605735 23.000000 22 342.482912
1.067189 1.755242 3.430230 13.000000 20 342.482915
1.145984 1.884833 2.994635 16.000000 18 342.482917
1.189104 1.956517 2.560305 18.000000 16 342.482920
1.203012 1.990342 2.365216 19.000000 15 342.482877
1.233958 2.041536 2.005176 23.000000 13 342.482880
1.262503 2.087939 1.684320 22.000000 11 342.482883
1.302781 2.154546 1.403955 18.000000 9 342.482885
0.887965 1.468523 0.781673 30.000000 7 342.482888
0.896531 1.482104 0.598762 26.000000 5 342.482890
0.915551 1.512951 0.427215 24.000000 3 342.482893
0.933508 1.542017 0.254459 12.000000 1 342.482895
1.220022 2.011341 2.175625 23.000000 14 342.482903
1.248633 2.058504 1.836621 26.000000 12 342.482906
1.279870 2.110001 1.535221 22.000000 10 342.482908
1.212776 1.999384 1.168473 20.000000 8 342.482911
0.901847 1.486202 0.693850 31.000000 6 342.482913
0.908098 1.495916 0.512787 28.000000 4 342.482916
0.940750 1.549093 0.344673 16.000000 2 342.482918
0.949266 1.562501 0.167426 11.000000 0 342.482921
0.028489 0.032211 3.374145 9.000000 31 342.482932
0.348867 0.541434 4.095069 98.000000 28 342.482934
0.463259 0.717107 4.127937 10.000000 27 342.482937
0.615004 0.994424 3.782812 10.000000 25 342.482939
0.592255 0.969547 2.736119 15.000000 23 342.482942
0.730585 1.196451 2.635305 22.000000 21 342.482944
1.119313 1.833034 3.227045 14.000000 19 342.482947
1.168865 1.914176 2.760947 15.000000 17 342.482950
0.119663 0.167792 3.393723 9.000000 30 342.482957
0.248011 0.365682 4.071399 97.000000 29 342.482960
0.571924 0.910312 4.173720 10.000000 26 342.482962
0.569736 0.929041 3.017864 15.000000 24 342.482965
0.642789 1.048561 2.605735 22.000000 22 342.482968
1.073309 1.751506 3.430230 13.000000 20 342.482970
1.154131 1.883391 2.998625 16.000000 18 342.482973
1.196267 1.952145 2.560305 18.000000 16 342.482975
1.211461 1.989388 2.368721 19.000000 15 342.482933
1.240721 2.037432 2.005176 23.000000 13 342.482936
1.271596 2.087312 1.687062 22.000000 11 342.482938
1.312224 2.153997 1.406273 17.000000 9 342.482941
0.893086 1.465414 0.781673 30.000000 7 342.482943
0.901699 1.478966 0.598762 24.000000 5 342.482946
0.920826 1.509745 0.427215 24.000000 3 342.482948
0.941478 1.543000 0.254906 12.000000 1 342.482951
1.227036 2.007070 2.175625 23.000000 14 342.482959
1.257919 2.057581 1.839564 26.000000 12 342.482961
1.289845 2.108974 1.537753 22.000000 10 342.482964
1.302975 2.130438 1.241905 21.000000 8 342.482966
0.907288 1.482887 0.693850 31.000000 6 342.482969
0.916112 1.496723 0.513960 28.000000 4 342.482971
0.946421 1.545635 0.344673 16.000000 2 342.482974
0.954714 1.559178 0.167426 11.000000 0 342.482977
0.028607 0.032107 3.374145 9.000000 31 342.482987
0.350849 0.540152 4.095069 98.000000 28 342.482990
0.465885 0.715405 4.127937 10.000000 27 342.482992
0.624177 1.001034 3.816214 10.000000 25 342.482995
0.596829 0.969033 2.740721 15.000000 23 342.482997
0.734966 1.193765 2.635305 24.000000 21 342.483000
1.127499 1.831316 3.231178 14.000000 19 342.483003
1.175873 1.909880 2.760947 15.000000 17 342.483005
0.120277 0.167352 3.393723 9.000000 30 342.483013
0.249349 0.364770 4.071399 97.000000 29 342.483015
0.575256 0.908210 4.173720 10.000000 26 342.483018
0.573137 0.926946 3.017864 14.000000 24 342.483021
0.645301 1.044458 2.601234 22.000000 22 342.483023
1.079417 1.747749 3.430230 13.000000 20 342.483026
1.160699 1.879351 2.998625 16.000000 18 342.483028
1.203074 1.947958 2.560305 19.000000 16 342.483031
1.220610 1.987973 2.372225 19.000000 15 342.482988
1.248181 2.032871 2.005176 23.000000 13 342.482991
1.279238 2.082637 1.687062 22.000000 11 342.482994
1.322429 2.152948 1.408591 17.000000 9 342.482996
0.900878 1.466081 0.783546 30.000000 7 342.482999
0.907114 1.475651 0.598762 24.000000 5 342.483001
0.928663 1.510707 0.428148 24.000000 3 342.483004
0.946859 1.539704 0.254906 12.000000 1 342.483006
1.235993 2.005954 2.178950 23.000000 14 342.483014
1.265094 2.053178 1.839564 26.000000 12 342.483017
1.297198 2.104459 1.537753 22.000000 10 342.483019
1.336600 2.168376 1.264983 23.000000 8 342.483022
0.912459 1.479711 0.693850 30.000000 6 342.483024
0.921331 1.493516 0.513960 29.000000 4 342.483027
0.954411 1.546536 0.345363 16.000000 2 342.483030
0.963047 1.559920 0.167627 11.000000 0 342.483032
0.028719 0.032007 3.374145 9.000000 31 342.483043
0.352732 0.538924 4.095069 99.000000 28 342.483045
0.468379 0.713774 4.127937 10.000000 27 342.483048
0.633231 1.007701 3.849616 10.000000 25 342.483050
0.601238 0.968604 2.745324 15.000000 23 342.483053
0.737865 1.189157 2.630916 24.000000 21 342.483056
1.133885 1.827369 3.231178 14.000000 19 342.483058
1.184223 1.908487 2.764784 15.000000 17 342.483061
0.120689 0.166697 3.388731 9.000000 30 342.483068
0.250621 0.363898 4.071399 98.000000 29 342.483071
0.577746 0.905136 4.168881 9.000000 26 342.483074
0.577282 0.926405 3.022556 15.000000 24 342.483076
0.648943 1.042199 2.601234 22.000000 22 342.483079
1.086889 1.746184 3.434496 13.000000 20 342.483081
1.167252 1.875288 2.998625 16.000000 18 342.483084
1.211658 1.946624 2.563981 19.000000 16 342.483086
1.227542 1.983701 2.372225 19.000000 15 342.483044
1.257318 2.031812 2.008314 23.000000 13 342.483047
1.288700 2.081714 1.689803 22.000000 11 342.483049
1.329936 2.148319 1.408591 17.000000 9 342.483052
0.905990 1.462927 0.783546 30.000000 7 342.483054
0.914786 1.476553 0.600171 26.000000 5 342.483057
0.933931 1.507456 0.428148 24.000000 3 342.483059
0.952227 1.536389 0.254906 13.000000 1 342.483062
1.244958 2.004800 2.182275 23.000000 14 342.483070
1.274386 2.052183 1.842507 26.000000 12 342.483072
1.306811 2.103580 1.540285 22.000000 10 342.483075
1.344161 2.163697 1.264983 23.000000 8 342.483077
0.917618 1.476517 0.693850 30.000000 6 342.483080
0.926539 1.490291 0.513960 29.000000 4 342.483082
0.959804 1.543195 0.345363 16.000000 2 342.483085
0.968486 1.556549 0.167627 11.000000 0 342.483088
0.028863 0.031936 3.379145 9.000000 31 342.483098
0.354611 0.537689 4.095069 98.000000 28 342.483101
0.470868 0.712135 4.127937 10.000000 27 342.483103
0.641540 1.013055 3.878246 10.000000 25 342.483106
0.604616 0.966500 2.745324 15.000000 23 342.483108
0.742011 1.186574 2.630916 24.000000 21 342.483111
1.141749 1.825786 3.235311 14.000000 19 342.483113
1.190877 1.904342 2.764784 15.000000 17 342.483116
0.121271 0.166275 3.388731 9.000000 30 342.483124
0.251890 0.363021 4.071399 97.000000 29 342.483126
0.580902 0.903114 4.168881 10.000000 26 342.483129
0.580512 0.924384 3.022556 15.000000 24 342.483131
0.652577 1.039927 2.601234 23.000000 22 342.483134
1.092978 1.742380 3.434496 13.000000 20 342.483136
1.175392 1.873755 3.002614 16.000000 18 342.483139
1.218445 1.942383 2.563981 18.000000 16 342.483142
1.236346 1.982430 2.375730 19.000000 15 342.483099
1.264402 2.027411 2.008314 23.000000 13 342.483102
1.295959 2.077203 1.689803 22.000000 11 342.483104
1.337427 2.143664 1.408591 18.000000 9 342.483107
0.913546 1.463689 0.785419 30.000000 7 342.483110
0.919934 1.473351 0.600171 26.000000 5 342.483112
0.939187 1.504187 0.428148 24.000000 3 342.483115
0.957585 1.533056 0.254906 12.000000 1 342.483117
1.251948 2.000442 2.182275 22.000000 14 342.483125
1.283686 2.051149 1.845450 26.000000 12 342.483128
1.314146 2.099005 1.540285 22.000000 10 342.483130
1.349298 2.155145 1.262885 23.000000 8 342.483133
0.922767 1.473305 0.693850 30.000000 6 342.483135
0.934316 1.491166 0.515132 29.000000 4 342.483138
0.967815 1.544031 0.346053 16.000000 2 342.483140
0.973914 1.553158 0.167627 11.000000 0 342.483143
0.029006 0.031864 3.384145 9.000000 31 342.483154
0.356055 0.535801 4.090130 99.000000 28 342.483156
0.473351 0.710487 4.127937 10.000000 27 342.483159
0.650697 1.019622 3.911649 10.000000 25 342.483161
0.609028 0.966036 2.749927 15.000000 23 342.483164
0.746149 1.183976 2.630916 24.000000 21 342.483166
1.149615 1.824170 3.239444 14.000000 19 342.483169
1.199227 1.902886 2.768620 15.000000 17 342.483171
0.121850 0.165851 3.388731 9.000000 30 342.483179
0.253156 0.362139 4.071399 97.000000 29 342.483182
0.584051 0.901081 4.168881 10.000000 26 342.483184
0.583735 0.922352 3.022556 15.000000 24 342.483187
0.655039 1.035802 2.596734 23.000000 22 342.483189
1.099053 1.738554 3.434496 13.000000 20 342.483192
1.181926 1.869641 3.002614 16.000000 18 342.483195
1.225218 1.938118 2.563981 18.000000 16 342.483197
1.243259 1.978102 2.375730 19.000000 15 342.483155
1.273543 2.026281 2.011452 23.000000 13 342.483157
1.305428 2.076207 1.692545 22.000000 11 342.483160
1.344901 2.138982 1.408591 19.000000 9 342.483162
0.918650 1.460491 0.785419 30.000000 7 342.483165
0.927626 1.474192 0.601580 26.000000 5 342.483168
0.947048 1.505057 0.429081 23.000000 3 342.483170
0.965583 1.533919 0.255352 10.000000 1 342.483173
1.260916 1.999218 2.185600 22.000000 14 342.483180
1.290838 2.046655 1.845450 26.000000 12 342.483183
1.323766 2.098051 1.542818 22.000000 10 342.483186
1.361656 2.158098 1.267081 24.000000 8 342.483188
0.927904 1.470075 0.693850 30.000000 6 342.483191
0.939516 1.487896 0.515132 29.000000 4 342.483193
0.973199 1.540643 0.346053 17.000000 2 342.483196
0.979329 1.549749 0.167627 10.000000 0 342.483198
0.029149 0.031792 3.389144 9.000000 31 342.483209
0.357924 0.534555 4.090130 99.000000 28 342.483212
0.475828 0.708830 4.127937 10.000000 27 342.483214
0.659908 1.026137 3.945050 10.000000 25 342.483217
0.612396 0.963904 2.749927 15.000000 23 342.483219
0.748993 1.179342 2.626528 24.000000 21 342.483222
1.155976 1.820145 3.239444 14.000000 19 342.483224
1.207581 1.901394 2.772458 15.000000 17 342.483227
0.122602 0.165656 3.393723 9.000000 30 342.483235
0.254418 0.361253 4.071399 97.000000 29 342.483237
0.587193 0.899037 4.168881 10.000000 26 342.483240
0.587879 0.921764 3.027249 15.000000 24 342.483242
0.658651 1.033510 2.596734 23.000000 22 342.483245
1.105115 1.734707 3.434496 13.000000 20 342.483248
1.190064 1.868045 3.006604 16.000000 18 342.483250
1.233798 1.936689 2.567656 18.000000 16 342.483253
1.250156 1.973750 2.375730 19.000000 15 342.483210
1.280608 2.021823 2.011452 23.000000 13 342.483213
