# .PCD v.7 - Point Cloud Data file format
VERSION .7
FIELDS x y z intensity ring timestamp
SIZE 4 4 4 4 2 8
TYPE F F F F U D
COUNT 1 1 1 1 1 1
WIDTH 925
HEIGHT 1
VIEWPOINT 0 0 0 1 0 0 0
POINTS 925
DATA ascii
-0.654547 1.601501 1.779957 21.000000 15 343.869777
-0.694833 1.700077 1.562750 25.000000 13 343.869780
-0.713982 1.747803 1.322447 19.000000 11 343.869782
-0.734348 1.797664 1.102612 22.000000 9 343.869785
-0.753840 1.846301 0.894055 26.000000 7 343.869788
-1.174376 2.879151 0.681821 2.000000 3 343.869793
-0.212369 0.520908 0.143353 22.000000 1 343.869795
-0.666736 1.639488 1.656949 25.000000 14 343.869803
-0.704455 1.732247 1.445181 23.000000 12 343.869806
-0.716596 1.762982 1.203473 20.000000 10 343.869808
-0.745533 1.834182 1.002727 24.000000 8 343.869811
-0.755637 1.859972 0.787483 27.000000 6 343.869813
-0.921715 2.269904 0.681601 22.000000 4 343.869816
-0.212208 0.522860 0.116438 52.000000 0 343.869821
-0.009820 0.050448 4.339108 100.000000 31 343.869832
-0.376664 1.004715 6.821540 9.000000 28 343.869834
-0.369446 0.988554 5.097192 8.000000 27 343.869837
-0.547564 1.381292 4.794417 8.000000 25 343.869839
-0.531820 1.320225 3.412690 9.000000 23 343.869842
-0.576867 1.431350 2.894236 13.000000 21 343.869844
-0.612450 1.519649 2.478981 15.000000 19 343.869847
-0.640646 1.589621 2.127851 14.000000 17 343.869849
-0.080773 0.251646 4.397037 100.000000 30 343.869857
-0.159580 0.458100 4.474083 101.000000 29 343.869860
-0.471031 1.213243 5.044777 9.000000 26 343.869862
-0.504960 1.259876 3.745242 11.000000 24 343.869865
-0.552828 1.377934 3.132333 12.000000 22 343.869867
-0.591310 1.473125 2.666628 14.000000 20 343.869870
-0.626351 1.560430 2.300462 17.000000 18 343.869873
-0.634388 1.580461 1.924502 17.000000 16 343.869875
-0.647336 1.600583 1.776452 22.000000 15 343.869833
-0.687138 1.699004 1.559612 26.000000 13 343.869835
-0.704437 1.742655 1.316964 20.000000 11 343.869838
-0.726094 1.796236 1.100294 22.000000 9 343.869841
-0.743595 1.840455 0.890309 25.000000 7 343.869843
-0.765364 1.895289 0.690360 14.000000 5 343.869846
-0.917844 2.272879 0.556850 3.000000 3 343.869848
-0.210550 0.521646 0.143353 25.000000 1 343.869851
-0.658219 1.634877 1.650299 26.000000 14 343.869859
-0.695385 1.727197 1.439294 24.000000 12 343.869861
-0.707218 1.757474 1.198408 21.000000 10 343.869864
-0.737431 1.832563 1.000629 24.000000 8 343.869866
-0.747378 1.858217 0.785840 26.000000 6 343.869869
-0.908347 2.259578 0.678084 23.000000 4 343.869871
-0.210290 0.523635 0.116438 47.000000 0 343.869876
-0.009644 0.050481 4.339108 100.000000 31 343.869887
-0.370185 0.998009 6.767208 8.000000 28 343.869890
-0.367404 0.993658 5.116774 8.000000 27 343.869892
-0.550375 1.402661 4.861221 8.000000 25 343.869895
-0.525038 1.316630 3.398882 8.000000 23 343.869897
-0.571867 1.433355 2.894236 13.000000 21 343.869900
-0.606099 1.519164 2.474849 15.000000 19 343.869902
-0.633906 1.588870 2.124014 15.000000 17 343.869905
-0.079981 0.252203 4.402028 101.000000 30 343.869913
-0.157980 0.458654 4.474083 101.000000 29 343.869915
-0.466342 1.213706 5.039937 9.000000 26 343.869918
-0.499286 1.258422 3.735857 10.000000 24 343.869920
-0.548015 1.379855 3.132333 12.000000 22 343.869923
-0.585202 1.472756 2.662362 14.000000 20 343.869926
-0.618674 1.557005 2.292484 17.000000 18 343.869928
-0.625112 1.573214 1.913476 18.000000 16 343.869931
-0.640419 1.599522 1.772948 22.000000 15 343.869888
-0.679756 1.697778 1.556474 25.000000 13 343.869891
-0.696797 1.741221 1.314222 20.000000 11 343.869893
-0.718174 1.794647 1.097975 23.000000 9 343.869896
-0.735444 1.838735 0.888436 25.000000 7 343.869899
-0.749840 1.875676 0.683314 23.000000 5 343.869901
-0.915375 2.289752 0.559647 16.000000 3 343.869904
-0.208728 0.522378 0.143353 24.000000 1 343.869906
-0.651126 1.633696 1.646974 26.000000 14 343.869914
-0.687855 1.725859 1.436351 24.000000 12 343.869917
-0.699484 1.755927 1.195875 20.000000 10 343.869919
-0.727671 1.826693 0.996432 24.000000 8 343.869922
-0.739140 1.856427 0.784198 25.000000 6 343.869924
-0.895063 2.249187 0.674567 21.000000 4 343.869927
-0.208461 0.524366 0.116438 47.000000 0 343.869932
-0.009467 0.050515 4.339108 100.000000 31 343.869943
-0.365095 0.994918 6.737572 8.000000 28 343.869945
-0.364283 0.995891 5.121668 7.000000 27 343.869948
-0.544935 1.403181 4.856450 8.000000 25 343.869950
-0.519004 1.314820 3.389677 8.000000 23 343.869953
-0.566860 1.435342 2.894236 13.000000 21 343.869955
-0.599759 1.518653 2.470716 16.000000 19 343.869958
-0.627178 1.588091 2.120177 15.000000 17 343.869961
-0.079100 0.252481 4.402028 101.000000 30 343.869968
-0.156378 0.459203 4.474083 101.000000 29 343.869971
-0.461209 1.212974 5.030260 9.000000 26 343.869973
-0.494260 1.258551 3.731164 10.000000 24 343.869976
-0.543195 1.381760 3.132333 12.000000 22 343.869979
-0.580057 1.474790 2.662362 14.000000 20 343.869981
-0.611029 1.553545 2.284504 17.000000 18 343.869984
-0.617135 1.569076 1.906126 18.000000 16 343.869986
-0.632204 1.595117 1.765939 23.000000 15 343.869944
-0.672391 1.696522 1.553337 24.000000 13 343.869946
-0.689174 1.739755 1.311481 20.000000 11 343.869949
-0.708642 1.788905 1.093340 23.000000 9 343.869952
-0.727315 1.836981 0.886563 25.000000 7 343.869954
-0.737992 1.864900 0.679086 23.000000 5 343.869957
-0.905569 2.288367 0.558715 20.000000 3 343.869959
-0.206903 0.523104 0.143353 23.000000 1 343.869962
-0.644049 1.632485 1.643649 26.000000 14 343.869970
-0.678860 1.720730 1.430465 24.000000 12 343.869972
-0.690187 1.750336 1.190811 20.000000 10 343.869975
-0.719625 1.825000 0.994335 24.000000 8 343.869977
-0.729192 1.850208 0.780912 26.000000 6 343.869980
-0.206630 0.525090 0.116438 45.000000 0 343.869987
-0.009291 0.050548 4.339108 97.000000 31 343.869998
-0.356323 0.981577 6.638787 8.000000 28 343.870001
-0.363573 1.004817 5.160830 7.000000 27 343.870003
-0.545391 1.419016 4.904167 9.000000 25 343.870006
-0.513700 1.314804 3.385075 8.000000 23 343.870008
-0.561847 1.437312 2.894236 14.000000 21 343.870011
-0.593429 1.518116 2.466583 16.000000 19 343.870013
-0.620464 1.587285 2.116340 15.000000 17 343.870016
-0.078218 0.252755 4.402028 100.000000 30 343.870024
-0.154774 0.459746 4.474083 101.000000 29 343.870026
-0.456529 1.213400 5.025420 9.000000 26 343.870029
-0.489238 1.258660 3.726471 10.000000 24 343.870031
-0.538368 1.383647 3.132333 13.000000 22 343.870034
-0.573959 1.474375 2.658096 14.000000 20 343.870037
-0.604510 1.552860 2.280515 17.000000 18 343.870039
-0.610424 1.568062 1.902451 19.000000 16 343.870042
-0.625330 1.593994 1.762434 23.000000 15 343.869999
-0.665043 1.695234 1.550199 22.000000 13 343.870002
-0.680045 1.734364 1.305998 20.000000 11 343.870005
-0.700776 1.787243 1.091021 23.000000 9 343.870007
-0.719207 1.835192 0.884690 25.000000 7 343.870010
-0.731478 1.867464 0.679086 22.000000 5 343.870012
-0.895784 2.286940 0.557782 22.000000 3 343.870015
-0.205076 0.523823 0.143353 23.000000 1 343.870017
-0.636988 1.631245 1.640325 26.000000 14 343.870025
-0.669909 1.715559 1.424579 24.000000 12 343.870028
-0.682506 1.748719 1.188278 20.000000 10 343.870030
-0.709950 1.819045 0.990138 24.000000 8 343.870033
-0.721013 1.848343 0.779270 26.000000 6 343.870035
-0.743386 1.906678 0.584299 13.000000 4 343.870038
-0.202982 0.521153 0.116237 45.000000 0 343.870043
-0.009119 0.050623 4.344109 97.000000 31 343.870054
-0.343714 0.957216 6.465913 8.000000 28 343.870056
-0.539372 1.418119 4.894623 10.000000 25 343.870061
-0.507698 1.312944 3.375870 8.000000 23 343.870064
-0.557690 1.441499 2.898624 14.000000 21 343.870066
-0.588126 1.520178 2.466583 16.000000 19 343.870069
-0.613762 1.586451 2.112503 16.000000 17 343.870072
-0.077335 0.253027 4.402028 100.000000 30 343.870079
-0.153168 0.460283 4.474083 101.000000 29 343.870082
-0.451852 1.213807 5.020581 9.000000 26 343.870084
-0.484222 1.258750 3.721778 10.000000 24 343.870087
-0.533535 1.385518 3.132333 13.000000 22 343.870090
-0.569747 1.478803 2.662362 14.000000 20 343.870092
-0.596918 1.549336 2.272536 17.000000 18 343.870095
-0.602510 1.563856 1.895101 20.000000 16 343.870097
-0.618471 1.592843 1.758929 23.000000 15 343.870055
-0.657713 1.693917 1.547061 20.000000 13 343.870057
-0.672474 1.732829 1.303257 19.000000 11 343.870060
-0.691327 1.781418 1.086385 22.000000 9 343.870063
-0.709443 1.829047 0.880944 25.000000 7 343.870065
-0.723221 1.865533 0.677677 22.000000 5 343.870068
-0.882469 2.276312 0.554984 22.000000 3 343.870070
-0.203246 0.524535 0.143353 27.000000 1 343.870073
-0.629944 1.629975 1.637000 26.000000 14 343.870081
-0.661002 1.710346 1.418692 25.000000 12 343.870083
-0.674844 1.747069 1.185746 21.000000 10 343.870086
-0.701961 1.817278 0.988040 24.000000 8 343.870088
-0.712856 1.846443 0.777627 25.000000 6 343.870091
-0.729726 1.891123 0.579609 25.000000 4 343.870093
-0.201162 0.521858 0.116237 42.000000 0 343.870099
-0.008942 0.050655 4.344109 100.000000 31 343.870109
-0.325045 0.915204 6.174497 8.000000 28 343.870112
-0.533367 1.417198 4.885080 10.000000 25 343.870117
-0.502414 1.312884 3.371267 8.000000 23 343.870119
-0.554368 1.447912 2.907402 14.000000 21 343.870122
-0.581810 1.519594 2.462450 16.000000 19 343.870125
-0.607075 1.585590 2.108666 16.000000 17 343.870127
-0.076452 0.253295 4.402028 100.000000 30 343.870135
-0.151561 0.460815 4.474083 101.000000 29 343.870137
-0.447178 1.214196 5.015742 9.000000 26 343.870140
-0.478598 1.257207 3.712393 10.000000 24 343.870143
-0.527920 1.385337 3.127832 13.000000 22 343.870145
-0.565511 1.483220 2.666628 14.000000 20 343.870148
-0.592580 1.554227 2.276525 16.000000 18 343.870150
-0.595839 1.562782 1.891425 20.000000 16 343.870153
-0.611628 1.591663 1.755425 23.000000 15 343.870110
-0.650400 1.692568 1.543923 20.000000 13 343.870113
-0.664922 1.731263 1.300515 19.000000 11 343.870116
-0.683516 1.779685 1.084067 22.000000 9 343.870118
-0.701393 1.827184 0.879071 25.000000 7 343.870121
-0.714986 1.863568 0.676268 21.000000 5 343.870123
-0.876277 2.283965 0.555917 18.000000 3 343.870126
-0.201414 0.525242 0.143353 27.000000 1 343.870128
-0.621583 1.625188 1.630350 26.000000 14 343.870136
-0.653584 1.708868 1.415749 25.000000 12 343.870139
-0.667202 1.745386 1.183213 20.000000 10 343.870141
-0.693993 1.815478 0.985942 24.000000 8 343.870144
-0.703036 1.840097 0.774342 24.000000 6 343.870146
-0.721387 1.889117 0.578437 23.000000 4 343.870149
-0.199339 0.522557 0.116237 39.000000 0 343.870154
-0.008765 0.050686 4.344109 100.000000 31 343.870165
-0.304359 0.866476 5.838627 8.000000 28 343.870167
-0.412172 1.177734 6.022390 9.000000 27 343.870170
-0.527374 1.416252 4.875536 10.000000 25 343.870172
-0.497136 1.312803 3.366665 8.000000 23 343.870175
-0.551009 1.454319 2.916179 14.000000 21 343.870177
-0.577499 1.524247 2.466583 16.000000 19 343.870180
-0.601536 1.587699 2.108666 16.000000 17 343.870183
-0.075567 0.253560 4.402028 100.000000 30 343.870190
-0.149951 0.461341 4.474083 101.000000 29 343.870193
-0.442937 1.215750 5.015742 9.000000 26 343.870195
-0.473598 1.257255 3.707700 11.000000 24 343.870198
-0.523081 1.387172 3.127832 13.000000 22 343.870201
-0.561250 1.487625 2.670894 13.000000 20 343.870203
-0.588215 1.559106 2.280515 16.000000 18 343.870206
-0.590381 1.564852 1.891425 21.000000 16 343.870208
-0.604801 1.590455 1.751920 24.000000 15 343.870166
-0.644487 1.694828 1.543923 19.000000 13 343.870169
-0.657389 1.729664 1.297774 20.000000 11 343.870171
-0.675726 1.777919 1.081749 22.000000 9 343.870174
-0.693364 1.825287 0.877198 25.000000 7 343.870176
-0.705071 1.857082 0.673449 21.000000 5 343.870179
-0.199579 0.525941 0.143353 29.000000 1 343.870184
-0.614584 1.623856 1.627025 27.000000 14 343.870192
-0.644754 1.703578 1.409863 24.000000 12 343.870194
-0.659580 1.743673 1.180681 21.000000 10 343.870197
-0.684440 1.809400 0.981746 24.000000 8 343.870199
-0.694938 1.838123 0.772699 24.000000 6 343.870202
-0.714788 1.891624 0.578437 23.000000 4 343.870204
-0.843296 2.232890 0.424692 3.000000 2 343.870207
-0.197514 0.523250 0.116237 38.000000 0 343.870210
-0.008588 0.050716 4.344109 100.000000 31 343.870220
-0.289110 0.832297 5.601543 9.000000 28 343.870223
-0.409722 1.183977 6.046866 8.000000 27 343.870225
-0.521912 1.416682 4.870765 10.000000 25 343.870228
-0.491180 1.310871 3.357460 9.000000 23 343.870230
-0.547611 1.460720 2.924956 12.000000 21 343.870233
-0.573163 1.528889 2.470716 16.000000 19 343.870236
-0.595991 1.589789 2.108666 16.000000 17 343.870238
-0.074681 0.253823 4.402028 100.000000 30 343.870246
-0.148503 0.462370 4.479054 101.000000 29 343.870248
-0.438264 1.216105 5.010902 9.000000 26 343.870251
-0.468604 1.257284 3.703007 11.000000 24 343.870254
-0.518236 1.388989 3.127832 13.000000 22 343.870256
-0.556966 1.492018 2.675160 12.000000 20 343.870259
-0.583823 1.563973 2.284504 16.000000 18 343.870261
-0.583729 1.563728 1.887750 21.000000 16 343.870264
-0.597989 1.589219 1.748416 24.000000 15 343.870221
-0.637197 1.693424 1.540785 19.000000 13 343.870224
-0.649875 1.728035 1.295032 20.000000 11 343.870227
-0.667956 1.776120 1.079431 22.000000 9 343.870229
-0.683727 1.819018 0.873452 25.000000 7 343.870232
-0.696897 1.855041 0.672040 20.000000 5 343.870234
-0.727291 1.935945 0.484105 17.000000 3 343.870237
-0.199493 0.531297 0.143799 28.000000 1 343.870239
-0.607602 1.622494 1.623700 26.000000 14 343.870247
-0.637386 1.702033 1.406920 24.000000 12 343.870250
-0.651978 1.741927 1.178148 21.000000 10 343.870252
-0.676529 1.807527 0.979648 24.000000 8 343.870255
-0.686863 1.836114 0.771056 25.000000 6 343.870257
-0.704776 1.885002 0.576092 23.000000 4 343.870260
-0.842431 2.254375 0.427451 4.000000 2 343.870263
-0.197434 0.528616 0.116438 36.000000 0 343.870265
-0.008411 0.050745 4.344109 100.000000 31 343.870276
-0.277633 0.808312 5.433608 10.000000 28 343.870278
-0.405586 1.185400 6.046866 8.000000 27 343.870281
-0.516452 1.417092 4.865993 10.000000 25 343.870283
-0.485243 1.308914 3.348254 9.000000 23 343.870286
-0.544175 1.467115 2.933734 12.000000 21 343.870289
-0.568801 1.533518 2.474849 16.000000 19 343.870291
-0.591552 1.594866 2.112503 15.000000 17 343.870294
-0.073795 0.254082 4.402028 100.000000 30 343.870301
-0.146888 0.462886 4.479054 101.000000 29 343.870304
-0.434016 1.217628 5.010902 8.000000 26 343.870307
-0.463615 1.257293 3.698314 12.000000 24 343.870309
-0.513384 1.390790 3.127832 12.000000 22 343.870312
-0.553562 1.498847 2.683692 12.000000 20 343.870314
-0.580449 1.571656 2.292484 16.000000 18 343.870317
-0.579441 1.568936 1.891425 20.000000 16 343.870319
-0.591194 1.587954 1.744911 24.000000 15 343.870277
-0.629923 1.691990 1.537648 21.000000 13 343.870280
-0.640923 1.722455 1.289549 19.000000 11 343.870282
-0.658662 1.770136 1.074795 23.000000 9 343.870285
-0.675757 1.817048 0.871579 25.000000 7 343.870287
-0.688746 1.852965 0.670631 20.000000 5 343.870290
-0.705126 1.897032 0.475712 23.000000 3 343.870292
-0.197637 0.531990 0.143799 28.000000 1 343.870295
-0.600638 1.621103 1.620375 26.000000 14 343.870303
-0.630036 1.700457 1.403976 25.000000 12 343.870305
-0.644397 1.740149 1.175616 21.000000 10 343.870308
-0.667063 1.801366 0.975452 24.000000 8 343.870310
-0.678810 1.834072 0.769414 24.000000 6 343.870313
-0.696506 1.882892 0.574920 23.000000 4 343.870315
-0.832839 2.252657 0.426761 5.000000 2 343.870318
-0.195588 0.529302 0.116438 35.000000 0 343.870321
-0.008234 0.050775 4.344109 100.000000 31 343.870332
-0.272564 0.802653 5.389154 10.000000 28 343.870335
-0.395905 1.170410 5.963647 8.000000 27 343.870337
-0.510996 1.417481 4.861221 11.000000 25 343.870340
-0.479326 1.306931 3.339050 9.000000 23 343.870342
-0.540701 1.473504 2.942511 12.000000 21 343.870345
-0.565384 1.540778 2.483114 14.000000 19 343.870347
-0.587086 1.599931 2.116340 15.000000 17 343.870350
-0.072908 0.254338 4.402028 100.000000 30 343.870358
-0.145271 0.463396 4.479054 101.000000 29 343.870360
-0.429345 1.217949 5.006063 8.000000 26 343.870363
-0.458041 1.255661 3.688929 12.000000 24 343.870365
-0.508526 1.392573 3.127832 12.000000 22 343.870368
-0.550117 1.505669 2.692224 12.000000 20 343.870370
-0.575993 1.576503 2.296473 16.000000 18 343.870373
-0.573961 1.570949 1.891425 20.000000 16 343.870376
-0.585648 1.590008 1.744911 24.000000 15 343.870333
-0.622668 1.690525 1.534510 21.000000 13 343.870336
-0.633462 1.720758 1.286808 19.000000 11 343.870338
-0.650949 1.768268 1.072477 22.000000 9 343.870341
-0.666209 1.810694 0.867833 25.000000 7 343.870344
-0.680618 1.850856 0.669222 20.000000 5 343.870346
-0.698500 1.899482 0.475712 23.000000 3 343.870349
-0.195779 0.532677 0.143799 25.000000 1 343.870351
-0.593690 1.619684 1.617051 27.000000 14 343.870359
-0.621314 1.695056 1.398090 25.000000 12 343.870362
-0.636836 1.738340 1.173084 21.000000 10 343.870364
-0.659210 1.799422 0.973354 24.000000 8 343.870367
-0.670780 1.831996 0.767771 24.000000 6 343.870369
-0.686588 1.876183 0.572576 22.000000 4 343.870372
-0.193739 0.529982 0.116438 32.000000 0 343.870377
-0.008057 0.050803 4.344109 100.000000 31 343.870388
-0.267538 0.796969 5.344702 11.000000 28 343.870390
-0.386333 1.155367 5.880429 8.000000 27 343.870393
-0.506045 1.419256 4.861221 12.000000 25 343.870395
-0.473428 1.304924 3.329844 9.000000 23 343.870398
-0.537189 1.479886 2.951288 12.000000 21 343.870400
-0.560962 1.545388 2.487247 14.000000 19 343.870403
-0.583685 1.607997 2.124014 14.000000 17 343.870405
-0.072019 0.254591 4.402028 100.000000 30 343.870413
-0.143495 0.463390 4.474083 101.000000 29 343.870416
-0.427575 1.226567 5.035099 8.000000 26 343.870418
-0.452484 1.254006 3.679543 11.000000 24 343.870421
-0.503662 1.394340 3.127832 12.000000 22 343.870423
-0.546630 1.512486 2.700756 12.000000 20 343.870426
-0.572536 1.584173 2.304452 15.000000 18 343.870429
-0.569627 1.576131 1.895101 18.000000 16 343.870431
-0.578873 1.588692 1.741407 22.000000 15 343.870389
-0.615430 1.689031 1.531372 21.000000 13 343.870391
-0.624590 1.715100 1.281325 19.000000 11 343.870394
-0.643257 1.766366 1.070159 22.000000 9 343.870396
-0.658298 1.808652 0.865960 25.000000 7 343.870399
-0.672514 1.848712 0.667813 20.000000 5 343.870402
-0.690186 1.897292 0.474779 23.000000 3 343.870404
-0.193918 0.533357 0.143799 24.000000 1 343.870407
-0.586760 1.618235 1.613726 28.000000 14 343.870414
-0.614016 1.693415 1.395147 25.000000 12 343.870417
-0.629295 1.736499 1.170551 21.000000 10 343.870420
-0.651378 1.797445 0.971256 24.000000 8 343.870422
-0.661165 1.825445 0.764485 24.000000 6 343.870425
-0.678380 1.873997 0.571403 23.000000 4 343.870427
-0.191888 0.530655 0.116438 31.000000 0 343.870432
-0.007879 0.050831 4.344109 100.000000 31 343.870443
-0.260112 0.783884 5.250855 11.000000 28 343.870446
-0.372403 1.126735 5.728676 8.000000 27 343.870448
-0.501087 1.421014 4.861221 12.000000 25 343.870451
-0.467551 1.302891 3.320639 8.000000 23 343.870453
-0.533639 1.486262 2.960066 11.000000 21 343.870456
-0.557466 1.552633 2.495513 13.000000 19 343.870458
-0.579152 1.613042 2.127851 14.000000 17 343.870461
-0.071130 0.254841 4.402028 100.000000 30 343.870469
-0.141877 0.463888 4.474083 101.000000 29 343.870471
-0.423291 1.228052 5.035099 8.000000 26 343.870474
-0.446943 1.252327 3.670158 11.000000 24 343.870476
-0.498548 1.396176 3.127832 12.000000 22 343.870479
-0.542838 1.519391 2.709287 12.000000 20 343.870482
-0.567740 1.589099 2.308441 15.000000 18 343.870484
-0.564986 1.581401 1.898776 18.000000 16 343.870487
-0.573324 1.590703 1.741407 22.000000 15 343.870444
-0.608211 1.687506 1.528234 21.000000 13 343.870447
-0.617182 1.713336 1.278583 19.000000 11 343.870449
-0.635585 1.764433 1.067841 22.000000 9 343.870452
-0.650411 1.806578 0.864087 24.000000 7 343.870455
-0.664432 1.846535 0.666403 21.000000 5 343.870457
-0.683227 1.899809 0.474779 23.000000 3 343.870460
-0.193646 0.538751 0.144246 18.000000 1 343.870462
-0.579565 1.616860 1.610401 29.000000 14 343.870470
-0.606441 1.691849 1.392204 26.000000 12 343.870473
-0.620018 1.730676 1.165486 21.000000 10 343.870475
-0.643255 1.795547 0.969158 24.000000 8 343.870478
-0.652878 1.823410 0.762843 24.000000 6 343.870480
-0.668232 1.867318 0.569059 23.000000 4 343.870483
-0.690400 1.930329 0.377784 13.000000 2 343.870485
-0.190034 0.531321 0.116438 35.000000 0 343.870488
-0.007693 0.050859 4.344109 100.000000 31 343.870499
-0.253612 0.773755 5.176767 12.000000 28 343.870501
-0.359432 1.100987 5.591610 7.000000 27 343.870504
-0.495384 1.421431 4.856450 13.000000 25 343.870506
-0.461466 1.300913 3.311435 8.000000 23 343.870509
-0.530592 1.494981 2.973232 11.000000 21 343.870511
-0.552713 1.557318 2.499646 13.000000 19 343.870514
-0.575381 1.621196 2.135525 14.000000 17 343.870516
-0.070240 0.255087 4.402028 101.000000 30 343.870524
-0.140257 0.464380 4.474083 101.000000 29 343.870527
-0.425490 1.248572 5.112526 9.000000 26 343.870529
-0.441995 1.252252 3.665465 11.000000 24 343.870532
-0.493672 1.397908 3.127832 12.000000 22 343.870534
-0.539269 1.526195 2.717820 12.000000 20 343.870537
-0.564197 1.596755 2.316420 15.000000 18 343.870540
-0.561999 1.589658 1.906126 17.000000 16 343.870542
-0.567490 1.592794 1.741407 21.000000 15 343.870500
-0.600715 1.686057 1.525097 23.000000 13 343.870502
-0.609496 1.711648 1.275842 19.000000 11 343.870505
-0.627628 1.762577 1.065523 23.000000 9 343.870508
-0.640990 1.800102 0.860340 24.000000 7 343.870510
-0.656374 1.844323 0.664994 20.000000 5 343.870513
-0.674945 1.897554 0.473846 22.000000 3 343.870515
-0.191765 0.539423 0.144246 16.000000 1 343.870518
-0.572669 1.615353 1.607076 29.000000 14 343.870526
-0.599181 1.690146 1.389261 26.000000 12 343.870528
-0.612835 1.728659 1.162954 21.000000 10 343.870531
-0.635781 1.793393 0.967060 24.000000 8 343.870533
-0.645251 1.821114 0.761200 24.000000 6 343.870536
-0.660413 1.864942 0.567886 23.000000 4 343.870538
-0.687300 1.941945 0.379164 14.000000 2 343.870541
-0.188178 0.531981 0.116438 38.000000 0 343.870543
-0.007524 0.050885 4.344109 100.000000 31 343.870554
-0.247218 0.762764 5.097739 12.000000 28 343.870557
-0.348593 1.079884 5.479020 7.000000 27 343.870559
-0.490668 1.423066 4.856450 12.000000 25 343.870562
-0.455208 1.296906 3.297627 9.000000 23 343.870564
-0.528013 1.503514 2.986398 9.000000 21 343.870567
-0.549410 1.564452 2.507912 12.000000 19 343.870569
-0.571064 1.626120 2.139362 14.000000 17 343.870572
-0.069349 0.255331 4.402028 100.000000 30 343.870580
-0.138483 0.464355 4.469112 102.000000 29 343.870582
-0.426749 1.266739 5.180275 9.000000 26 343.870585
-0.436484 1.250529 3.656080 11.000000 24 343.870587
-0.489033 1.399538 3.127832 12.000000 22 343.870590
-0.535926 1.532899 2.726351 11.000000 20 343.870593
-0.559894 1.601462 2.320410 15.000000 18 343.870595
-0.557566 1.594811 1.909801 17.000000 16 343.870598
-0.562205 1.594667 1.741407 21.000000 15 343.870555
-0.593826 1.684369 1.521959 25.000000 13 343.870558
-0.602427 1.709715 1.273100 19.000000 11 343.870560
-0.620308 1.760470 1.063205 23.000000 9 343.870563
-0.633163 1.797956 0.858467 25.000000 7 343.870566
-0.648339 1.842078 0.663585 20.000000 5 343.870568
-0.667018 1.895149 0.472914 22.000000 3 343.870571
-0.191627 0.544754 0.144692 14.000000 1 343.870573
-0.567310 1.617243 1.607076 29.000000 14 343.870581
-0.592235 1.688309 1.386317 26.000000 12 343.870584
-0.605371 1.726719 1.160421 22.000000 10 343.870586
-0.628016 1.791318 0.964962 25.000000 8 343.870589
-0.637328 1.818898 0.759557 24.000000 6 343.870591
-0.652293 1.862648 0.566714 23.000000 4 343.870594
-0.672337 1.920961 0.375715 7.000000 2 343.870596
-0.187970 0.537351 0.116640 36.000000 0 343.870599
-0.007347 0.050911 4.344109 100.000000 31 343.870610
-0.241004 0.752521 5.023650 12.000000 28 343.870612
-0.339567 1.064602 5.395802 8.000000 27 343.870615
-0.485216 1.423356 4.851678 12.000000 25 343.870617
-0.449398 1.294796 3.288422 9.000000 23 343.870620
-0.525119 1.512137 2.999564 9.000000 21 343.870622
-0.545792 1.571677 2.516178 12.000000 19 343.870625
-0.566436 1.631132 2.143198 13.000000 17 343.870628
-0.068458 0.255572 4.402028 99.000000 30 343.870635
-0.136861 0.464836 4.469112 102.000000 29 343.870638
-0.432653 1.299250 5.306094 9.000000 26 343.870640
-0.430990 1.248782 3.646694 10.000000 24 343.870643
-0.483901 1.401320 3.127832 12.000000 22 343.870646
-0.532008 1.539783 2.734883 11.000000 20 343.870648
-0.555989 1.609201 2.328389 15.000000 18 343.870651
-0.553931 1.603252 1.917152 16.000000 16 343.870653
-0.556635 1.596619 1.741407 20.000000 15 343.870611
-0.585380 1.679080 1.515683 27.000000 13 343.870613
-0.595079 1.707859 1.270359 20.000000 11 343.870616
-0.611243 1.754258 1.058569 23.000000 9 343.870619
-0.625359 1.795777 0.856594 25.000000 7 343.870621
-0.638752 1.835268 0.660767 20.000000 5 343.870624
-0.658454 1.892941 0.471981 22.000000 3 343.870626
-0.189629 0.545453 0.144692 13.000000 1 343.870629
-0.560155 1.615784 1.603751 28.000000 14 343.870637
-0.584720 1.686650 1.383374 26.000000 12 343.870639
-0.597627 1.724853 1.157889 22.000000 10 343.870642
-0.619960 1.789320 0.962864 25.000000 8 343.870644
-0.629112 1.816760 0.757915 25.000000 6 343.870647
-0.643872 1.860434 0.565542 24.000000 4 343.870649
-0.663673 1.918732 0.375025 7.000000 2 343.870652
-0.186093 0.538004 0.116640 37.000000 0 343.870654
-0.007157 0.050894 4.339108 100.000000 31 343.870665
-0.235906 0.745989 4.974257 13.000000 28 343.870668
-0.333219 1.058069 5.356639 8.000000 27 343.870670
-0.479996 1.425125 4.851678 11.000000 25 343.870673
-0.443381 1.292738 3.279217 9.000000 23 343.870675
-0.521906 1.520850 3.012729 9.000000 21 343.870678
-0.541855 1.578990 2.524444 12.000000 19 343.870680
-0.562535 1.639262 2.150872 13.000000 17 343.870683
-0.067520 0.255821 4.402028 99.000000 30 343.870691
-0.135157 0.465334 4.469112 102.000000 29 343.870693
-0.461281 1.402392 5.717427 10.000000 26 343.870696
-0.425853 1.248720 3.642001 10.000000 24 343.870698
-0.479006 1.403001 3.127832 12.000000 22 343.870701
-0.529159 1.549034 2.747681 10.000000 20 343.870704
-0.552317 1.616836 2.336368 14.000000 18 343.870706
-0.549427 1.608384 1.920827 16.000000 16 343.870709
-0.550779 1.598649 1.741407 20.000000 15 343.870666
-0.577954 1.677533 1.512545 26.000000 13 343.870669
-0.587454 1.706075 1.267617 20.000000 11 343.870672
-0.603367 1.752297 1.056251 23.000000 9 343.870674
-0.617264 1.793674 0.854721 25.000000 7 343.870677
-0.630460 1.833060 0.659357 20.000000 5 343.870679
-0.650244 1.890582 0.471049 23.000000 3 343.870682
-0.189343 0.550821 0.145138 12.000000 1 343.870684
-0.554512 1.617729 1.603751 28.000000 14 343.870692
-0.577518 1.684856 1.380431 26.000000 12 343.870695
-0.588808 1.718771 1.152824 22.000000 10 343.870697
-0.612239 1.787179 0.960766 25.000000 8 343.870700
-0.619707 1.810009 0.754629 25.000000 6 343.870702
-0.635800 1.858071 0.564369 24.000000 4 343.870705
-0.653767 1.911666 0.373645 9.000000 2 343.870707
-0.185736 0.543410 0.116841 35.000000 0 343.870710
-0.006979 0.050918 4.339108 100.000000 31 343.870721
-0.230756 0.738649 4.919925 13.000000 28 343.870723
-0.327107 1.051447 5.317478 8.000000 27 343.870726
-0.475018 1.426792 4.851678 11.000000 25 343.870728
-0.437611 1.290578 3.270012 9.000000 23 343.870731
-0.519673 1.531738 3.030284 9.000000 21 343.870733
-0.538148 1.586202 2.532710 12.000000 19 343.870736
-0.557839 1.644252 2.154709 13.000000 17 343.870739
-0.066627 0.256055 4.402028 101.000000 30 343.870746
-0.133532 0.465803 4.469112 102.000000 29 343.870749
-0.466488 1.435097 5.843246 13.000000 26 343.870751
-0.420940 1.248564 3.637308 10.000000 24 343.870754
-0.474802 1.406728 3.132333 12.000000 22 343.870757
-0.525417 1.555814 2.756213 10.000000 20 343.870759
-0.548598 1.624465 2.344347 14.000000 18 343.870762
-0.545979 1.616716 1.928177 15.000000 16 343.870764
-0.546345 1.603938 1.744911 19.000000 15 343.870722
-0.570840 1.675855 1.509408 24.000000 13 343.870724
-0.578800 1.700199 1.262135 20.000000 11 343.870727
-0.595819 1.750199 1.053933 23.000000 9 343.870730
-0.608013 1.787040 0.850975 25.000000 7 343.870732
-0.622514 1.830708 0.657948 20.000000 5 343.870735
-0.640478 1.883539 0.469183 22.000000 3 343.870737
-0.187419 0.551479 0.145138 9.000000 1 343.870740
-0.548861 1.619655 1.603751 28.000000 14 343.870748
-0.570336 1.683034 1.377488 26.000000 12 343.870750
-0.581421 1.716733 1.150292 22.000000 10 343.870753
-0.603086 1.780708 0.956570 25.000000 8 343.870755
-0.611871 1.807688 0.752987 25.000000 6 343.870758
-0.626195 1.851070 0.562025 24.000000 4 343.870760
-0.645504 1.909245 0.372956 9.000000 2 343.870763
-0.185437 0.548788 0.117043 32.000000 0 343.870766
-0.006802 0.050942 4.339108 100.000000 31 343.870776
-0.226117 0.732767 4.875472 14.000000 28 343.870779
-0.321941 1.047715 5.293002 8.000000 27 343.870781
-0.469568 1.427022 4.846907 10.000000 25 343.870784
-0.432483 1.290245 3.265409 9.000000 23 343.870786
-0.516608 1.540356 3.043450 9.000000 21 343.870789
-0.534397 1.593407 2.540976 12.000000 19 343.870792
-0.554135 1.652268 2.162383 13.000000 17 343.870794
-0.065733 0.256286 4.402028 101.000000 30 343.870802
-0.131905 0.466267 4.469112 102.000000 29 343.870804
-0.469935 1.463063 5.949708 14.000000 26 343.870807
-0.415488 1.246751 3.627923 9.000000 24 343.870810
-0.469889 1.408377 3.132333 12.000000 22 343.870812
-0.521635 1.562586 2.764745 11.000000 20 343.870815
-0.544833 1.632088 2.352326 14.000000 18 343.870817
-0.541405 1.621828 1.931852 15.000000 16 343.870820
-0.540743 1.605835 1.744911 19.000000 15 343.870777
-0.563744 1.674149 1.506270 21.000000 13 343.870780
-0.571528 1.698246 1.259393 20.000000 11 343.870783
-0.586880 1.743870 1.049297 23.000000 9 343.870785
-0.600293 1.784757 0.849102 25.000000 7 343.870788
-0.614591 1.828323 0.656539 20.000000 5 343.870790
-0.632334 1.881107 0.468251 22.000000 3 343.870793
-0.185493 0.552129 0.145138 8.000000 1 343.870795
-0.543204 1.621561 1.603751 28.000000 14 343.870803
-0.563174 1.681182 1.374545 27.000000 12 343.870806
-0.574057 1.714664 1.147759 22.000000 10 343.870808
-0.595425 1.778499 0.954471 24.000000 8 343.870811
-0.604059 1.805334 0.751344 24.000000 6 343.870813
-0.618189 1.848635 0.560852 23.000000 4 343.870816
-0.635696 1.902093 0.371576 12.000000 2 343.870818
-0.185103 0.554170 0.117245 26.000000 0 343.870821
-0.006624 0.050966 4.339108 100.000000 31 343.870832
-0.221071 0.725375 4.821140 16.000000 28 343.870834
-0.318282 1.048832 5.293002 8.000000 27 343.870837
-0.465046 1.430073 4.851678 10.000000 25 343.870839
-0.427362 1.289892 3.260807 9.000000 23 343.870842
-0.514244 1.551247 3.061005 9.000000 21 343.870844
-0.530603 1.600605 2.549242 12.000000 19 343.870847
-0.550382 1.660279 2.170057 13.000000 17 343.870850
-0.064883 0.256502 4.402028 101.000000 30 343.870857
-0.130358 0.466701 4.469112 101.000000 29 343.870860
-0.465842 1.467011 5.959387 13.000000 26 343.870862
-0.410812 1.246483 3.623230 9.000000 24 343.870865
-0.464970 1.410008 3.132333 12.000000 22 343.870868
-0.517811 1.569351 2.773277 11.000000 20 343.870870
-0.541022 1.639705 2.360305 14.000000 18 343.870873
-0.538150 1.630053 1.939203 14.000000 16 343.870875
-0.536261 1.611097 1.748416 19.000000 15 343.870833
-0.555438 1.668719 1.499994 19.000000 13 343.870836
-0.564277 1.696263 1.256652 21.000000 11 343.870838
-0.579391 1.741705 1.046979 23.000000 9 343.870841
-0.592908 1.782339 0.847229 25.000000 7 343.870843
-0.605498 1.821246 0.653721 20.000000 5 343.870846
-0.624215 1.878641 0.467318 22.000000 3 343.870848
-0.181995 0.548047 0.144692 7.000000 1 343.870851
-0.536367 1.619902 1.600426 28.000000 14 343.870859
-0.554761 1.675463 1.368658 27.000000 12 343.870861
-0.565657 1.708372 1.142694 22.000000 10 343.870864
-0.588098 1.776155 0.952373 24.000000 8 343.870866
-0.596586 1.802844 0.749701 24.000000 6 343.870869
-0.609003 1.841445 0.558508 23.000000 4 343.870871
-0.627831 1.899488 0.370886 13.000000 2 343.870874
-0.184831 0.559525 0.117446 21.000000 0 343.870877
-0.006455 0.050987 4.339108 98.000000 31 343.870887
-0.217546 0.722383 4.796443 17.000000 28 343.870890
-0.314510 1.048907 5.288106 8.000000 27 343.870892
-0.460301 1.431607 4.851678 10.000000 25 343.870895
-0.422474 1.289446 3.256204 9.000000 23 343.870897
-0.511336 1.559773 3.074171 9.000000 21 343.870900
-0.527045 1.607704 2.557508 12.000000 19 343.870903
-0.546870 1.668187 2.177731 13.000000 17 343.870905
-0.063987 0.256727 4.402028 99.000000 30 343.870913
-0.128728 0.467154 4.469112 101.000000 29 343.870915
-0.461848 1.472229 5.973904 12.000000 26 343.870918
-0.405389 1.244628 3.613845 9.000000 24 343.870921
-0.460045 1.411623 3.132333 12.000000 22 343.870923
-0.513947 1.576108 2.781808 11.000000 20 343.870926
-0.537163 1.647314 2.368284 14.000000 18 343.870928
-0.534274 1.638460 1.946553 14.000000 16 343.870931
-0.532030 1.616253 1.751920 19.000000 15 343.870888
-0.548684 1.666854 1.496856 19.000000 13 343.870891
-0.557342 1.694153 1.253910 20.000000 11 343.870894
-0.572227 1.739408 1.044661 23.000000 9 343.870896
-0.585235 1.779994 0.845356 25.000000 7 343.870899
-0.597639 1.818791 0.652311 21.000000 5 343.870901
-0.617654 1.880809 0.467318 22.000000 3 343.870904
-0.180081 0.548679 0.144692 6.000000 1 343.870906
-0.530709 1.621764 1.600426 28.000000 14 343.870914
-0.547652 1.673548 1.365715 26.000000 12 343.870917
-0.558052 1.706337 1.140162 22.000000 10 343.870919
-0.580173 1.773985 0.950275 25.000000 8 343.870922
-0.588507 1.800530 0.748059 24.000000 6 343.870924
-0.600740 1.839045 0.557335 22.000000 4 343.870927
-0.620864 1.901777 0.370886 13.000000 2 343.870930
-0.182877 0.560167 0.117446 14.000000 0 343.870932
-0.006268 0.051011 4.339108 98.000000 31 343.870943
-0.214234 0.720941 4.781626 21.000000 28 343.870945
-0.310375 1.049076 5.283211 8.000000 27 343.870948
-0.450080 1.417626 4.799189 8.000000 25 343.870950
-0.417144 1.289127 3.251601 9.000000 23 343.870953
-0.507829 1.568475 3.087337 9.000000 21 343.870956
-0.522883 1.614979 2.565773 12.000000 19 343.870958
-0.543715 1.679331 2.189242 12.000000 17 343.870961
-0.063045 0.256960 4.402028 99.000000 30 343.870968
-0.127015 0.467622 4.469112 99.000000 29 343.870971
-0.456820 1.475114 5.978744 12.000000 26 343.870974
-0.400296 1.244462 3.609152 9.000000 24 343.870976
-0.455115 1.413220 3.132333 13.000000 22 343.870979
-0.510842 1.585339 2.794606 11.000000 20 343.870981
-0.533259 1.654916 2.376263 14.000000 18 343.870984
-0.530631 1.646769 1.953903 14.000000 16 343.870986
-0.527206 1.621584 1.755425 17.000000 15 343.870944
-0.540164 1.661450 1.490581 21.000000 13 343.870947
-0.549837 1.692207 1.251169 20.000000 11 343.870949
-0.564479 1.737280 1.042343 23.000000 9 343.870952
-0.577275 1.777718 0.843483 25.000000 7 343.870954
-0.589488 1.816406 0.650902 21.000000 5 343.870957
-0.609568 1.878281 0.466385 21.000000 3 343.870959
-0.178165 0.549305 0.144692 5.000000 1 343.870962
-0.525045 1.623607 1.600426 29.000000 14 343.870970
-0.540563 1.671603 1.362772 26.000000 12 343.870972
-0.550766 1.704172 1.137630 22.000000 10 343.870975
-0.572581 1.771681 0.948177 25.000000 8 343.870977
-0.579315 1.793586 0.744773 25.000000 6 343.870980
-0.592824 1.836505 0.556163 22.000000 4 343.870982
-0.612702 1.899220 0.370196 13.000000 2 343.870985
-0.182356 0.565588 0.117648 11.000000 0 343.870988
-0.006090 0.051032 4.339108 99.000000 31 343.870998
-0.209532 0.714227 4.732233 20.000000 28 343.871001
-0.306141 1.048198 5.273421 8.000000 27 343.871003
-0.442448 1.410638 4.770559 7.000000 25 343.871006
-0.412046 1.288714 3.246999 9.000000 23 343.871008
-0.504541 1.577083 3.100503 9.000000 21 343.871011
-0.518957 1.622155 2.574039 12.000000 19 343.871013
-0.539803 1.687325 2.196916 12.000000 17 343.871016
-0.062148 0.257179 4.402028 100.000000 30 343.871024
-0.125382 0.468063 4.469112 98.000000 29 343.871026
-0.452036 1.477902 5.983583 12.000000 26 343.871029
-0.395427 1.244208 3.604459 9.000000 24 343.871031
-0.450179 1.414800 3.132333 13.000000 22 343.871034
-0.506888 1.592083 2.803138 10.000000 20 343.871036
-0.529307 1.662512 2.384242 14.000000 18 343.871039
-0.526936 1.655072 1.961254 13.000000 16 343.871042
-0.522633 1.626810 1.758929 17.000000 15 343.870999
-0.531980 1.655912 1.484305 21.000000 13 343.871002
-0.542648 1.690135 1.248427 20.000000 11 343.871004
-0.557057 1.735022 1.040025 23.000000 9 343.871007
-0.569650 1.775308 0.841610 25.000000 7 343.871010
-0.581679 1.813885 0.649493 21.000000 5 343.871012
-0.601508 1.875720 0.465453 20.000000 3 343.871015
-0.518238 1.621873 1.597101 29.000000 14 343.871025
-0.533495 1.669630 1.359829 26.000000 12 343.871028
-0.543503 1.701977 1.135097 22.000000 10 343.871030
-0.565013 1.769345 0.946079 25.000000 8 343.871033
-0.571615 1.791098 0.743131 24.000000 6 343.871035
-0.584932 1.833932 0.554991 23.000000 4 343.871038
-0.604565 1.896628 0.369507 13.000000 2 343.871040
-0.180380 0.566221 0.117648 10.000000 0 343.871043
-0.005912 0.051053 4.339108 99.000000 31 343.871054
-0.207038 0.714954 4.732233 22.000000 28 343.871056
-0.302198 1.048282 5.268525 8.000000 27 343.871059
-0.418078 1.349400 4.560603 5.000000 25 343.871061
-0.406957 1.288282 3.242397 9.000000 23 343.871064
-0.501199 1.585688 3.113669 10.000000 21 343.871066
-0.515836 1.632006 2.586438 12.000000 19 343.871069
-0.534876 1.692256 2.200753 12.000000 17 343.871071
-0.061250 0.257394 4.402028 100.000000 30 343.871079
-0.123747 0.468498 4.469112 98.000000 29 343.871082
-0.446875 1.479471 5.983583 12.000000 26 343.871084
-0.390048 1.242288 3.595074 10.000000 24 343.871087
-0.445238 1.416363 3.132333 13.000000 22 343.871089
-0.502892 1.598818 2.811670 10.000000 20 343.871092
-0.525310 1.670099 2.392221 14.000000 18 343.871095
-0.524207 1.666603 1.972279 13.000000 16 343.871097
-0.519109 1.635422 1.765939 17.000000 15 343.871055
-0.523841 1.650339 1.478030 22.000000 13 343.871057
-0.535481 1.688033 1.245686 21.000000 11 343.871060
-0.549658 1.732733 1.037707 23.000000 9 343.871062
-0.562048 1.772866 0.839737 25.000000 7 343.871065
-0.572446 1.806757 0.646675 21.000000 5 343.871068
-0.593473 1.873125 0.464520 19.000000 3 343.871070
-0.512573 1.623672 1.597101 29.000000 14 343.871080
-0.526446 1.667627 1.356886 26.000000 12 343.871083
-0.536261 1.699752 1.132565 23.000000 10 343.871086
-0.557468 1.766978 0.943981 25.000000 8 343.871088
-0.563939 1.788578 0.741488 24.000000 6 343.871091
-0.577066 1.831327 0.553818 24.000000 4 343.871093
-0.596453 1.894004 0.368817 13.000000 2 343.871096
-0.176903 0.562082 0.117446 10.000000 0 343.871098
-0.005733 0.051074 4.339108 100.000000 31 343.871109
-0.204115 0.714178 4.722355 29.000000 28 343.871112
-0.298259 1.048351 5.263630 8.000000 27 343.871114
-0.408996 1.336569 4.512886 5.000000 25 343.871117
-0.401294 1.285964 3.233191 9.000000 23 343.871119
-0.497803 1.594288 3.126835 10.000000 21 343.871122
-0.511813 1.639169 2.594704 13.000000 19 343.871124
-0.530877 1.700233 2.208426 12.000000 17 343.871127
-0.060351 0.257606 4.402028 100.000000 30 343.871135
-0.122111 0.468927 4.469112 98.000000 29 343.871137
-0.442067 1.482227 5.988422 12.000000 26 343.871140
-0.385198 1.241993 3.590381 10.000000 24 343.871142
-0.439645 1.415829 3.127832 13.000000 22 343.871145
-0.498856 1.605545 2.820202 11.000000 20 343.871148
-0.521265 1.677679 2.400200 14.000000 18 343.871150
-0.521404 1.678135 1.983305 13.000000 16 343.871153
-0.515531 1.644030 1.772948 17.000000 15 343.871110
-0.516912 1.648443 1.474892 22.000000 13 343.871113
-0.528335 1.685902 1.242944 21.000000 11 343.871115
-0.542282 1.730414 1.035389 23.000000 9 343.871118
-0.554471 1.770393 0.837864 26.000000 7 343.871121
-0.564703 1.804166 0.645265 21.000000 5 343.871123
-0.585464 1.870497 0.463588 19.000000 3 343.871126
-0.505790 1.621886 1.593777 28.000000 14 343.871136
-0.519419 1.665596 1.353943 26.000000 12 343.871139
-0.530325 1.701614 1.132565 23.000000 10 343.871141
-0.549946 1.764580 0.941883 25.000000 8 343.871144
-0.556288 1.786027 0.739845 25.000000 6 343.871146
-0.569226 1.828689 0.552646 24.000000 4 343.871149
-0.588367 1.891346 0.368127 13.000000 2 343.871151
-0.173457 0.557925 0.117245 11.000000 0 343.871154
-0.005555 0.051093 4.339108 100.000000 31 343.871165
-0.201410 0.714138 4.717416 34.000000 28 343.871167
-0.294323 1.048405 5.258735 8.000000 27 343.871170
-0.398712 1.319402 4.450853 6.000000 25 343.871172
-0.395651 1.283623 3.223986 9.000000 23 343.871175
-0.493647 1.600595 3.135612 10.000000 21 343.871177
-0.507747 1.646323 2.602970 13.000000 19 343.871180
-0.526828 1.708203 2.216100 12.000000 17 343.871182
-0.059452 0.257815 4.402028 100.000000 30 343.871190
-0.120342 0.468833 4.464140 98.000000 29 343.871193
-0.436890 1.483761 5.988422 12.000000 26 343.871195
-0.380355 1.241680 3.585688 10.000000 24 343.871198
-0.434700 1.417355 3.127832 13.000000 22 343.871200
-0.495544 1.614756 2.833000 11.000000 20 343.871203
-0.517174 1.685251 2.408179 14.000000 18 343.871206
-0.518527 1.689668 1.994330 14.000000 16 343.871208
-0.511900 1.652633 1.779957 17.000000 15 343.871166
-0.510003 1.646518 1.471754 24.000000 13 343.871168
-0.521210 1.683741 1.240203 21.000000 11 343.871171
-0.534928 1.728064 1.033071 23.000000 9 343.871174
-0.546918 1.767889 0.835991 26.000000 7 343.871176
-0.556984 1.801543 0.643856 21.000000 5 343.871179
-0.577480 1.867836 0.462655 19.000000 3 343.871181
-0.497927 1.616504 1.587127 24.000000 14 343.871192
-0.511222 1.659673 1.348056 26.000000 12 343.871194
-0.523113 1.699334 1.130032 22.000000 10 343.871197
-0.542448 1.762152 0.939785 25.000000 8 343.871199
-0.548662 1.783444 0.738202 24.000000 6 343.871202
-0.561411 1.826019 0.551474 24.000000 4 343.871204
-0.580307 1.888654 0.367437 14.000000 2 343.871207
-0.171508 0.558527 0.117245 12.000000 0 343.871209
-0.005377 0.051112 4.339108 100.000000 31 343.871220
-0.198500 0.713340 4.707537 35.000000 28 343.871223
-0.290661 1.049426 5.258735 9.000000 27 343.871225
-0.394104 1.320786 4.450853 8.000000 25 343.871228
-0.390599 1.283128 3.219384 9.000000 23 343.871230
-0.490151 1.609184 3.148778 11.000000 21 343.871233
-0.503637 1.653469 2.611236 13.000000 19 343.871235
-0.521796 1.713098 2.219938 12.000000 17 343.871238
-0.058551 0.258021 4.402028 100.000000 30 343.871246
-0.118704 0.469250 4.464140 99.000000 29 343.871248
-0.431708 1.485277 5.988422 11.000000 26 343.871251
-0.375019 1.239697 3.576303 10.000000 24 343.871253
-0.429750 1.418863 3.127832 12.000000 22 343.871256
-0.491417 1.621468 2.841532 10.000000 20 343.871259
-0.513037 1.692815 2.416158 14.000000 18 343.871261
-0.516559 1.704445 2.009031 13.000000 16 343.871264
-0.508214 1.661230 1.786966 17.000000 15 343.871221
-0.503114 1.644566 1.468617 23.000000 13 343.871224
-0.514107 1.681552 1.237461 21.000000 11 343.871226
-0.527597 1.725684 1.030753 23.000000 9 343.871229
-0.539389 1.765354 0.834118 26.000000 7 343.871232
-0.549291 1.798888 0.642447 21.000000 5 343.871234
-0.569522 1.865143 0.461722 19.000000 3 343.871237
-0.491195 1.614660 1.583802 22.000000 14 343.871247
-0.505425 1.661448 1.348056 26.000000 12 343.871250
-0.515925 1.697025 1.127500 22.000000 10 343.871252
-0.534974 1.759692 0.937687 25.000000 8 343.871255
-0.541060 1.780830 0.736560 24.000000 6 343.871257
-0.553621 1.823317 0.550301 24.000000 4 343.871260
-0.572273 1.885929 0.366747 14.000000 2 343.871262
-0.168108 0.554342 0.117043 11.000000 0 343.871265
-0.005198 0.051131 4.339108 100.000000 31 343.871276
-0.195599 0.712530 4.697659 38.000000 28 343.871278
-0.286729 1.049452 5.253840 9.000000 27 343.871281
-0.388648 1.319288 4.441310 9.000000 25 343.871283
-0.385556 1.282612 3.214781 10.000000 23 343.871286
-0.485911 1.615473 3.157555 12.000000 21 343.871288
-0.499483 1.660607 2.619502 13.000000 19 343.871291
-0.517660 1.721049 2.227611 12.000000 17 343.871294
-0.057650 0.258224 4.402028 100.000000 30 343.871301
-0.117066 0.469661 4.464140 98.000000 29 343.871304
-0.426868 1.487984 5.993261 12.000000 26 343.871306
-0.370196 1.239345 3.571610 10.000000 24 343.871309
-0.424795 1.420355 3.127832 12.000000 22 343.871312
-0.487249 1.628171 2.850064 10.000000 20 343.871314
-0.508853 1.700370 2.424137 14.000000 18 343.871317
-0.515466 1.722477 2.027406 13.000000 16 343.871319
-0.503444 1.666408 1.790470 17.000000 15 343.871277
-0.499621 1.653765 1.474892 19.000000 13 343.871279
-0.507026 1.679333 1.234720 21.000000 11 343.871282
-0.520290 1.723274 1.028435 24.000000 9 343.871285
-0.531884 1.762787 0.832245 26.000000 7 343.871287
-0.541624 1.796202 0.641038 21.000000 5 343.871290
-0.560172 1.857713 0.459857 20.000000 3 343.871292
-0.483407 1.609211 1.577152 22.000000 14 343.871303
-0.498460 1.659331 1.345113 26.000000 12 343.871305
-0.508758 1.694686 1.124967 23.000000 10 343.871308
-0.527523 1.757202 0.935589 25.000000 8 343.871310
-0.533484 1.778185 0.734917 25.000000 6 343.871313
-0.545857 1.820582 0.549129 23.000000 4 343.871315
-0.564265 1.883172 0.366057 14.000000 2 343.871318
-0.166172 0.554925 0.117043 11.000000 0 343.871320
-0.005020 0.051149 4.339108 100.000000 31 343.871331
-0.192705 0.711708 4.687780 38.000000 28 343.871334
-0.283064 1.050446 5.253840 9.000000 27 343.871336
-0.383206 1.317769 4.431767 9.000000 25 343.871339
-0.379965 1.280204 3.205576 9.000000 23 343.871341
-0.480951 1.619456 3.161944 14.000000 21 343.871344
-0.494485 1.665038 2.623635 12.000000 19 343.871346
-0.513475 1.728992 2.235285 12.000000 17 343.871349
-0.056749 0.258424 4.402028 100.000000 30 343.871357
-0.115426 0.470067 4.464140 98.000000 29 343.871359
-0.421671 1.489465 5.993261 11.000000 26 343.871362
-0.364891 1.237319 3.562224 10.000000 24 343.871364
-0.419834 1.421829 3.127832 13.000000 22 343.871367
-0.483041 1.634864 2.858595 10.000000 20 343.871370
-0.504622 1.707917 2.432116 15.000000 18 343.871372
-0.513292 1.737271 2.042107 14.000000 16 343.871375
-0.499663 1.674990 1.797479 17.000000 15 343.871332
-0.497184 1.666690 1.484305 19.000000 13 343.871335
-0.499966 1.677086 1.231978 21.000000 11 343.871338
-0.513006 1.720834 1.026117 24.000000 9 343.871340
-0.524404 1.760190 0.830372 26.000000 7 343.871343
-0.533982 1.793484 0.639629 21.000000 5 343.871345
-0.552282 1.854949 0.458924 20.000000 3 343.871348
-0.477787 1.610889 1.577152 23.000000 14 343.871358
-0.491515 1.657185 1.342170 26.000000 12 343.871361
-0.501614 1.692319 1.122435 23.000000 10 343.871363
-0.520096 1.754681 0.933491 25.000000 8 343.871366
-0.525932 1.775508 0.733274 25.000000 6 343.871368
-0.538119 1.817816 0.547957 23.000000 4 343.871371
-0.556283 1.880381 0.365368 15.000000 2 343.871373
-0.164233 0.555502 0.117043 10.000000 0 343.871376
-0.004841 0.051166 4.339108 100.000000 31 343.871387
-0.189819 0.710875 4.677902 39.000000 28 343.871389
-0.279134 1.050444 5.248944 9.000000 27 343.871392
-0.377780 1.316227 4.422223 9.000000 25 343.871394
-0.374944 1.279648 3.200974 9.000000 23 343.871397
-0.475969 1.623424 3.166333 15.000000 21 343.871399
-0.490253 1.672155 2.631901 12.000000 19 343.871402
-0.509240 1.736927 2.242959 12.000000 17 343.871405
-0.055846 0.258620 4.402028 100.000000 30 343.871412
-0.113784 0.470467 4.464140 98.000000 29 343.871415
-0.416469 1.490928 5.993261 11.000000 26 343.871417
-0.359605 1.235272 3.552839 10.000000 24 343.871420
-0.414869 1.423286 3.127832 13.000000 22 343.871423
-0.479522 1.644051 2.871393 10.000000 20 343.871425
-0.500345 1.715455 2.440095 15.000000 18 343.871428
-0.513869 1.761834 2.067833 14.000000 16 343.871430
-0.496835 1.686987 1.807993 17.000000 15 343.871388
-0.494662 1.679619 1.493719 18.000000 13 343.871390
-0.492929 1.674809 1.229237 21.000000 11 343.871393
-0.505745 1.718364 1.023799 24.000000 9 343.871396
-0.516948 1.757563 0.828499 26.000000 7 343.871398
-0.526365 1.790734 0.638219 22.000000 5 343.871401
-0.544418 1.852153 0.457992 20.000000 3 343.871403
-0.473210 1.616131 1.580477 22.000000 14 343.871414
-0.484592 1.655012 1.339227 26.000000 12 343.871416
-0.494493 1.689921 1.119903 23.000000 10 343.871419
-0.512693 1.752130 0.931393 25.000000 8 343.871421
-0.518406 1.772801 0.731632 25.000000 6 343.871424
-0.530407 1.815017 0.546785 23.000000 4 343.871426
-0.548328 1.877558 0.364678 15.000000 2 343.871429
-0.165093 0.565663 0.117446 9.000000 0 343.871432
-0.004662 0.051182 4.339108 100.000000 31 343.871442
-0.186942 0.710030 4.668023 39.000000 28 343.871445
-0.275208 1.050427 5.244049 9.000000 27 343.871447
