# .PCD v.7 - Point Cloud Data file format
VERSION .7
FIELDS x y z intensity ring timestamp
SIZE 4 4 4 4 2 8
TYPE F F F F U D
COUNT 1 1 1 1 1 1
WIDTH 907
HEIGHT 1
VIEWPOINT 0 0 0 1 0 0 0
POINTS 907
DATA ascii
-0.347233 -1.447486 2.045135 37.000000 18 343.128465
-0.331628 -1.382425 1.619463 39.000000 16 343.128467
-0.325944 -1.374585 1.468052 39.000000 15 343.128425
-0.315068 -1.328708 1.183079 39.000000 13 343.128427
-0.307525 -1.295891 0.957832 42.000000 11 343.128430
-0.302094 -1.272997 0.771134 47.000000 9 343.128433
-0.296914 -1.250198 0.607481 40.000000 7 343.128435
-0.290718 -1.223159 0.459252 36.000000 5 343.128438
-0.290787 -1.223448 0.330223 16.000000 3 343.128440
-0.279988 -1.177101 0.201360 14.000000 1 343.128443
-0.320856 -1.343726 1.311164 40.000000 14 343.128451
-0.312276 -1.307783 1.062570 46.000000 12 343.128453
-0.305035 -1.276473 0.856530 49.000000 10 343.128456
-0.300896 -1.259140 0.685921 50.000000 8 343.128458
-0.295605 -1.236047 0.531224 40.000000 6 343.128461
-0.288537 -1.205559 0.389694 30.000000 4 343.128463
-0.284893 -1.189420 0.262585 9.000000 2 343.128466
-0.286425 -1.194893 0.143242 30.000000 0 343.128469
-0.019093 -0.042663 3.804128 97.000000 31 343.128479
-0.150734 -0.562879 3.704868 98.000000 28 343.128482
-0.197745 -0.734933 3.682472 91.000000 27 343.128484
-0.269700 -1.086989 3.625345 92.000000 25 343.128487
-0.348486 -1.438358 3.546163 95.000000 23 343.128489
-0.389620 -1.609332 3.100503 27.000000 21 343.128492
-0.361027 -1.491223 2.326062 34.000000 19 343.128495
-0.344440 -1.422700 1.828569 38.000000 17 343.128497
-0.069356 -0.216993 3.768094 97.000000 30 343.128505
-0.114529 -0.390706 3.748257 97.000000 29 343.128507
-0.232599 -0.909964 3.651086 96.000000 26 343.128510
-0.307983 -1.261581 3.585688 92.000000 24 343.128513
-0.394424 -1.618068 3.505902 66.000000 22 343.128515
-0.376285 -1.544811 2.670894 34.000000 20 343.128518
-0.351570 -1.443337 2.041145 37.000000 18 343.128520
-0.336451 -1.381259 1.619463 39.000000 16 343.128523
-0.330740 -1.373439 1.468052 39.000000 15 343.128480
-0.319704 -1.327600 1.183079 39.000000 13 343.128483
-0.312046 -1.294810 0.957832 42.000000 11 343.128486
-0.306536 -1.271935 0.771134 47.000000 9 343.128488
-0.301276 -1.249154 0.607481 40.000000 7 343.128491
-0.294986 -1.222136 0.459252 36.000000 5 343.128493
-0.293903 -1.217650 0.329290 16.000000 3 343.128496
-0.284095 -1.176116 0.201360 14.000000 1 343.128498
-0.325545 -1.342598 1.311164 40.000000 14 343.128506
-0.316839 -1.306685 1.062570 46.000000 12 343.128509
-0.309489 -1.275401 0.856530 49.000000 10 343.128511
-0.305289 -1.258082 0.685921 50.000000 8 343.128514
-0.299918 -1.235008 0.531224 40.000000 6 343.128516
-0.291595 -1.199822 0.388522 30.000000 4 343.128519
-0.287873 -1.183607 0.261895 9.000000 2 343.128521
-0.290594 -1.193886 0.143242 30.000000 0 343.128524
-0.019241 -0.042596 3.804128 97.000000 31 343.128535
-0.152698 -0.562349 3.704868 97.000000 28 343.128537
-0.200309 -0.734239 3.682472 91.000000 27 343.128540
-0.273492 -1.086041 3.625345 92.000000 25 343.128542
-0.353504 -1.437133 3.546163 95.000000 23 343.128545
-0.395235 -1.607962 3.100503 27.000000 21 343.128547
-0.366902 -1.492686 2.330195 35.000000 19 343.128550
-0.348638 -1.418375 1.824732 38.000000 17 343.128553
-0.070113 -0.216749 3.768094 97.000000 30 343.128560
-0.115892 -0.390304 3.748257 97.000000 29 343.128563
-0.235774 -0.909147 3.651086 96.000000 26 343.128565
-0.312385 -1.260498 3.585688 93.000000 24 343.128568
-0.400070 -1.616681 3.505902 66.000000 22 343.128571
-0.381676 -1.543488 2.670894 34.000000 20 343.128573
-0.356606 -1.442101 2.041145 37.000000 18 343.128576
-0.341271 -1.380076 1.619463 39.000000 16 343.128578
-0.334685 -1.368812 1.464548 39.000000 15 343.128536
-0.323411 -1.322695 1.179941 40.000000 13 343.128539
-0.315570 -1.289651 0.955090 44.000000 11 343.128541
-0.310974 -1.270857 0.771134 47.000000 9 343.128544
-0.304532 -1.243592 0.605608 40.000000 7 343.128546
-0.299250 -1.221099 0.459252 36.000000 5 343.128549
-0.298152 -1.216617 0.329290 16.000000 3 343.128551
-0.288199 -1.175117 0.201360 14.000000 1 343.128554
-0.329337 -1.337828 1.307840 39.000000 14 343.128562
-0.321399 -1.305571 1.062570 46.000000 12 343.128564
-0.313939 -1.274313 0.856530 49.000000 10 343.128567
-0.309679 -1.257008 0.685921 50.000000 8 343.128569
-0.304227 -1.233953 0.531224 40.000000 6 343.128572
-0.295781 -1.198797 0.388522 30.000000 4 343.128574
-0.292003 -1.182594 0.261895 10.000000 2 343.128577
-0.294760 -1.192864 0.143242 29.000000 0 343.128580
-0.019390 -0.042529 3.804128 97.000000 31 343.128590
-0.154660 -0.561813 3.704868 98.000000 28 343.128593
-0.202871 -0.733535 3.682472 91.000000 27 343.128595
-0.277282 -1.085080 3.625345 92.000000 25 343.128598
-0.358519 -1.435890 3.546163 88.000000 23 343.128600
-0.400265 -1.604248 3.096114 26.000000 21 343.128603
-0.372791 -1.494127 2.334328 36.000000 19 343.128606
-0.353587 -1.417150 1.824732 38.000000 17 343.128608
-0.070778 -0.216229 3.763102 97.000000 30 343.128616
-0.117254 -0.389897 3.748257 97.000000 29 343.128618
-0.238946 -0.908318 3.651086 96.000000 26 343.128621
-0.317204 -1.261073 3.590381 95.000000 24 343.128624
-0.405710 -1.615275 3.505902 64.000000 22 343.128626
-0.386426 -1.539616 2.666628 34.000000 20 343.128629
-0.361638 -1.440848 2.041145 37.000000 18 343.128631
-0.345261 -1.375588 1.615788 39.000000 16 343.128634
-0.339461 -1.367635 1.464548 39.000000 15 343.128591
-0.328026 -1.321558 1.179941 39.000000 13 343.128594
-0.320070 -1.288542 0.955090 44.000000 11 343.128597
-0.315408 -1.269764 0.771134 47.000000 9 343.128599
-0.308871 -1.242521 0.605608 42.000000 7 343.128602
-0.303511 -1.220047 0.459252 36.000000 5 343.128604
-0.301211 -1.210802 0.328358 16.000000 3 343.128607
-0.292299 -1.174104 0.201360 14.000000 1 343.128609
-0.334005 -1.336670 1.307840 39.000000 14 343.128617
-0.325954 -1.304442 1.062570 46.000000 12 343.128620
-0.318386 -1.273209 0.856530 49.000000 10 343.128622
-0.314065 -1.255920 0.685921 50.000000 8 343.128625
-0.308533 -1.232884 0.531224 40.000000 6 343.128627
-0.299964 -1.197757 0.388522 30.000000 4 343.128630
-0.296129 -1.181568 0.261895 10.000000 2 343.128633
-0.298922 -1.191828 0.143242 29.000000 0 343.128635
-0.019538 -0.042461 3.804128 96.000000 31 343.128646
-0.156620 -0.561270 3.704868 97.000000 28 343.128648
-0.205430 -0.732822 3.682472 91.000000 27 343.128651
-0.281067 -1.084105 3.625345 92.000000 25 343.128653
-0.363529 -1.434630 3.546163 89.000000 23 343.128656
-0.405275 -1.600519 3.091726 27.000000 21 343.128659
-0.378005 -1.492817 2.334328 36.000000 19 343.128661
-0.358532 -1.415907 1.824732 38.000000 17 343.128664
-0.071532 -0.215980 3.763102 97.000000 30 343.128671
-0.118614 -0.389485 3.748257 97.000000 29 343.128674
-0.242115 -0.907478 3.651086 96.000000 26 343.128677
-0.321604 -1.259959 3.590381 95.000000 24 343.128679
-0.411346 -1.613849 3.505902 65.000000 22 343.128682
-0.391798 -1.538258 2.666628 34.000000 20 343.128684
-0.365921 -1.436656 2.037156 37.000000 18 343.128687
-0.350060 -1.374374 1.615788 39.000000 16 343.128689
-0.343362 -1.362984 1.461043 39.000000 15 343.128647
-0.332638 -1.320405 1.179941 40.000000 13 343.128650
-0.324566 -1.287417 0.955090 42.000000 11 343.128652
-0.319839 -1.268655 0.771134 47.000000 9 343.128655
-0.312073 -1.236940 0.603735 42.000000 7 343.128657
-0.307768 -1.218980 0.459252 36.000000 5 343.128660
-0.305435 -1.209743 0.328358 16.000000 3 343.128662
-0.296396 -1.173077 0.201360 14.000000 1 343.128665
-0.338669 -1.335496 1.307840 39.000000 14 343.128673
-0.329512 -1.299378 1.059627 46.000000 12 343.128675
-0.322828 -1.272090 0.856530 49.000000 10 343.128678
-0.318447 -1.254816 0.685921 50.000000 8 343.128680
-0.312835 -1.231799 0.531224 40.000000 6 343.128683
-0.304143 -1.196702 0.388522 30.000000 4 343.128685
-0.300252 -1.180527 0.261895 10.000000 2 343.128688
-0.301848 -1.185936 0.143040 29.000000 0 343.128691
-0.019686 -0.042392 3.804128 97.000000 31 343.128701
-0.158579 -0.560719 3.704868 97.000000 28 343.128704
-0.207987 -0.732101 3.682472 91.000000 27 343.128706
-0.284850 -1.083118 3.625345 92.000000 25 343.128709
-0.369021 -1.435244 3.550766 95.000000 23 343.128711
-0.410859 -1.599094 3.091726 25.000000 21 343.128714
-0.383213 -1.491488 2.334328 36.000000 19 343.128716
-0.362674 -1.411542 1.820895 38.000000 17 343.128719
-0.072286 -0.215729 3.763102 97.000000 30 343.128727
-0.119973 -0.389069 3.748257 97.000000 29 343.128729
-0.244953 -0.905414 3.646246 95.000000 26 343.128732
-0.326000 -1.258828 3.590381 93.000000 24 343.128734
-0.417522 -1.614511 3.510403 65.000000 22 343.128737
-0.397165 -1.536881 2.666628 34.000000 20 343.128739
-0.370934 -1.435370 2.037156 38.000000 18 343.128742
-0.354856 -1.373144 1.615788 39.000000 16 343.128745
-0.348117 -1.361777 1.461043 39.000000 15 343.128702
-0.337245 -1.319235 1.179941 40.000000 13 343.128705
-0.329058 -1.286276 0.955090 42.000000 11 343.128707
-0.324265 -1.267531 0.771134 47.000000 9 343.128710
-0.316389 -1.235844 0.603735 42.000000 7 343.128713
-0.312021 -1.217899 0.459252 36.000000 5 343.128715
-0.309656 -1.208669 0.328358 16.000000 3 343.128718
-0.300489 -1.172035 0.201360 14.000000 1 343.128720
-0.343328 -1.334306 1.307840 40.000000 14 343.128728
-0.334045 -1.298220 1.059627 46.000000 12 343.128731
-0.326191 -1.266780 0.853998 49.000000 10 343.128733
-0.322825 -1.253696 0.685921 50.000000 8 343.128736
-0.317132 -1.230700 0.531224 40.000000 6 343.128738
-0.308319 -1.195633 0.388522 30.000000 4 343.128741
-0.304371 -1.179472 0.261895 9.000000 2 343.128743
-0.305986 -1.184875 0.143040 29.000000 0 343.128746
-0.019834 -0.042324 3.804128 97.000000 31 343.128757
-0.160749 -0.560909 3.709807 97.000000 28 343.128759
-0.210541 -0.731370 3.682472 91.000000 27 343.128762
-0.288629 -1.082117 3.625345 92.000000 25 343.128764
-0.374029 -1.433947 3.550766 95.000000 23 343.128767
-0.415834 -1.595332 3.087337 26.000000 21 343.128769
-0.388417 -1.490141 2.334328 37.000000 19 343.128772
-0.367599 -1.410267 1.820895 38.000000 17 343.128774
-0.073038 -0.215476 3.763102 97.000000 30 343.128782
-0.121331 -0.388648 3.748257 97.000000 29 343.128785
-0.248112 -0.904553 3.646246 95.000000 26 343.128787
-0.330831 -1.259352 3.595074 92.000000 24 343.128790
-0.423156 -1.613044 3.510403 66.000000 22 343.128792
-0.402527 -1.535486 2.666628 34.000000 20 343.128795
-0.375942 -1.434066 2.037156 38.000000 18 343.128798
-0.359647 -1.371897 1.615788 39.000000 16 343.128800
-0.352869 -1.360554 1.461043 39.000000 15 343.128758
-0.341848 -1.318050 1.179941 40.000000 13 343.128760
-0.333546 -1.285120 0.955090 42.000000 11 343.128763
-0.328688 -1.266391 0.771134 47.000000 9 343.128765
-0.320700 -1.234731 0.603735 42.000000 7 343.128768
-0.316270 -1.216802 0.459252 36.000000 5 343.128771
-0.313874 -1.207581 0.328358 16.000000 3 343.128773
-0.303324 -1.166159 0.200914 14.000000 1 343.128776
-0.347984 -1.333099 1.307840 40.000000 14 343.128783
-0.338575 -1.297046 1.059627 46.000000 12 343.128786
-0.330611 -1.265634 0.853998 49.000000 10 343.128789
-0.326052 -1.248171 0.683823 49.000000 8 343.128791
-0.321426 -1.229585 0.531224 40.000000 6 343.128794
-0.312490 -1.194550 0.388522 29.000000 4 343.128796
-0.308486 -1.178402 0.261895 9.000000 2 343.128799
-0.310120 -1.183800 0.143040 29.000000 0 343.128801
-0.020004 -0.042292 3.809129 97.000000 31 343.128812
-0.162706 -0.560345 3.709807 97.000000 28 343.128815
-0.213093 -0.730631 3.682472 92.000000 27 343.128817
-0.292405 -1.081103 3.625345 92.000000 25 343.128820
-0.379032 -1.432633 3.550766 95.000000 23 343.128822
-0.421400 -1.593871 3.087337 27.000000 21 343.128825
-0.393616 -1.488776 2.334328 36.000000 19 343.128827
-0.372520 -1.408975 1.820895 38.000000 17 343.128830
-0.073848 -0.215506 3.768094 97.000000 30 343.128838
-0.122619 -0.388243 3.748257 97.000000 29 343.128840
-0.251110 -0.903725 3.646246 95.000000 26 343.128843
-0.335005 -1.258248 3.595074 92.000000 24 343.128845
-0.428784 -1.611557 3.510403 66.000000 22 343.128848
-0.407885 -1.534071 2.666628 34.000000 20 343.128851
-0.380946 -1.432745 2.037156 38.000000 18 343.128853
-0.364194 -1.370697 1.615788 39.000000 16 343.128856
-0.357616 -1.359314 1.461043 39.000000 15 343.128813
-0.346446 -1.316849 1.179941 40.000000 13 343.128816
-0.338030 -1.283947 0.955090 42.000000 11 343.128818
-0.333106 -1.265236 0.771134 47.000000 9 343.128821
-0.324793 -1.233661 0.603735 42.000000 7 343.128824
-0.320304 -1.215747 0.459252 36.000000 5 343.128826
-0.316835 -1.201728 0.327425 16.000000 3 343.128829
-0.307393 -1.165093 0.200914 14.000000 1 343.128831
-0.351679 -1.328266 1.304515 40.000000 14 343.128839
-0.343101 -1.295856 1.059627 46.000000 12 343.128842
-0.334807 -1.264531 0.853998 49.000000 10 343.128844
-0.330189 -1.247083 0.683823 50.000000 8 343.128847
-0.324293 -1.223948 0.529581 40.000000 6 343.128849
-0.316450 -1.193507 0.388522 29.000000 4 343.128852
-0.311122 -1.172586 0.261205 9.000000 2 343.128854
-0.314044 -1.182765 0.143040 29.000000 0 343.128857
-0.020144 -0.042225 3.809129 97.000000 31 343.128868
-0.164564 -0.559802 3.709807 97.000000 28 343.128870
-0.215514 -0.729920 3.682472 90.000000 27 343.128873
-0.295988 -1.080127 3.625345 91.000000 25 343.128875
-0.384286 -1.433255 3.555368 95.000000 23 343.128878
-0.426064 -1.590150 3.082948 27.000000 21 343.128880
-0.397823 -1.484745 2.330195 36.000000 19 343.128883
-0.377190 -1.407732 1.820895 38.000000 17 343.128885
-0.074599 -0.215246 3.768094 97.000000 30 343.128893
-0.123973 -0.387813 3.748257 97.000000 29 343.128896
-0.254604 -0.904054 3.651086 95.000000 26 343.128898
-0.339395 -1.257071 3.595074 93.000000 24 343.128901
-0.434692 -1.612229 3.514904 66.000000 22 343.128903
-0.412291 -1.530192 2.662362 34.000000 20 343.128906
-0.386479 -1.434384 2.041145 38.000000 18 343.128909
-0.368976 -1.369417 1.615788 39.000000 16 343.128911
-0.362121 -1.358120 1.461043 39.000000 15 343.128869
-0.349808 -1.311931 1.176803 40.000000 13 343.128871
-0.342286 -1.282819 0.955090 40.000000 11 343.128874
-0.336158 -1.259844 0.768816 47.000000 9 343.128877
-0.329098 -1.232520 0.603735 42.000000 7 343.128879
-0.324545 -1.214621 0.459252 36.000000 5 343.128882
-0.320818 -1.200671 0.327425 15.000000 3 343.128884
-0.311255 -1.164068 0.200914 14.000000 1 343.128887
-0.356082 -1.327093 1.304515 39.000000 14 343.128895
-0.346348 -1.290807 1.056684 46.000000 12 343.128897
-0.339218 -1.263354 0.853998 49.000000 10 343.128900
-0.334541 -1.245923 0.683823 50.000000 8 343.128902
-0.328563 -1.222808 0.529581 40.000000 6 343.128905
-0.320614 -1.192395 0.388522 30.000000 4 343.128907
-0.315213 -1.171493 0.261205 9.000000 2 343.128910
-0.318170 -1.181661 0.143040 29.000000 0 343.128912
-0.020291 -0.042155 3.809129 97.000000 31 343.128923
-0.166517 -0.559224 3.709807 97.000000 28 343.128926
-0.218353 -0.730139 3.687367 90.000000 27 343.128928
-0.299757 -1.079087 3.625345 91.000000 25 343.128931
-0.389287 -1.431905 3.555368 95.000000 23 343.128933
-0.431612 -1.588654 3.082948 27.000000 21 343.128936
-0.403003 -1.483347 2.330195 36.000000 19 343.128938
-0.382102 -1.406407 1.820895 38.000000 17 343.128941
-0.075350 -0.214985 3.768094 97.000000 30 343.128949
-0.125326 -0.387378 3.748257 97.000000 29 343.128951
-0.257758 -0.903160 3.651086 95.000000 26 343.128954
-0.343781 -1.255878 3.595074 93.000000 24 343.128956
-0.440317 -1.610702 3.514904 66.000000 22 343.128959
-0.417630 -1.528743 2.662362 34.000000 20 343.128962
-0.391483 -1.433027 2.041145 38.000000 18 343.128964
-0.373754 -1.368121 1.615788 39.000000 16 343.128967
-0.366860 -1.356848 1.461043 39.000000 15 343.128924
-0.354386 -1.310702 1.176803 40.000000 13 343.128927
-0.346761 -1.281617 0.955090 40.000000 11 343.128929
-0.340554 -1.258663 0.768816 49.000000 9 343.128932
-0.333398 -1.231364 0.603735 42.000000 7 343.128935
-0.328783 -1.213481 0.459252 36.000000 5 343.128937
-0.323722 -1.194802 0.326492 15.000000 3 343.128940
-0.314013 -1.158167 0.200468 14.000000 1 343.128942
-0.360712 -1.325842 1.304515 39.000000 14 343.128950
-0.350852 -1.289590 1.056684 46.000000 12 343.128953
-0.343626 -1.262162 0.853998 51.000000 10 343.128955
-0.338888 -1.244747 0.683823 50.000000 8 343.128958
-0.332829 -1.221654 0.529581 42.000000 6 343.128960
-0.324774 -1.191269 0.388522 29.000000 4 343.128963
-0.319301 -1.170385 0.261205 9.000000 2 343.128965
-0.322293 -1.180543 0.143040 29.000000 0 343.128968
-0.020438 -0.042084 3.809129 97.000000 31 343.128979
-0.168468 -0.558640 3.709807 97.000000 28 343.128981
-0.220900 -0.729372 3.687367 91.000000 27 343.128984
-0.303521 -1.078034 3.625345 92.000000 25 343.128986
-0.394283 -1.430538 3.555368 95.000000 23 343.128989
-0.437154 -1.587137 3.082948 27.000000 21 343.128991
-0.408179 -1.481931 2.330195 37.000000 19 343.128994
-0.387009 -1.405065 1.820895 39.000000 17 343.128997
-0.076100 -0.214720 3.768094 97.000000 30 343.129004
-0.126678 -0.386938 3.748257 97.000000 29 343.129007
-0.260910 -0.902255 3.651086 95.000000 26 343.129009
-0.348163 -1.254671 3.595074 93.000000 24 343.129012
-0.445937 -1.609155 3.514904 66.000000 22 343.129015
-0.422964 -1.527276 2.662362 34.000000 20 343.129017
-0.396483 -1.431651 2.041145 38.000000 18 343.129020
-0.378528 -1.366808 1.615788 39.000000 16 343.129022
-0.370651 -1.352120 1.457538 39.000000 15 343.128980
-0.358959 -1.309457 1.176803 40.000000 13 343.128982
-0.350127 -1.276366 0.952349 44.000000 11 343.128985
-0.344945 -1.257467 0.768816 47.000000 9 343.128988
-0.337694 -1.230193 0.603735 42.000000 7 343.128990
-0.331746 -1.207700 0.457842 36.000000 5 343.128993
-0.327891 -1.193665 0.326492 15.000000 3 343.128995
-0.318054 -1.157064 0.200468 12.000000 1 343.128998
-0.365338 -1.324574 1.304515 39.000000 14 343.129006
-0.355351 -1.288358 1.056684 46.000000 12 343.129008
-0.348030 -1.260955 0.853998 49.000000 10 343.129011
-0.343231 -1.243557 0.683823 50.000000 8 343.129013
-0.335834 -1.215932 0.527939 40.000000 6 343.129016
-0.328931 -1.190128 0.388522 29.000000 4 343.129018
-0.323384 -1.169264 0.261205 9.000000 2 343.129021
-0.326412 -1.179411 0.143040 28.000000 0 343.129023
-0.020585 -0.042012 3.809129 94.000000 31 343.129034
-0.170417 -0.558048 3.709807 97.000000 28 343.129037
-0.223445 -0.728597 3.687367 91.000000 27 343.129039
-0.307283 -1.076968 3.625345 91.000000 25 343.129042
-0.399274 -1.429153 3.555368 95.000000 23 343.129044
-0.442692 -1.585602 3.082948 27.000000 21 343.129047
-0.413349 -1.480497 2.330195 36.000000 19 343.129049
-0.391911 -1.403705 1.820895 39.000000 17 343.129052
-0.076849 -0.214454 3.768094 97.000000 30 343.129060
-0.128027 -0.386493 3.748257 96.000000 29 343.129062
-0.264411 -0.902545 3.655925 96.000000 26 343.129065
-0.353008 -1.255109 3.599766 93.000000 24 343.129067
-0.452140 -1.609685 3.519405 67.000000 22 343.129070
-0.427588 -1.523279 2.658096 34.000000 20 343.129073
-0.400664 -1.427357 2.037156 38.000000 18 343.129075
-0.383296 -1.365478 1.615788 39.000000 16 343.129078
-0.375369 -1.350818 1.457538 39.000000 15 343.129035
-0.363527 -1.308196 1.176803 40.000000 13 343.129038
-0.354580 -1.275136 0.952349 44.000000 11 343.129041
-0.349332 -1.256255 0.768816 47.000000 9 343.129043
-0.341986 -1.229006 0.603735 40.000000 7 343.129046
-0.335960 -1.206535 0.457842 36.000000 5 343.129048
-0.332056 -1.192513 0.326492 15.000000 3 343.129051
-0.322091 -1.155947 0.200468 12.000000 1 343.129053
-0.369959 -1.323291 1.304515 39.000000 14 343.129061
-0.359847 -1.287110 1.056684 46.000000 12 343.129064
-0.352429 -1.259733 0.853998 49.000000 10 343.129066
-0.347569 -1.242351 0.683823 49.000000 8 343.129069
-0.340077 -1.214753 0.527939 40.000000 6 343.129071
-0.331772 -1.184292 0.387349 29.000000 4 343.129074
-0.327464 -1.168128 0.261205 9.000000 2 343.129076
-0.330527 -1.178265 0.143040 28.000000 0 343.129079
-0.020731 -0.041940 3.809129 94.000000 31 343.129090
-0.172364 -0.557450 3.709807 97.000000 28 343.129092
-0.225987 -0.727812 3.687367 91.000000 27 343.129095
-0.311040 -1.075889 3.625345 91.000000 25 343.129097
-0.404793 -1.429630 3.559971 95.000000 23 343.129100
-0.448224 -1.584047 3.082948 27.000000 21 343.129102
-0.417748 -1.476338 2.326062 37.000000 19 343.129105
-0.396808 -1.402329 1.820895 38.000000 17 343.129108
-0.077597 -0.214184 3.768094 97.000000 30 343.129115
-0.129376 -0.386044 3.748257 96.000000 29 343.129118
-0.267560 -0.901617 3.655925 96.000000 26 343.129120
-0.357386 -1.253869 3.599766 93.000000 24 343.129123
-0.457756 -1.608097 3.519405 67.000000 22 343.129126
-0.432902 -1.521778 2.658096 34.000000 20 343.129128
-0.405644 -1.425949 2.037156 38.000000 18 343.129131
-0.387133 -1.360871 1.612113 39.000000 16 343.129133
-0.380082 -1.349499 1.457538 39.000000 15 343.129091
-0.368092 -1.306919 1.176803 40.000000 13 343.129093
-0.359029 -1.273891 0.952349 42.000000 11 343.129096
-0.353715 -1.255028 0.768816 47.000000 9 343.129099
-0.346274 -1.227805 0.603735 40.000000 7 343.129101
-0.340170 -1.205354 0.457842 36.000000 5 343.129104
-0.336216 -1.191347 0.326492 15.000000 3 343.129106
-0.326124 -1.154816 0.200468 14.000000 1 343.129109
-0.374576 -1.321992 1.304515 39.000000 14 343.129117
-0.364337 -1.285846 1.056684 46.000000 12 343.129119
-0.356825 -1.258495 0.853998 49.000000 10 343.129122
-0.351904 -1.241130 0.683823 49.000000 8 343.129124
-0.344315 -1.213558 0.527939 40.000000 6 343.129127
-0.335904 -1.183127 0.387349 29.000000 4 343.129129
-0.331539 -1.166978 0.261205 9.000000 2 343.129132
-0.334638 -1.177104 0.143040 28.000000 0 343.129135
-0.020878 -0.041867 3.809129 97.000000 31 343.129145
-0.174309 -0.556845 3.709807 96.000000 28 343.129148
-0.228526 -0.727019 3.687367 90.000000 27 343.129150
-0.315214 -1.076230 3.630117 91.000000 25 343.129153
-0.409780 -1.428208 3.559971 95.000000 23 343.129155
-0.453751 -1.582472 3.082948 28.000000 21 343.129158
-0.422899 -1.474871 2.326062 37.000000 19 343.129161
-0.401701 -1.400935 1.820895 39.000000 17 343.129163
-0.078345 -0.213912 3.768094 97.000000 30 343.129171
-0.130723 -0.385590 3.748257 96.000000 29 343.129173
-0.270706 -0.900677 3.655925 96.000000 26 343.129176
-0.361761 -1.252614 3.599766 93.000000 24 343.129179
-0.463367 -1.606489 3.519405 67.000000 22 343.129181
-0.438212 -1.520257 2.658096 34.000000 20 343.129184
-0.409784 -1.421629 2.033166 38.000000 18 343.129186
-0.391881 -1.359512 1.612113 39.000000 16 343.129189
-0.383811 -1.344735 1.454034 39.000000 15 343.129146
-0.372651 -1.305627 1.176803 40.000000 13 343.129149
-0.363473 -1.272630 0.952349 42.000000 11 343.129152
-0.358094 -1.253785 0.768816 47.000000 9 343.129154
-0.350558 -1.226589 0.603735 40.000000 7 343.129157
-0.344375 -1.204160 0.457842 36.000000 5 343.129159
-0.340373 -1.190166 0.326492 15.000000 3 343.129162
-0.328783 -1.148882 0.200022 14.000000 1 343.129164
-0.378158 -1.317087 1.301190 39.000000 14 343.129172
-0.368823 -1.284566 1.056684 46.000000 12 343.129175
-0.360025 -1.253098 0.851465 49.000000 10 343.129177
-0.356234 -1.239894 0.683823 49.000000 8 343.129180
-0.348549 -1.212349 0.527939 40.000000 6 343.129182
-0.340032 -1.181947 0.387349 29.000000 4 343.129185
-0.335611 -1.165813 0.261205 9.000000 2 343.129187
-0.338745 -1.175928 0.143040 29.000000 0 343.129190
-0.021024 -0.041794 3.809129 97.000000 31 343.129201
-0.176251 -0.556233 3.709807 96.000000 28 343.129203
-0.231063 -0.726217 3.687367 89.000000 27 343.129206
-0.318969 -1.075123 3.630117 91.000000 25 343.129208
-0.414763 -1.426769 3.559971 95.000000 23 343.129211
-0.459272 -1.580879 3.082948 28.000000 21 343.129213
-0.428045 -1.473385 2.326062 37.000000 19 343.129216
-0.405694 -1.396446 1.817058 39.000000 17 343.129219
-0.079091 -0.213637 3.768094 97.000000 30 343.129226
-0.132242 -0.385636 3.753228 96.000000 29 343.129229
-0.273848 -0.899727 3.655925 96.000000 26 343.129231
-0.366131 -1.251343 3.599766 93.000000 24 343.129234
-0.468972 -1.604862 3.519405 67.000000 22 343.129237
-0.443516 -1.518718 2.658096 34.000000 20 343.129239
-0.414744 -1.420190 2.033166 38.000000 18 343.129242
-0.396624 -1.358135 1.612113 39.000000 16 343.129244
-0.388503 -1.343387 1.454034 39.000000 15 343.129202
-0.377207 -1.304318 1.176803 39.000000 13 343.129205
-0.367914 -1.271353 0.952349 42.000000 11 343.129207
-0.361237 -1.248272 0.766498 47.000000 9 343.129210
-0.354837 -1.225358 0.603735 39.000000 7 343.129212
-0.348576 -1.202950 0.457842 36.000000 5 343.129215
-0.344525 -1.188971 0.326492 15.000000 3 343.129217
-0.332791 -1.147728 0.200022 14.000000 1 343.129220
-0.382753 -1.315759 1.301190 40.000000 14 343.129228
-0.373305 -1.283271 1.056684 42.000000 12 343.129230
-0.364397 -1.251834 0.851465 49.000000 10 343.129233
-0.359291 -1.234286 0.681725 49.000000 8 343.129235
-0.352779 -1.211125 0.527939 40.000000 6 343.129238
-0.344155 -1.180753 0.387349 29.000000 4 343.129240
-0.339678 -1.164635 0.261205 9.000000 2 343.129243
-0.342847 -1.174739 0.143040 29.000000 0 343.129246
-0.021147 -0.041683 3.804128 97.000000 31 343.129256
-0.178192 -0.555614 3.709807 97.000000 28 343.129259
-0.233596 -0.725406 3.687367 83.000000 27 343.129261
-0.322719 -1.074003 3.630117 92.000000 25 343.129264
-0.419741 -1.425313 3.559971 94.000000 23 343.129266
-0.464111 -1.576968 3.078559 27.000000 21 343.129269
-0.433185 -1.471882 2.326062 36.000000 19 343.129272
-0.410566 -1.395021 1.817058 38.000000 17 343.129274
-0.079696 -0.213103 3.763102 97.000000 30 343.129282
-0.133520 -0.385196 3.753228 97.000000 29 343.129284
-0.276830 -0.898814 3.655925 94.000000 26 343.129287
-0.370279 -1.250122 3.599766 93.000000 24 343.129290
-0.474571 -1.603215 3.519405 67.000000 22 343.129292
-0.448814 -1.517161 2.658096 34.000000 20 343.129295
-0.419699 -1.418733 2.033166 38.000000 18 343.129297
-0.401126 -1.356813 1.612113 39.000000 16 343.129300
-0.393190 -1.342023 1.454034 39.000000 15 343.129257
-0.381757 -1.302993 1.176803 39.000000 13 343.129260
-0.372349 -1.270061 0.952349 40.000000 11 343.129263
-0.365592 -1.247004 0.766498 47.000000 9 343.129265
-0.358899 -1.224174 0.603735 39.000000 7 343.129268
-0.351213 -1.197184 0.456433 36.000000 5 343.129270
-0.347290 -1.183047 0.325560 15.000000 3 343.129273
-0.336796 -1.146559 0.200022 14.000000 1 343.129275
-0.387344 -1.314415 1.301190 40.000000 14 343.129283
-0.377782 -1.281960 1.056684 42.000000 12 343.129286
-0.368546 -1.250618 0.851465 49.000000 10 343.129288
-0.363382 -1.233087 0.681725 49.000000 8 343.129291
-0.356793 -1.209949 0.527939 40.000000 6 343.129293
-0.348069 -1.179605 0.387349 29.000000 4 343.129296
-0.343538 -1.163502 0.261205 9.000000 2 343.129299
-0.346741 -1.173595 0.143040 29.000000 0 343.129301
-0.021285 -0.041613 3.804128 97.000000 31 343.129312
-0.180033 -0.555020 3.709807 98.000000 28 343.129314
-0.236000 -0.724627 3.687367 85.000000 27 343.129317
-0.326714 -1.074356 3.634888 92.000000 25 343.129319
-0.424465 -1.423913 3.559971 95.000000 23 343.129322
-0.469338 -1.575420 3.078559 27.000000 21 343.129325
-0.437260 -1.467741 2.321929 37.000000 19 343.129327
-0.415190 -1.393652 1.817058 38.000000 17 343.129330
-0.080439 -0.212823 3.763102 97.000000 30 343.129337
-0.134864 -0.384727 3.753228 97.000000 29 343.129340
-0.279966 -0.897842 3.655925 94.000000 26 343.129343
-0.374640 -1.248822 3.599766 93.000000 24 343.129345
-0.479885 -1.601633 3.519405 65.000000 22 343.129348
-0.453095 -1.513166 2.653831 34.000000 20 343.129350
-0.424401 -1.417334 2.033166 37.000000 18 343.129353
-0.405859 -1.355404 1.612113 39.000000 16 343.129355
-0.397638 -1.340711 1.454034 39.000000 15 343.129313
-0.384969 -1.297988 1.173665 40.000000 13 343.129316
-0.375369 -1.264811 0.949607 40.000000 11 343.129318
-0.369725 -1.245785 0.766498 49.000000 9 343.129321
-0.363170 -1.222914 0.603735 39.000000 7 343.129323
-0.355390 -1.195951 0.456433 36.000000 5 343.129326
-0.351211 -1.181889 0.325560 15.000000 3 343.129328
-0.340596 -1.145436 0.200022 14.000000 1 343.129331
-0.391700 -1.313123 1.301190 40.000000 14 343.129339
-0.380876 -1.276827 1.053740 46.000000 12 343.129341
-0.371676 -1.245193 0.848933 51.000000 10 343.129344
-0.367684 -1.231811 0.681725 49.000000 8 343.129346
-0.361014 -1.208696 0.527939 40.000000 6 343.129349
-0.352184 -1.178383 0.387349 29.000000 4 343.129351
-0.347597 -1.162296 0.261205 9.000000 2 343.129354
-0.350836 -1.172378 0.143040 28.000000 0 343.129357
-0.021430 -0.041538 3.804128 96.000000 31 343.129368
-0.181970 -0.554389 3.709807 97.000000 28 343.129371
-0.238528 -0.723799 3.687367 90.000000 27 343.129373
-0.330462 -1.073209 3.634888 91.000000 25 343.129376
-0.429433 -1.422422 3.559971 95.000000 23 343.129378
-0.474142 -1.571479 3.074171 27.000000 21 343.129381
-0.442381 -1.466205 2.321929 36.000000 19 343.129383
-0.419126 -1.389125 1.813221 38.000000 17 343.129386
-0.081182 -0.212541 3.763102 97.000000 30 343.129394
-0.136206 -0.384254 3.753228 97.000000 29 343.129396
-0.283098 -0.896859 3.655925 96.000000 26 343.129399
-0.378997 -1.247507 3.599766 93.000000 24 343.129401
-0.485473 -1.599948 3.519405 66.000000 22 343.129404
-0.458374 -1.511575 2.653831 34.000000 20 343.129406
-0.429346 -1.415844 2.033166 38.000000 18 343.129409
-0.410588 -1.353979 1.612113 39.000000 16 343.129412
-0.402315 -1.339315 1.454034 39.000000 15 343.129369
-0.389498 -1.296636 1.173665 40.000000 13 343.129372
-0.379782 -1.263493 0.949607 42.000000 11 343.129374
-0.374072 -1.244486 0.766498 47.000000 9 343.129377
-0.367436 -1.221639 0.603735 40.000000 7 343.129380
-0.359562 -1.194703 0.456433 36.000000 5 343.129382
-0.355334 -1.180656 0.325560 15.000000 3 343.129385
-0.344592 -1.144240 0.200022 14.000000 1 343.129387
-0.396282 -1.311748 1.301190 40.000000 14 343.129395
-0.385330 -1.275489 1.053740 46.000000 12 343.129398
-0.376020 -1.243888 0.848933 49.000000 10 343.129400
-0.371982 -1.230520 0.681725 50.000000 8 343.129403
-0.365231 -1.207428 0.527939 40.000000 6 343.129405
-0.354888 -1.172494 0.386177 29.000000 4 343.129408
-0.351652 -1.161075 0.261205 9.000000 2 343.129410
-0.354926 -1.171146 0.143040 28.000000 0 343.129413
-0.021575 -0.041463 3.804128 97.000000 31 343.129424
-0.183904 -0.553750 3.709807 97.000000 28 343.129426
-0.241053 -0.722962 3.687367 89.000000 27 343.129429
-0.334206 -1.072049 3.634888 91.000000 25 343.129431
-0.434396 -1.420915 3.559971 95.000000 23 343.129434
-0.479625 -1.569814 3.074171 28.000000 21 343.129436
-0.447496 -1.464652 2.321929 36.000000 19 343.129439
-0.423973 -1.387654 1.813221 38.000000 17 343.129441
-0.082029 -0.212526 3.768094 97.000000 30 343.129449
-0.137546 -0.383776 3.753228 97.000000 29 343.129452
-0.286610 -0.897064 3.660764 96.000000 26 343.129454
-0.383857 -1.247826 3.604459 92.000000 24 343.129457
-0.491055 -1.598244 3.519405 66.000000 22 343.129459
-0.463647 -1.509966 2.653831 34.000000 20 343.129462
-0.434285 -1.414336 2.033166 38.000000 18 343.129465
-0.414317 -1.349297 1.608438 39.000000 16 343.129467
-0.406988 -1.337903 1.454034 39.000000 15 343.129425
-0.394021 -1.295269 1.173665 40.000000 13 343.129427
-0.384190 -1.262159 0.949607 42.000000 11 343.129430
-0.378413 -1.243173 0.766498 45.000000 9 343.129432
-0.371698 -1.220349 0.603735 40.000000 7 343.129435
-0.365129 -1.198030 0.457842 36.000000 5 343.129438
-0.358021 -1.174710 0.324627 15.000000 3 343.129440
-0.348584 -1.143030 0.200022 14.000000 1 343.129443
-0.400858 -1.310356 1.301190 40.000000 14 343.129450
-0.389780 -1.274137 1.053740 44.000000 12 343.129453
-0.380360 -1.242568 0.848933 49.000000 10 343.129456
-0.376275 -1.229215 0.681725 50.000000 8 343.129458
-0.369444 -1.206146 0.527939 42.000000 6 343.129461
-0.358978 -1.171248 0.386177 29.000000 4 343.129463
-0.355703 -1.159841 0.261205 9.000000 2 343.129466
-0.359012 -1.169900 0.143040 28.000000 0 343.129468
-0.021719 -0.041388 3.804128 97.000000 31 343.129479
-0.185835 -0.553105 3.709807 97.000000 28 343.129482
-0.243576 -0.722116 3.687367 89.000000 27 343.129484
-0.337946 -1.070876 3.634888 91.000000 25 343.129487
-0.439353 -1.419390 3.559971 87.000000 23 343.129489
-0.485101 -1.568130 3.074171 28.000000 21 343.129492
-0.451774 -1.460393 2.317796 36.000000 19 343.129494
-0.428814 -1.386165 1.813221 38.000000 17 343.129497
-0.082770 -0.212239 3.768094 97.000000 30 343.129505
-0.138885 -0.383294 3.753228 97.000000 29 343.129507
-0.289740 -0.896058 3.660764 96.000000 26 343.129510
-0.388211 -1.246478 3.604459 93.000000 24 343.129512
-0.497277 -1.598599 3.523906 65.000000 22 343.129515
-0.468141 -1.505848 2.649565 34.000000 20 343.129518
-0.439220 -1.412812 2.033166 37.000000 18 343.129520
-0.419024 -1.347843 1.608438 39.000000 16 343.129523
-0.411656 -1.336474 1.454034 39.000000 15 343.129480
-0.398540 -1.293885 1.173665 40.000000 13 343.129483
-0.388593 -1.260811 0.949607 42.000000 11 343.129485
-0.382750 -1.241845 0.766498 45.000000 9 343.129488
-0.375956 -1.219044 0.603735 40.000000 7 343.129491
-0.369309 -1.196748 0.457842 36.000000 5 343.129493
-0.362120 -1.173453 0.324627 15.000000 3 343.129496
-0.352572 -1.141806 0.200022 13.000000 1 343.129498
-0.405430 -1.308949 1.301190 40.000000 14 343.129506
-0.394226 -1.272768 1.053740 44.000000 12 343.129509
-0.384695 -1.241233 0.848933 49.000000 10 343.129511
-0.380564 -1.227894 0.681725 49.000000 8 343.129514
-0.372253 -1.200338 0.526296 40.000000 6 343.129516
-0.363064 -1.169988 0.386177 29.000000 4 343.129519
-0.359750 -1.158592 0.261205 9.000000 2 343.129521
-0.363093 -1.168640 0.143040 28.000000 0 343.129524
-0.021864 -0.041312 3.804128 97.000000 31 343.129535
-0.187765 -0.552453 3.709807 97.000000 28 343.129537
-0.246095 -0.721262 3.687367 89.000000 27 343.129540
-0.341682 -1.069690 3.634888 91.000000 25 343.129542
-0.444889 -1.419712 3.564573 87.000000 23 343.129545
-0.491288 -1.568714 3.078559 28.000000 21 343.129547
-0.456869 -1.458807 2.317796 36.000000 19 343.129550
-0.433650 -1.384660 1.813221 38.000000 17 343.129552
-0.083511 -0.211948 3.768094 97.000000 30 343.129560
-0.140222 -0.382807 3.753228 97.000000 29 343.129563
-0.292866 -0.895041 3.660764 96.000000 26 343.129565
-0.393078 -1.246761 3.609152 93.000000 24 343.129568
-0.502854 -1.596854 3.523906 66.000000 22 343.129570
-0.473395 -1.504205 2.649565 34.000000 20 343.129573
-0.443244 -1.408395 2.029177 37.000000 18 343.129576
-0.423726 -1.346372 1.608438 39.000000 16 343.129578
-0.416318 -1.335029 1.454034 39.000000 15 343.129536
-0.403054 -1.292486 1.173665 40.000000 13 343.129538
-0.392992 -1.259447 0.949607 44.000000 11 343.129541
-0.387083 -1.240501 0.766498 47.000000 9 343.129544
-0.380209 -1.217724 0.603735 40.000000 7 343.129546
-0.373484 -1.195452 0.457842 36.000000 5 343.129549
-0.366214 -1.172182 0.324627 15.000000 3 343.129551
-0.355070 -1.135816 0.199576 13.000000 1 343.129554
-0.408879 -1.303963 1.297865 40.000000 14 343.129562
-0.398666 -1.271384 1.053740 44.000000 12 343.129564
-0.389026 -1.239882 0.848933 49.000000 10 343.129567
-0.384847 -1.226558 0.681725 49.000000 8 343.129569
-0.376441 -1.199032 0.526296 40.000000 6 343.129572
-0.367146 -1.168714 0.386177 29.000000 4 343.129574
-0.363792 -1.157329 0.261205 8.000000 2 343.129577
-0.367170 -1.167365 0.143040 28.000000 0 343.129579
-0.022008 -0.041235 3.804128 97.000000 31 343.129590
-0.189692 -0.551794 3.709807 98.000000 28 343.129593
-0.248611 -0.720398 3.687367 89.000000 27 343.129595
-0.345414 -1.068491 3.634888 91.000000 25 343.129598
-0.449842 -1.418150 3.564573 95.000000 23 343.129600
-0.496761 -1.566989 3.078559 26.000000 21 343.129603
-0.461108 -1.454521 2.313663 36.000000 19 343.129605
-0.438481 -1.383138 1.813221 39.000000 17 343.129608
-0.084250 -0.211656 3.768094 96.000000 30 343.129616
-0.141558 -0.382315 3.753228 97.000000 29 343.129618
-0.295988 -0.894013 3.660764 95.000000 26 343.129621
-0.397428 -1.245382 3.609152 92.000000 24 343.129623
-0.509087 -1.597164 3.528406 67.000000 22 343.129626
-0.478642 -1.502543 2.649565 33.000000 20 343.129629
-0.448157 -1.406839 2.029177 37.000000 18 343.129631
-0.428423 -1.344884 1.608438 39.000000 16 343.129634
-0.420976 -1.333567 1.454034 39.000000 15 343.129591
-0.407563 -1.291071 1.173665 40.000000 13 343.129594
-0.397386 -1.258067 0.949607 44.000000 11 343.129596
-0.391411 -1.239142 0.766498 47.000000 9 343.129599
-0.383060 -1.211969 0.601862 40.000000 7 343.129602
-0.377654 -1.194141 0.457842 36.000000 5 343.129604
-0.368822 -1.166213 0.323695 14.000000 3 343.129607
-0.359032 -1.134569 0.199576 13.000000 1 343.129609
-0.413428 -1.302527 1.297865 40.000000 14 343.129617
-0.403102 -1.269985 1.053740 44.000000 12 343.129620
-0.393351 -1.238517 0.848933 49.000000 10 343.129622
-0.389127 -1.225207 0.681725 50.000000 8 343.129625
-0.380624 -1.197710 0.526296 40.000000 6 343.129627
-0.371223 -1.167425 0.386177 29.000000 4 343.129630
-0.367829 -1.156052 0.261205 8.000000 2 343.129632
-0.371243 -1.166077 0.143040 27.000000 0 343.129635
-0.022152 -0.041158 3.804128 97.000000 31 343.129646
-0.191873 -0.551862 3.714746 98.000000 28 343.129648
-0.251124 -0.719526 3.687367 90.000000 27 343.129651
-0.349606 -1.068698 3.639660 91.000000 25 343.129653
-0.454790 -1.416571 3.564573 95.000000 23 343.129656
-0.502228 -1.565246 3.078559 26.000000 21 343.129658
-0.466183 -1.452903 2.313663 35.000000 19 343.129661
-0.443306 -1.381599 1.813221 39.000000 17 343.129664
-0.084988 -0.211360 3.768094 97.000000 30 343.129671
-0.142891 -0.381819 3.753228 97.000000 29 343.129674
-0.299107 -0.892975 3.660764 95.000000 26 343.129676
-0.401772 -1.243987 3.609152 92.000000 24 343.129679
-0.514659 -1.595377 3.528406 67.000000 22 343.129682
-0.483884 -1.500863 2.649565 34.000000 20 343.129684
-0.452141 -1.402398 2.025187 37.000000 18 343.129687
-0.433115 -1.343381 1.608438 39.000000 16 343.129689
-0.425628 -1.332090 1.454034 39.000000 15 343.129647
-0.412068 -1.289641 1.173665 40.000000 13 343.129649
-0.401775 -1.256672 0.949607 42.000000 11 343.129652
-0.395734 -1.237768 0.766498 47.000000 9 343.129655
-0.387288 -1.210625 0.601862 40.000000 7 343.129657
-0.381820 -1.192815 0.457842 35.000000 5 343.129660
-0.372891 -1.164918 0.323695 15.000000 3 343.129662
-0.362990 -1.133309 0.199576 13.000000 1 343.129665
-0.417972 -1.301076 1.297865 40.000000 14 343.129673
-0.407532 -1.268570 1.053740 44.000000 12 343.129675
-0.397672 -1.237136 0.848933 49.000000 10 343.129678
-0.393401 -1.223841 0.681725 49.000000 8 343.129680
-0.384802 -1.196375 0.526296 40.000000 6 343.129683
-0.375296 -1.166122 0.386177 28.000000 4 343.129685
-0.370344 -1.150048 0.260516 8.000000 2 343.129688
-0.375311 -1.164773 0.143040 28.000000 0 343.129690
-0.022295 -0.041081 3.804128 97.000000 31 343.129701
-0.193798 -0.551189 3.714746 97.000000 28 343.129704
-0.253634 -0.718645 3.687367 89.000000 27 343.129706
-0.353335 -1.067471 3.639660 90.000000 25 343.129709
-0.459732 -1.414975 3.564573 95.000000 23 343.129711
-0.507689 -1.563483 3.078559 28.000000 21 343.129714
-0.471252 -1.451266 2.313663 35.000000 19 343.129716
-0.448126 -1.380043 1.813221 38.000000 17 343.129719
-0.085726 -0.211062 3.768094 97.000000 30 343.129727
-0.144223 -0.381317 3.753228 96.000000 29 343.129729
-0.302222 -0.891925 3.660764 95.000000 26 343.129732
-0.406112 -1.242577 3.609152 92.000000 24 343.129734
-0.520900 -1.595641 3.532907 67.000000 22 343.129737
-0.488311 -1.496685 2.645299 34.000000 20 343.129740
-0.457033 -1.400811 2.025187 37.000000 18 343.129742
-0.437802 -1.341861 1.608438 39.000000 16 343.129745
-0.430276 -1.330596 1.454034 39.000000 15 343.129702
-0.416567 -1.288195 1.173665 40.000000 13 343.129705
-0.406159 -1.255262 0.949607 42.000000 11 343.129708
-0.400052 -1.236380 0.766498 47.000000 9 343.129710
-0.391512 -1.209265 0.601862 40.000000 7 343.129713
-0.385982 -1.191475 0.457842 35.000000 5 343.129715
-0.376955 -1.163609 0.323695 15.000000 3 343.129718
-0.366944 -1.132035 0.199576 13.000000 1 343.129720
-0.422511 -1.299610 1.297865 40.000000 14 343.129728
-0.411958 -1.267140 1.053740 46.000000 12 343.129731
-0.401988 -1.235741 0.848933 49.000000 10 343.129733
-0.397671 -1.222460 0.681725 50.000000 8 343.129736
-0.390438 -1.199515 0.527939 40.000000 6 343.129738
-0.379365 -1.164805 0.386177 28.000000 4 343.129741
-0.374357 -1.148748 0.260516 9.000000 2 343.129743
-0.377826 -1.158707 0.142839 28.000000 0 343.129746
-0.022438 -0.041002 3.804128 97.000000 31 343.129757
-0.195721 -0.550509 3.714746 97.000000 28 343.129759
-0.256141 -0.717755 3.687367 89.000000 27 343.129762
-0.357059 -1.066231 3.639660 91.000000 25 343.129764
-0.464668 -1.413362 3.564573 95.000000 23 343.129767
-0.512395 -1.559425 3.074171 29.000000 21 343.129769
-0.476315 -1.449613 2.313663 35.000000 19 343.129772
-0.451940 -1.375424 1.809384 38.000000 17 343.129775
-0.086462 -0.210762 3.768094 97.000000 30 343.129782
-0.145553 -0.380812 3.753228 97.000000 29 343.129785
-0.305742 -0.892054 3.665603 95.000000 26 343.129787
-0.410989 -1.242790 3.613845 93.000000 24 343.129790
-0.526467 -1.593813 3.532907 67.000000 22 343.129793
-0.493533 -1.494972 2.645299 34.000000 20 343.129795
-0.461920 -1.399207 2.025187 37.000000 18 343.129798
-0.442483 -1.340324 1.608438 39.000000 16 343.129800
-0.434918 -1.329086 1.454034 39.000000 15 343.129758
-0.421061 -1.286733 1.173665 40.000000 13 343.129760
-0.410538 -1.253837 0.949607 42.000000 11 343.129763
-0.404365 -1.234975 0.766498 49.000000 9 343.129766
-0.395731 -1.207891 0.601862 40.000000 7 343.129768
-0.388644 -1.185562 0.456433 36.000000 5 343.129771
-0.381014 -1.162286 0.323695 14.000000 3 343.129773
-0.372446 -1.135479 0.200022 13.000000 1 343.129776
-0.427045 -1.298127 1.297865 40.000000 14 343.129784
-0.416378 -1.265694 1.053740 46.000000 12 343.129786
-0.406299 -1.234330 0.848933 49.000000 10 343.129789
-0.401935 -1.221065 0.681725 50.000000 8 343.129791
-0.394622 -1.198144 0.527939 40.000000 6 343.129794
-0.383428 -1.163473 0.386177 29.000000 4 343.129796
-0.378364 -1.147434 0.260516 8.000000 2 343.129799
-0.381868 -1.157381 0.142839 28.000000 0 343.129802
-0.022581 -0.040924 3.804128 97.000000 31 343.129812
-0.197905 -0.550554 3.719685 97.000000 28 343.129815
-0.258645 -0.716857 3.687367 89.000000 27 343.129817
-0.360778 -1.064978 3.639660 91.000000 25 343.129820
-0.470215 -1.413585 3.569176 95.000000 23 343.129822
-0.517835 -1.557627 3.074171 29.000000 21 343.129825
-0.481372 -1.447941 2.313663 36.000000 19 343.129828
-0.456738 -1.373838 1.809384 38.000000 17 343.129830
-0.087197 -0.210459 3.768094 97.000000 30 343.129838
-0.146882 -0.380301 3.753228 97.000000 29 343.129840
-0.308854 -0.890982 3.665603 96.000000 26 343.129843
-0.415325 -1.241348 3.613845 92.000000 24 343.129846
-0.532027 -1.591965 3.532907 67.000000 22 343.129848
-0.498748 -1.493240 2.645299 34.000000 20 343.129851
-0.466801 -1.397586 2.025187 37.000000 18 343.129853
-0.447159 -1.338772 1.608438 39.000000 16 343.129856
-0.439554 -1.327560 1.454034 39.000000 15 343.129813
-0.425550 -1.285255 1.173665 40.000000 13 343.129816
-0.414913 -1.252396 0.949607 42.000000 11 343.129819
-0.408674 -1.233556 0.766498 47.000000 9 343.129821
-0.399945 -1.206503 0.601862 42.000000 7 343.129824
-0.392780 -1.184198 0.456433 36.000000 5 343.129826
-0.385069 -1.160949 0.323695 14.000000 3 343.129829
-0.376407 -1.134172 0.200022 13.000000 1 343.129831
-0.430395 -1.293085 1.294540 40.000000 14 343.129839
-0.420794 -1.264233 1.053740 46.000000 12 343.129842
-0.411968 -1.236995 0.851465 51.000000 10 343.129844
-0.406195 -1.219654 0.681725 50.000000 8 343.129847
-0.398802 -1.196760 0.527939 40.000000 6 343.129849
-0.385950 -1.157517 0.385005 29.000000 4 343.129852
-0.382367 -1.146106 0.260516 8.000000 2 343.129854
-0.385906 -1.156041 0.142839 28.000000 0 343.129857
-0.022724 -0.040845 3.804128 97.000000 31 343.129868
-0.199825 -0.549859 3.719685 97.000000 28 343.129870
-0.261495 -0.716906 3.692262 91.000000 27 343.129873
-0.364494 -1.063712 3.639660 90.000000 25 343.129875
-0.475147 -1.411935 3.569176 95.000000 23 343.129878
-0.523269 -1.555810 3.074171 28.000000 21 343.129880
-0.485526 -1.443585 2.309530 36.000000 19 343.129883
-0.461531 -1.372236 1.809384 38.000000 17 343.129886
-0.087894 -0.210168 3.768094 97.000000 30 343.129893
-0.148142 -0.379812 3.753228 97.000000 29 343.129896
-0.312223 -0.891140 3.670443 96.000000 26 343.129898
-0.419439 -1.239964 3.613845 92.000000 24 343.129901
-0.537581 -1.590098 3.532907 67.000000 22 343.129904
-0.503958 -1.491490 2.645299 34.000000 20 343.129906
-0.471677 -1.395948 2.025187 37.000000 18 343.129909
-0.451596 -1.337281 1.608438 39.000000 16 343.129911
-0.443053 -1.322636 1.450529 39.000000 15 343.129869
-0.428797 -1.280071 1.170528 40.000000 13 343.129872
-0.419282 -1.250940 0.949607 44.000000 11 343.129874
-0.411569 -1.227922 0.764180 49.000000 9 343.129877
-0.403943 -1.205170 0.601862 44.000000 7 343.129879
-0.396705 -1.182889 0.456433 36.000000 5 343.129882
-0.390682 -1.164255 0.324627 14.000000 3 343.129884
-0.380364 -1.132852 0.200022 11.000000 1 343.129887
-0.434906 -1.291575 1.294540 40.000000 14 343.129895
-0.425204 -1.262756 1.053740 46.000000 12 343.129897
-0.416067 -1.235622 0.851465 51.000000 10 343.129900
-0.408789 -1.213999 0.679627 49.000000 8 343.129902
-0.402769 -1.195430 0.527939 40.000000 6 343.129905
-0.389786 -1.156231 0.385005 28.000000 4 343.129907
-0.387749 -1.149524 0.261205 8.000000 2 343.129910
-0.389737 -1.154755 0.142839 26.000000 0 343.129913
-0.022859 -0.040769 3.804128 93.000000 31 343.129923
-0.201648 -0.549194 3.719685 97.000000 28 343.129926
-0.263871 -0.716035 3.692262 90.000000 27 343.129928
-0.368019 -1.062498 3.639660 90.000000 25 343.129931
-0.479826 -1.410352 3.569176 95.000000 23 343.129933
-0.527654 -1.551798 3.069782 28.000000 21 343.129936
-0.490310 -1.441967 2.309530 36.000000 19 343.129939
-0.466079 -1.370698 1.809384 39.000000 17 343.129941
-0.088627 -0.209860 3.768094 97.000000 30 343.129949
-0.149467 -0.379293 3.753228 97.000000 29 343.129951
-0.315332 -0.890044 3.670443 96.000000 26 343.129954
-0.423765 -1.238492 3.613845 93.000000 24 343.129957
-0.542851 -1.588307 3.532907 67.000000 22 343.129959
-0.508901 -1.489810 2.645299 34.000000 20 343.129962
-0.476304 -1.394376 2.025187 37.000000 18 343.129964
-0.456262 -1.335697 1.608438 39.000000 16 343.129967
-0.447437 -1.321159 1.450529 39.000000 15 343.129924
-0.433040 -1.278642 1.170528 40.000000 13 343.129927
-0.423428 -1.249543 0.949607 44.000000 11 343.129930
-0.415639 -1.226550 0.764180 49.000000 9 343.129932
-0.408148 -1.203752 0.601862 44.000000 7 343.129935
-0.400832 -1.181497 0.456433 36.000000 5 343.129937
-0.394540 -1.162953 0.324627 14.000000 3 343.129940
-0.384118 -1.131584 0.200022 11.000000 1 343.129942
-0.439186 -1.290125 1.294540 39.000000 14 343.129950
-0.429390 -1.261340 1.053740 44.000000 12 343.129953
-0.420378 -1.234162 0.851465 51.000000 10 343.129955
-0.413024 -1.212565 0.679627 49.000000 8 343.129958
-0.405416 -1.189547 0.526296 40.000000 6 343.129960
-0.393820 -1.154863 0.385005 28.000000 4 343.129963
-0.391759 -1.148164 0.261205 8.000000 2 343.129966
-0.393766 -1.153387 0.142839 26.000000 0 343.129968
-0.023026 -0.040725 3.809129 93.000000 31 343.129979
-0.203563 -0.548486 3.719685 97.000000 28 343.129981
-0.266725 -0.716063 3.697157 90.000000 27 343.129984
-0.372219 -1.062616 3.644432 91.000000 25 343.129986
-0.485382 -1.410515 3.573778 95.000000 23 343.129989
-0.533068 -1.549947 3.069782 28.000000 21 343.129992
-0.495341 -1.440246 2.309530 36.000000 19 343.129994
-0.470861 -1.369062 1.809384 38.000000 17 343.129997
-0.089359 -0.209550 3.768094 97.000000 30 343.130004
-0.150988 -0.379264 3.758200 97.000000 29 343.130007
-0.318437 -0.888938 3.670443 96.000000 26 343.130010
-0.428085 -1.237005 3.613845 92.000000 24 343.130012
-0.548392 -1.586402 3.532907 66.000000 22 343.130015
-0.514098 -1.488025 2.645299 34.000000 20 343.130017
-0.481168 -1.392705 2.025187 37.000000 18 343.130020
-0.460921 -1.334096 1.608438 39.000000 16 343.130022
-0.452046 -1.319589 1.450529 39.000000 15 343.129980
-0.437500 -1.277122 1.170528 40.000000 13 343.129983
-0.427787 -1.248057 0.949607 40.000000 11 343.129985
-0.419918 -1.225092 0.764180 47.000000 9 343.129988
-0.410843 -1.197935 0.599989 42.000000 7 343.129990
-0.404953 -1.180091 0.456433 36.000000 5 343.129993
-0.398597 -1.161569 0.324627 14.000000 3 343.129995
-0.388066 -1.130236 0.200022 13.000000 1 343.129998
-0.443687 -1.288584 1.294540 39.000000 14 343.130006
