# .PCD v.7 - Point Cloud Data file format
VERSION .7
FIELDS x y z intensity ring timestamp
SIZE 4 4 4 4 2 8
TYPE F F F F U D
COUNT 1 1 1 1 1 1
WIDTH 929
HEIGHT 1
VIEWPOINT 0 0 0 1 0 0 0
POINTS 929
DATA ascii
-3.816760 2.336150 6.644994 13.000000 19 343.560002
-0.666082 0.407684 1.011300 26.000000 17 343.560004
-0.212718 0.152415 4.352112 98.000000 30 343.560012
-0.889858 0.606140 9.982406 11.000000 29 343.560015
-1.698312 1.069676 7.759571 36.000000 26 343.560017
-2.286832 1.405741 7.353980 7.000000 24 343.560020
-2.888779 1.774389 7.070563 10.000000 22 343.560022
-3.933082 2.414904 7.619378 11.000000 20 343.560025
-0.652100 0.400378 1.087655 34.000000 18 343.560028
-0.665479 0.408596 0.924857 24.000000 16 343.560030
-0.670076 0.409007 0.851252 34.000000 15 343.559988
-5.770906 3.522570 5.532039 7.000000 13 343.559990
-0.312344 0.190724 0.324553 4.000000 11 343.559993
-7.057375 4.312911 2.519495 6.000000 5 343.560001
-8.278240 5.059008 1.933397 11.000000 3 343.560003
-8.238463 5.036674 0.958132 9.000000 1 343.560006
-7.404521 4.541049 2.185684 8.000000 4 343.560026
-6.449700 3.957025 1.146239 7.000000 2 343.560029
-8.315486 5.103722 0.487255 12.000000 0 343.560031
-0.037590 0.034536 4.299110 99.000000 31 343.560042
-1.302145 0.848067 9.878940 8.000000 28 343.560045
-1.449842 0.946462 8.347622 6.000000 27 343.560047
-1.975765 1.234471 7.490441 7.000000 25 343.560050
-2.544610 1.570332 7.103915 12.000000 23 343.560052
-3.268821 2.016483 7.102962 11.000000 21 343.560055
-3.803793 2.346504 6.636728 11.000000 19 343.560057
-0.667383 0.411689 1.015137 20.000000 17 343.560060
-0.212185 0.153157 4.352112 98.000000 30 343.560068
-0.893897 0.613476 10.052005 11.000000 29 343.560070
-1.695629 1.076272 7.764410 93.000000 26 343.560073
-2.267241 1.404626 7.307052 8.000000 24 343.560075
-2.884419 1.785608 7.075064 11.000000 22 343.560078
-3.933499 2.434108 7.636442 11.000000 20 343.560081
-0.648135 0.401066 1.083666 30.000000 18 343.560083
-0.649635 0.401997 0.906481 22.000000 16 343.560086
-0.680794 0.418818 0.865270 34.000000 15 343.560043
-5.758575 3.542693 5.532039 10.000000 13 343.560046
-0.315237 0.194005 0.327295 4.000000 11 343.560048
-7.030024 4.329973 2.515268 11.000000 5 343.560056
-8.220832 5.065402 0.958132 11.000000 1 343.560061
-4.235529 2.614886 4.512994 2.000000 14 343.560069
-7.347280 4.541313 2.173961 7.000000 4 343.560082
-6.423213 3.971701 1.144170 5.000000 2 343.560084
-8.263630 5.111692 0.485643 6.000000 0 343.560087
-0.037469 0.034667 4.299110 100.000000 31 343.560098
-1.299826 0.853034 9.883879 8.000000 28 343.560100
-1.425266 0.937523 8.225242 7.000000 27 343.560103
-1.965125 1.237381 7.466582 8.000000 25 343.560105
-2.539113 1.579205 7.103915 10.000000 23 343.560108
-3.797968 2.361254 6.640861 11.000000 19 343.560113
-0.682278 0.424173 1.038159 15.000000 17 343.560116
-0.211649 0.153896 4.352112 99.000000 30 343.560123
-0.895262 0.619024 10.091777 11.000000 29 343.560126
-1.692922 1.082862 7.769249 97.000000 26 343.560128
-2.249150 1.404306 7.264817 9.000000 24 343.560131
-2.878169 1.795666 7.075064 11.000000 22 343.560134
-0.649289 0.404921 1.087655 21.000000 18 343.560139
-0.628091 0.391704 0.880755 21.000000 16 343.560141
-0.700544 0.434347 0.889802 35.000000 15 343.560099
-5.756099 3.568927 5.541451 10.000000 13 343.560101
-0.314558 0.195104 0.327295 4.000000 11 343.560104
-7.006714 4.349425 2.512450 14.000000 5 343.560112
-7.282807 4.520810 1.718894 8.000000 3 343.560114
-8.215793 5.101949 0.959471 11.000000 1 343.560117
-0.792504 0.493089 0.912183 29.000000 14 343.560125
-7.257121 4.520672 2.152859 7.000000 4 343.560137
-6.304237 3.928620 1.126924 7.000000 2 343.560140
-8.199100 5.111433 0.483426 12.000000 0 343.560142
-0.037348 0.034797 4.299110 99.000000 31 343.560153
-1.298137 0.858424 9.893758 9.000000 28 343.560156
-1.406710 0.932363 8.137128 8.000000 27 343.560158
-1.950706 1.237831 7.428409 8.000000 25 343.560161
-2.531929 1.587021 7.099312 10.000000 23 343.560163
-3.492193 2.188083 7.616435 7.000000 21 343.560166
-3.787318 2.373003 6.636728 11.000000 19 343.560168
-0.672643 0.421445 1.026648 9.000000 17 343.560171
-0.211111 0.154634 4.352112 99.000000 30 343.560179
-0.893972 0.622756 10.101720 11.000000 29 343.560181
-1.691246 1.090128 7.778928 93.000000 26 343.560184
-2.226708 1.401120 7.208504 10.000000 24 343.560186
-2.871883 1.805701 7.075064 11.000000 22 343.560189
-0.615239 0.386678 0.866055 22.000000 16 343.560197
-0.717170 0.448129 0.910829 35.000000 15 343.560154
-5.743606 3.588997 5.541451 10.000000 13 343.560157
-0.317420 0.198417 0.330036 4.000000 11 343.560160
-6.991489 4.373856 2.512450 14.000000 5 343.560167
-7.346107 4.595704 1.736614 8.000000 3 343.560170
-8.210599 5.138522 0.960810 12.000000 1 343.560172
-0.793941 0.497836 0.915508 30.000000 14 343.560180
-7.130147 4.476198 2.121207 10.000000 4 343.560193
-6.198224 3.892659 1.111748 8.000000 2 343.560195
-8.181209 5.140022 0.483426 13.000000 0 343.560198
-0.037226 0.034927 4.299110 99.000000 31 343.560209
-1.295779 0.863381 9.898697 8.000000 28 343.560211
-1.382282 0.923126 8.014748 11.000000 27 343.560214
-1.942598 1.242218 7.414093 8.000000 25 343.560216
-2.526375 1.595849 7.099312 10.000000 23 343.560219
-3.508843 2.215609 7.669099 8.000000 21 343.560221
-3.779012 2.386208 6.636728 10.000000 19 343.560224
-0.210802 0.155543 4.357104 99.000000 30 343.560234
-0.890919 0.625259 10.091777 10.000000 29 343.560237
-1.688485 1.096710 7.783767 78.000000 26 343.560239
-2.205772 1.398719 7.156883 14.000000 24 343.560242
-2.863406 1.815049 7.070563 10.000000 22 343.560245
-3.449137 2.185498 6.749127 6.000000 20 343.560247
-0.628136 0.398003 0.884430 26.000000 16 343.560252
-0.730690 0.460131 0.928352 35.000000 15 343.560210
-5.734338 3.611099 5.544590 9.000000 13 343.560212
-0.316726 0.199524 0.330036 4.000000 11 343.560215
-6.842262 4.313804 2.465946 9.000000 5 343.560223
-7.329214 4.622598 1.736614 8.000000 3 343.560225
-8.200132 5.173895 0.961702 12.000000 1 343.560228
-0.795268 0.502738 0.918832 29.000000 14 343.560236
-7.027442 4.447714 2.096588 10.000000 4 343.560248
-6.075129 3.846473 1.093813 8.000000 2 343.560251
-8.167437 5.171220 0.483628 14.000000 0 343.560254
-0.037098 0.035064 4.299110 99.000000 31 343.560264
-1.293895 0.868991 9.908575 8.000000 28 343.560267
-1.367910 0.920792 7.951109 13.000000 27 343.560269
-1.930501 1.244474 7.385463 8.000000 25 343.560272
-2.520509 1.605098 7.099312 10.000000 23 343.560274
-3.506762 2.232315 7.682265 9.000000 21 343.560277
-3.767867 2.398532 6.632595 10.000000 19 343.560280
-0.210230 0.156315 4.357104 99.000000 30 343.560290
-0.889492 0.629138 10.101720 10.000000 29 343.560292
-1.686558 1.104270 7.793446 40.000000 26 343.560295
-2.199177 1.405864 7.152191 13.000000 24 343.560298
-2.858888 1.826206 7.075064 10.000000 22 343.560300
-3.428298 2.189102 6.723532 13.000000 20 343.560303
-0.632457 0.403842 0.891781 23.000000 16 343.560308
-0.741042 0.470452 0.942370 35.000000 15 343.560265
-5.724350 3.634178 5.547727 9.000000 13 343.560268
-0.315993 0.200684 0.330036 4.000000 11 343.560271
-6.441778 4.094385 2.332073 11.000000 5 343.560278
-8.182023 5.202487 0.961702 12.000000 1 343.560283
-0.790359 0.503505 0.915508 22.000000 14 343.560291
-6.958600 4.438238 2.081348 20.000000 4 343.560304
-5.961472 3.803727 1.077258 9.000000 2 343.560306
-8.144218 5.198433 0.483426 15.000000 0 343.560309
-0.036975 0.035193 4.299110 99.000000 31 343.560320
-1.292141 0.874373 9.918454 9.000000 28 343.560322
-1.357105 0.920415 7.907053 11.000000 27 343.560325
-1.919883 1.247137 7.361604 9.000000 25 343.560327
-2.514890 1.613886 7.099312 10.000000 23 343.560330
-3.498948 2.244542 7.682265 9.000000 21 343.560332
-3.757102 2.410150 6.628462 7.000000 19 343.560335
-0.209683 0.157048 4.357104 99.000000 30 343.560345
-0.887725 0.632549 10.106691 10.000000 29 343.560348
-1.682693 1.110150 7.793446 24.000000 26 343.560350
-2.191355 1.411663 7.142805 11.000000 24 343.560353
-2.852496 1.836174 7.075064 10.000000 22 343.560356
-3.409670 2.194000 6.702202 12.000000 20 343.560358
-0.639597 0.411551 0.902806 17.000000 16 343.560363
-0.748407 0.478801 0.952884 37.000000 15 343.560321
-5.714909 3.656236 5.550865 9.000000 13 343.560324
-0.315290 0.201785 0.330036 4.000000 11 343.560326
-6.742543 4.318668 2.441990 13.000000 5 343.560334
-6.982391 4.472294 1.665735 8.000000 3 343.560336
-0.794881 0.510296 0.922157 8.000000 14 343.560347
-6.853109 4.404684 2.055557 15.000000 4 343.560359
-5.848186 3.760234 1.060702 11.000000 2 343.560362
-8.142830 5.237642 0.484232 15.000000 0 343.560365
-0.036852 0.035322 4.299110 100.000000 31 343.560375
-1.290365 0.879754 9.928332 9.000000 28 343.560378
-1.353884 0.925147 7.907053 11.000000 27 343.560380
-1.908020 1.248923 7.332974 9.000000 25 343.560383
-2.509241 1.622655 7.099312 10.000000 23 343.560385
-3.491092 2.256742 7.682265 12.000000 21 343.560388
-3.746303 2.421722 6.624329 7.000000 19 343.560391
-3.267431 2.112166 4.733137 3.000000 17 343.560393
-0.209134 0.157779 4.357104 99.000000 30 343.560401
-0.885946 0.635955 10.111663 10.000000 29 343.560403
-2.184966 1.418364 7.138112 11.000000 24 343.560409
-2.851551 1.849675 7.088566 11.000000 22 343.560411
-3.401991 2.205888 6.702202 12.000000 20 343.560414
-0.646690 0.419315 0.913832 12.000000 16 343.560419
-0.749729 0.483343 0.956388 37.000000 15 343.560376
-5.705383 3.678272 5.554003 9.000000 13 343.560379
-0.314584 0.202885 0.330036 4.000000 11 343.560382
-6.961204 4.493068 2.523723 13.000000 5 343.560389
-6.966737 4.496640 1.665735 8.000000 3 343.560392
-7.187434 4.640864 0.859520 12.000000 1 343.560394
-5.192112 3.358919 5.586920 5.000000 14 343.560402
-6.731620 4.359879 2.025077 15.000000 4 343.560415
-5.602285 3.629828 1.022072 32.000000 2 343.560418
-8.137074 5.274184 0.484837 14.000000 0 343.560420
-0.036758 0.035483 4.304110 99.000000 31 343.560431
-1.289207 0.885573 9.943150 9.000000 28 343.560433
-1.343938 0.925246 7.867891 13.000000 27 343.560436
-1.897415 1.251464 7.309115 10.000000 25 343.560438
-2.503562 1.631404 7.099312 10.000000 23 343.560441
-3.495238 2.276760 7.708597 12.000000 21 343.560444
-3.735469 2.433249 6.620196 7.000000 19 343.560446
-3.262724 2.125308 4.736973 18.000000 17 343.560449
-0.208582 0.158508 4.357104 100.000000 30 343.560456
-0.883720 0.639044 10.111663 10.000000 29 343.560459
-2.181446 1.426927 7.142805 10.000000 24 343.560464
-3.394270 2.217750 6.702202 12.000000 20 343.560469
-5.502643 3.595332 8.775418 5.000000 18 343.560472
-3.412328 2.229555 4.497117 16.000000 16 343.560474
-0.751028 0.487900 0.959893 37.000000 15 343.560432
-5.699038 3.702407 5.560278 10.000000 13 343.560435
-0.313874 0.203982 0.330036 4.000000 11 343.560437
-6.949500 4.519956 2.525132 14.000000 5 343.560445
-6.872759 4.470043 1.648015 16.000000 3 343.560447
-7.221282 4.698517 0.864874 9.000000 1 343.560450
-5.186612 3.381100 5.593569 10.000000 14 343.560458
-6.875108 4.486955 2.070797 15.000000 4 343.560470
-5.589580 3.649361 1.022072 37.000000 2 343.560473
-0.036634 0.035611 4.304110 99.000000 31 343.560486
-1.288024 0.891395 9.957968 9.000000 28 343.560489
-1.337354 0.927610 7.848310 14.000000 27 343.560491
-1.885572 1.253119 7.280485 11.000000 25 343.560494
-2.497852 1.640133 7.099312 10.000000 23 343.560496
-3.726953 2.446274 6.620196 9.000000 19 343.560501
-3.225804 2.117333 4.694767 17.000000 17 343.560504
-0.208055 0.159198 4.357104 99.000000 30 343.560512
-0.882028 0.642286 10.116634 10.000000 29 343.560514
-2.176702 1.434153 7.142805 10.000000 24 343.560519
-3.069543 2.021664 7.660172 8.000000 22 343.560522
-3.384330 2.228151 6.697936 13.000000 20 343.560524
-5.442230 3.583028 8.699617 7.000000 18 343.560527
-3.407748 2.242722 4.500793 38.000000 16 343.560530
-0.752304 0.492472 0.963398 37.000000 15 343.560487
-5.692594 3.726542 5.566554 10.000000 13 343.560490
-0.313160 0.205076 0.330036 4.000000 11 343.560492
-6.942499 4.548234 2.527951 14.000000 5 343.560500
-7.204837 4.723695 0.864874 9.000000 1 343.560505
-5.174778 3.399184 5.593569 6.000000 14 343.560513
-6.904869 4.539099 2.083693 17.000000 4 343.560526
-6.843569 4.500513 1.233156 23.000000 2 343.560528
-7.132681 4.692424 0.438082 10.000000 0 343.560531
-0.036515 0.035732 4.304110 100.000000 31 343.560542
-1.286336 0.896550 9.967847 9.000000 28 343.560544
-1.329263 0.928540 7.818939 15.000000 27 343.560547
-1.875201 1.255211 7.256626 11.000000 25 343.560549
-2.492399 1.648408 7.099312 10.000000 23 343.560552
-3.315784 2.192155 7.348726 4.000000 21 343.560554
-3.718821 2.458619 6.620196 9.000000 19 343.560557
-0.207498 0.159924 4.357104 99.000000 30 343.560567
-0.879780 0.645360 10.116634 10.000000 29 343.560570
-2.173121 1.442697 7.147498 10.000000 24 343.560575
-3.067911 2.035979 7.673675 9.000000 22 343.560577
-3.393918 2.251485 6.732064 13.000000 20 343.560580
-5.397039 3.580343 8.647754 7.000000 18 343.560583
-3.410805 2.262694 4.515493 13.000000 16 343.560585
-0.750667 0.494964 0.963398 37.000000 15 343.560543
-5.683454 3.747541 5.569692 10.000000 13 343.560545
-0.315968 0.208416 0.332778 4.000000 11 343.560548
-6.926580 4.572441 2.527951 13.000000 5 343.560556
-5.193548 3.429715 1.273102 27.000000 3 343.560558
-5.178452 3.427533 5.610194 5.000000 14 343.560568
-6.087193 4.032079 2.628933 3.000000 6 343.560579
-6.904393 4.575116 2.088382 17.000000 4 343.560581
-6.839411 4.533774 1.235225 21.000000 2 343.560584
-7.178720 4.758698 0.441105 9.000000 0 343.560586
-0.036384 0.035866 4.304110 100.000000 31 343.560597
-1.284948 0.902599 9.982665 9.000000 28 343.560600
-1.321689 0.930474 7.794463 16.000000 27 343.560602
-1.864397 1.257898 7.232768 12.000000 25 343.560605
-2.489592 1.659699 7.108517 10.000000 23 343.560607
-3.038588 2.024935 6.756258 6.000000 21 343.560610
-3.712126 2.473793 6.624329 9.000000 19 343.560612
-4.125996 2.749604 6.010839 3.000000 17 343.560615
-0.206939 0.160647 4.357104 100.000000 30 343.560623
-0.877522 0.648427 10.116634 10.000000 29 343.560625
-1.646658 1.127685 7.716018 5.000000 26 343.560628
-2.168072 1.450274 7.147498 10.000000 24 343.560630
-3.071647 2.053938 7.700680 10.000000 22 343.560633
-3.394711 2.269115 6.749127 9.000000 20 343.560636
-5.341912 3.570687 8.579933 7.000000 18 343.560638
-0.748847 0.497712 0.963398 37.000000 15 343.560598
-5.676165 3.772657 5.575967 10.000000 13 343.560601
-0.315202 0.209572 0.332778 4.000000 11 343.560603
-6.922559 4.604561 2.532178 14.000000 5 343.560611
-5.177455 3.445102 1.272169 24.000000 3 343.560614
-6.864911 4.569673 0.831855 9.000000 1 343.560616
-5.154028 3.437300 5.596894 6.000000 14 343.560624
-6.101289 4.070590 2.640432 7.000000 6 343.560634
-6.893227 4.600685 2.089555 16.000000 4 343.560637
-6.807864 4.545430 1.232466 14.000000 2 343.560639
-7.162065 4.783728 0.441105 9.000000 0 343.560642
-0.036265 0.035986 4.304110 100.000000 31 343.560653
-1.281948 0.906855 9.982665 9.000000 28 343.560655
-1.315274 0.932495 7.774881 17.000000 27 343.560658
-1.854039 1.259876 7.208910 12.000000 25 343.560660
-2.480831 1.665768 7.099312 10.000000 23 343.560663
-3.023899 2.029660 6.738703 12.000000 21 343.560665
-3.706238 2.487658 6.628462 9.000000 19 343.560668
-4.151459 2.786498 6.060719 4.000000 17 343.560670
-0.206377 0.161368 4.357104 99.000000 30 343.560678
-0.874825 0.651168 10.111663 10.000000 29 343.560681
-1.632359 1.126282 7.667626 6.000000 26 343.560683
-2.164427 1.458797 7.152191 10.000000 24 343.560686
-3.060846 2.062214 7.691678 10.000000 22 343.560688
-3.799935 2.559215 7.563921 5.000000 20 343.560691
-5.271918 3.550589 8.488173 5.000000 18 343.560694
-0.747193 0.500193 0.963398 38.000000 15 343.560654
-5.666858 3.793625 5.579105 10.000000 13 343.560656
-0.314506 0.210617 0.332778 4.000000 11 343.560659
-6.914415 4.634039 2.534997 14.000000 5 343.560667
-5.038915 3.378353 1.243258 15.000000 3 343.560669
-6.848917 4.593607 0.831855 9.000000 1 343.560672
-5.141998 3.455270 5.596894 9.000000 14 343.560680
-6.062815 4.077112 2.630575 11.000000 6 343.560690
-6.880351 4.628632 2.090727 16.000000 4 343.560692
-0.036133 0.036119 4.304110 99.000000 31 343.560708
-1.278616 0.911548 9.982665 9.000000 28 343.560711
-1.310190 0.936125 7.765091 19.000000 27 343.560713
-1.843248 1.262443 7.185050 13.000000 25 343.560716
-2.482798 1.680324 7.122324 7.000000 23 343.560718
-3.014456 2.039387 6.734314 13.000000 21 343.560721
-3.701758 2.504379 6.636728 9.000000 19 343.560723
-4.101389 2.774749 6.003165 6.000000 17 343.560726
-0.205812 0.162088 4.357104 99.000000 30 343.560734
-0.872547 0.654217 10.111663 10.000000 29 343.560736
-1.622221 1.127665 7.638591 7.000000 26 343.560739
-2.159322 1.466344 7.152191 10.000000 24 343.560741
-3.059035 2.076555 7.705181 11.000000 22 343.560744
-3.788821 2.570999 7.559655 4.000000 20 343.560747
-3.855391 2.616176 6.242087 3.000000 18 343.560749
-4.290727 2.910495 5.698896 6.000000 16 343.560752
-0.748311 0.504923 0.966902 38.000000 15 343.560709
-5.656143 3.816547 5.582243 10.000000 13 343.560712
-0.313732 0.211768 0.332778 4.000000 11 343.560714
-6.898197 4.658147 2.534997 14.000000 5 343.560722
-4.986386 3.368424 1.233932 6.000000 3 343.560725
-6.795707 4.592392 0.827839 19.000000 1 343.560727
-5.129906 3.473198 5.596894 8.000000 14 343.560735
-6.873012 4.656875 2.093071 16.000000 4 343.560748
-6.739072 4.567840 1.226258 15.000000 2 343.560750
-6.822506 4.626130 0.426191 8.000000 0 343.560753
-0.036013 0.036239 4.304110 99.000000 31 343.560764
-1.274955 0.915330 9.977725 9.000000 28 343.560766
-1.305426 0.939275 7.755301 24.000000 27 343.560769
-1.834134 1.265156 7.165964 13.000000 25 343.560771
-1.305234 0.889678 3.780892 3.000000 23 343.560774
-3.005697 2.048023 6.729926 12.000000 21 343.560776
-3.698083 2.519809 6.644994 9.000000 19 343.560779
-4.047125 2.757645 5.937937 8.000000 17 343.560782
-0.205245 0.162805 4.357104 99.000000 30 343.560789
-0.870258 0.657259 10.111663 10.000000 29 343.560792
-1.616215 1.131877 7.628912 7.000000 26 343.560794
-2.152766 1.472898 7.147498 10.000000 24 343.560797
-3.049970 2.085991 7.700680 11.000000 22 343.560800
-3.781976 2.585681 7.563921 6.000000 20 343.560802
-3.831307 2.619411 6.218150 6.000000 18 343.560805
-4.252044 2.907068 5.662145 7.000000 16 343.560807
-0.746632 0.507401 0.966902 38.000000 15 343.560765
-5.646675 3.837470 5.585381 10.000000 13 343.560767
-0.313028 0.212807 0.332778 4.000000 11 343.560770
-6.893794 4.690293 2.539225 13.000000 5 343.560778
-4.938050 3.360934 1.225538 4.000000 3 343.560780
-6.602626 4.495565 0.808652 10.000000 1 343.560783
-5.120836 3.493188 5.600219 10.000000 14 343.560791
-5.324353 3.634748 2.331607 16.000000 6 343.560801
-6.851883 4.679294 2.091899 16.000000 4 343.560803
-6.787710 4.637206 1.237295 19.000000 2 343.560806
-6.806316 4.649917 0.426191 8.000000 0 343.560808
-0.035852 0.036337 4.299110 97.000000 31 343.560819
-1.271592 0.919996 9.977725 9.000000 28 343.560822
-1.302799 0.944651 7.760196 34.000000 27 343.560824
-1.823353 1.267607 7.142105 12.000000 25 343.560827
-1.303574 0.895562 3.785494 6.000000 23 343.560829
-2.998170 2.059026 6.729926 11.000000 21 343.560832
-3.698101 2.539719 6.661526 9.000000 19 343.560834
-4.010564 2.754311 5.899568 8.000000 17 343.560837
-0.204675 0.163521 4.357104 99.000000 30 343.560845
-0.867958 0.660293 10.111663 10.000000 29 343.560847
-1.603005 1.130985 7.585360 7.000000 26 343.560850
-2.147611 1.480404 7.147498 10.000000 24 343.560852
-3.760040 2.589990 7.538325 8.000000 20 343.560858
-2.891358 1.991624 4.722088 6.000000 18 343.560860
-4.242380 2.921152 5.662145 10.000000 16 343.560863
-0.747710 0.512150 0.970407 38.000000 15 343.560820
-5.642207 3.864740 5.594794 10.000000 13 343.560823
-0.315695 0.216317 0.335519 4.000000 11 343.560826
-6.853639 4.698053 2.530769 9.000000 5 343.560833
-4.881724 3.347591 1.215279 5.000000 3 343.560836
-6.291215 4.315751 0.776525 12.000000 1 343.560838
-5.111689 3.513157 5.603544 10.000000 14 343.560846
-5.312270 3.652385 2.331607 16.000000 6 343.560856
-6.856353 4.715762 2.097761 16.000000 4 343.560859
-6.784535 4.668111 1.239364 21.000000 2 343.560861
-6.757121 4.650986 0.424579 22.000000 0 343.560864
-0.035731 0.036456 4.299110 97.000000 31 343.560875
-1.266022 0.922377 9.957968 9.000000 28 343.560877
-1.299659 0.948966 7.760196 60.000000 27 343.560880
-1.820363 1.274503 7.146877 12.000000 25 343.560882
-1.313450 0.908773 3.822315 29.000000 23 343.560885
-2.991325 2.068957 6.729926 11.000000 21 343.560887
-3.694288 2.555170 6.669792 9.000000 19 343.560890
-3.956585 2.736593 5.834340 9.000000 17 343.560893
-0.204103 0.164234 4.357104 99.000000 30 343.560900
-0.865648 0.663319 10.111663 10.000000 29 343.560903
-1.592896 1.132201 7.556324 8.000000 26 343.560905
-2.142431 1.487891 7.147498 10.000000 24 343.560908
-3.742859 2.596498 7.521262 9.000000 20 343.560913
-2.887214 2.002919 4.726078 20.000000 18 343.560916
-4.226587 2.932078 5.654794 10.000000 16 343.560918
-0.748943 0.516652 0.973911 37.000000 15 343.560876
-5.616543 3.874587 5.582243 7.000000 13 343.560878
-0.314976 0.217362 0.335519 4.000000 11 343.560881
-4.834218 3.338638 1.206886 8.000000 3 343.560891
-6.743959 4.659295 0.827393 13.000000 1 343.560894
-5.103081 3.532214 5.606869 10.000000 14 343.560902
-6.196246 4.292081 2.711067 7.000000 6 343.560912
-6.839850 4.739667 2.097761 15.000000 4 343.560914
-6.776338 4.697407 1.240744 22.000000 2 343.560917
-6.597156 4.574902 0.417526 11.000000 0 343.560920
-0.035604 0.036580 4.299110 99.000000 31 343.560930
-1.265926 0.929090 9.982665 8.000000 28 343.560933
-1.297159 0.954101 7.765091 86.000000 27 343.560935
-1.817124 1.281711 7.151649 11.000000 25 343.560938
-1.310270 0.913352 3.822315 33.000000 23 343.560940
-2.986051 2.080756 6.734314 13.000000 21 343.560943
-3.701507 2.579312 6.698722 9.000000 19 343.560946
-3.899663 2.717396 5.765275 8.000000 17 343.560948
-0.203529 0.164946 4.357104 98.000000 30 343.560956
-0.863328 0.666336 10.111663 10.000000 29 343.560958
-1.581776 1.132627 7.522450 7.000000 26 343.560961
-2.138638 1.496350 7.152191 10.000000 24 343.560964
-2.682085 1.875205 6.827518 4.000000 22 343.560966
-3.738049 2.612535 7.529794 9.000000 20 343.560969
-2.853030 1.993993 4.682193 15.000000 18 343.560971
-4.219105 2.948756 5.658469 11.000000 16 343.560974
-0.750063 0.521298 0.977416 37.000000 15 343.560931
-4.292370 2.983269 4.295754 2.000000 13 343.560934
-0.317648 0.220847 0.338260 4.000000 11 343.560937
-5.284903 3.677206 1.981183 20.000000 5 343.560944
-4.758019 3.310603 1.191964 9.000000 3 343.560947
-6.764441 4.708413 0.831409 16.000000 1 343.560949
-5.093784 3.552142 5.610194 10.000000 14 343.560957
-6.177354 4.310981 2.709424 5.000000 6 343.560967
-6.768019 4.726703 1.242123 20.000000 2 343.560972
-6.253512 4.369001 0.401403 14.000000 0 343.560975
-0.035476 0.036704 4.299110 99.000000 31 343.560986
-1.263925 0.934428 9.992542 8.000000 28 343.560988
-1.294639 0.959229 7.769986 84.000000 27 343.560991
-1.812639 1.288046 7.151649 10.000000 25 343.560993
-1.307074 0.917920 3.822315 35.000000 23 343.560996
-2.984652 2.095296 6.747480 10.000000 21 343.560998
-3.690178 2.590599 6.694589 9.000000 19 343.561001
-3.858668 2.708887 5.719232 8.000000 17 343.561004
-0.202728 0.165471 4.352112 98.000000 30 343.561011
-0.860996 0.669346 10.111663 10.000000 29 343.561014
-1.571693 1.133726 7.493415 7.000000 26 343.561016
-2.133402 1.503806 7.152191 10.000000 24 343.561019
-2.661280 1.874523 6.791512 14.000000 22 343.561022
-3.733171 2.628571 7.538325 9.000000 20 343.561024
-2.843588 2.002204 4.678204 10.000000 18 343.561027
-4.208786 2.963466 5.658469 10.000000 16 343.561029
-0.754081 0.528004 0.984425 33.000000 15 343.560987
-4.205399 2.944645 4.220448 7.000000 13 343.560990
-0.316876 0.221955 0.338260 4.000000 11 343.560992
-5.248465 3.679109 1.972728 19.000000 5 343.561000
-4.694143 3.290535 1.179840 10.000000 3 343.561002
-6.760195 4.740574 0.832747 15.000000 1 343.561005
-5.087464 3.574194 5.616843 10.000000 14 343.561013
-6.173858 4.340667 2.714352 8.000000 6 343.561023
-5.248103 3.691163 1.638212 5.000000 4 343.561025
-6.759579 4.755998 1.243503 19.000000 2 343.561028
-6.675363 4.698486 0.422967 15.000000 0 343.561031
-0.035347 0.036828 4.299110 100.000000 31 343.561041
-1.256917 0.936048 9.962907 7.000000 28 343.561044
-1.287203 0.960697 7.745511 57.000000 27 343.561046
-1.809346 1.295235 7.156420 9.000000 25 343.561049
-1.305456 0.923606 3.826917 35.000000 23 343.561051
-2.967540 2.098784 6.725537 5.000000 21 343.561054
-3.653543 2.583966 6.644994 8.000000 19 343.561057
-3.804692 2.690870 5.654004 9.000000 17 343.561059
-0.202149 0.166178 4.352112 98.000000 30 343.561067
-0.859075 0.672677 10.116634 10.000000 29 343.561069
-1.561621 1.134768 7.464379 8.000000 26 343.561072
-2.129546 1.512243 7.156883 10.000000 24 343.561075
-2.647616 1.878760 6.773508 12.000000 22 343.561077
-3.728228 2.644604 7.546857 9.000000 20 343.561080
-2.811999 1.994680 4.638309 7.000000 18 343.561082
-4.198416 2.978139 5.658469 11.000000 16 343.561085
-0.755148 0.532689 0.987929 26.000000 15 343.561042
-4.153740 2.930135 4.179657 11.000000 13 343.561045
-0.312682 0.220649 0.335519 4.000000 11 343.561048
-4.594352 3.244560 1.159322 11.000000 3 343.561058
-6.743607 4.764143 0.832747 15.000000 1 343.561060
-5.074957 3.591931 5.616843 10.000000 14 343.561068
-6.139400 4.348544 2.706139 10.000000 6 343.561078
-5.211391 3.692599 1.631178 19.000000 4 343.561081
-6.742937 4.779564 1.243503 19.000000 2 343.561084
-6.711902 4.759327 0.425587 21.000000 0 343.561086
-0.035219 0.036951 4.299110 100.000000 31 343.561097
-1.284656 0.965796 7.750405 40.000000 27 343.561102
-1.804814 1.301543 7.156420 9.000000 25 343.561104
-1.302225 0.928157 3.826917 36.000000 23 343.561107
-3.810941 2.715296 5.677025 11.000000 17 343.561115
-0.201568 0.166882 4.352112 98.000000 30 343.561122
-0.856722 0.675671 10.116634 10.000000 29 343.561125
-1.552576 1.136497 7.440183 8.000000 26 343.561128
-2.118640 1.515651 7.138112 9.000000 24 343.561130
-2.642813 1.889257 6.778008 11.000000 22 343.561133
-3.721095 2.659118 7.551123 9.000000 20 343.561135
-2.782950 1.988713 4.602404 7.000000 18 343.561138
-4.187995 2.992776 5.658469 11.000000 16 343.561140
-0.753284 0.535321 0.987929 6.000000 15 343.561098
-4.102235 2.915301 4.138865 10.000000 13 343.561101
-6.817510 4.850323 2.547680 10.000000 5 343.561111
-4.502946 3.203624 1.140670 16.000000 3 343.561113
-6.735052 4.793429 0.833640 15.000000 1 343.561116
-5.065428 3.611792 5.620168 10.000000 14 343.561124
-6.143404 4.383663 2.714352 10.000000 6 343.561134
-5.107479 3.645817 1.604215 15.000000 4 343.561136
-6.750393 4.820340 1.247642 19.000000 2 343.561139
-6.703377 4.788534 0.425990 21.000000 0 343.561142
-0.035089 0.037074 4.299110 100.000000 31 343.561152
-1.800259 1.307835 7.156420 9.000000 25 343.561160
-1.300564 0.933836 3.831520 59.000000 23 343.561162
-3.785826 2.717368 8.603884 5.000000 21 343.561165
-3.484533 2.501110 6.372219 6.000000 19 343.561167
-3.793627 2.722974 5.665514 11.000000 17 343.561170
-0.201206 0.167771 4.357104 98.000000 30 343.561178
-0.854358 0.678658 10.116634 10.000000 29 343.561180
-1.543538 1.138177 7.415987 8.000000 26 343.561183
-2.118937 1.527073 7.156883 7.000000 24 343.561185
-2.632668 1.895925 6.769007 11.000000 22 343.561188
-3.716024 2.675138 7.559655 9.000000 20 343.561190
-2.746638 1.977284 4.554529 13.000000 18 343.561193
-4.180274 3.009357 5.662145 11.000000 16 343.561196
-4.625440 3.311480 5.670003 8.000000 15 343.561153
-4.063547 2.909208 4.110625 9.000000 13 343.561156
-5.246459 3.758864 2.695913 3.000000 7 343.561164
-6.816134 4.885270 2.553316 11.000000 5 343.561166
-4.391920 3.147782 1.117354 37.000000 3 343.561169
-6.722326 4.819811 0.834086 14.000000 1 343.561171
-5.043692 3.622916 5.610194 8.000000 14 343.561179
-6.131899 4.407836 2.715995 10.000000 6 343.561189
-4.337043 3.118774 1.379130 30.000000 4 343.561192
-6.745586 4.852550 1.249712 16.000000 2 343.561194
-6.682567 4.808985 0.425788 20.000000 0 343.561197
-0.034960 0.037196 4.299110 100.000000 31 343.561208
-0.997925 0.759449 7.972387 6.000000 28 343.561210
-1.795683 1.314111 7.156420 9.000000 25 343.561215
-1.298879 0.939515 3.836122 79.000000 23 343.561218
-3.772434 2.727759 8.595106 6.000000 21 343.561220
-2.570486 1.858656 4.731439 9.000000 19 343.561223
-3.786697 2.738078 5.669351 11.000000 17 343.561225
-0.200619 0.168472 4.357104 99.000000 30 343.561233
-0.851984 0.681636 10.116634 10.000000 29 343.561236
-1.533498 1.139058 7.386952 8.000000 26 343.561238
-1.138870 0.826802 3.881332 4.000000 24 343.561241
-2.624271 1.903825 6.764506 11.000000 22 343.561243
-3.710886 2.691156 7.568187 9.000000 20 343.561246
-2.725080 1.976243 4.530592 31.000000 18 343.561249
-4.169744 3.023931 5.662145 11.000000 16 343.561251
-4.608068 3.323434 5.662994 10.000000 15 343.561209
-4.028108 2.905157 4.085523 8.000000 13 343.561211
-0.306964 0.221464 0.332778 4.000000 11 343.561214
-5.240825 3.782581 2.699659 6.000000 7 343.561219
-6.802929 4.911841 2.554725 12.000000 5 343.561222
-4.384887 3.165969 1.118287 39.000000 3 343.561224
-6.713534 4.849079 0.834978 15.000000 1 343.561227
-6.124125 4.434753 2.719280 10.000000 6 343.561245
-4.223785 3.059755 1.348650 80.000000 4 343.561247
-6.681919 4.844012 0.426594 20.000000 0 343.561252
-0.034830 0.037318 4.299110 100.000000 31 343.561263
-0.996501 0.763874 7.982265 9.000000 28 343.561266
-1.789883 1.319485 7.151649 10.000000 25 343.561271
-1.297170 0.945194 3.840724 72.000000 23 343.561273
-3.764827 2.742321 8.599495 8.000000 21 343.561276
-2.550335 1.857676 4.706641 14.000000 19 343.561278
-3.779707 2.753167 5.673188 10.000000 17 343.561281
-0.200030 0.169172 4.357104 99.000000 30 343.561289
-0.849599 0.684606 10.116634 10.000000 29 343.561291
-1.524477 1.140635 7.362756 8.000000 26 343.561294
-1.133191 0.828735 3.871947 9.000000 24 343.561296
-2.614093 1.910404 6.755504 11.000000 22 343.561299
-3.703575 2.705631 7.572453 9.000000 20 343.561302
-2.691395 1.966186 4.486708 49.000000 18 343.561304
-4.159163 3.038467 5.662145 11.000000 16 343.561307
-4.590668 3.335306 5.655985 7.000000 15 343.561264
-3.992748 2.900894 4.060421 8.000000 13 343.561267
-5.505059 4.002593 2.838263 8.000000 7 343.561275
-6.777984 4.929915 2.551907 13.000000 5 343.561277
-4.314221 3.137915 1.104298 39.000000 3 343.561280
-6.708647 4.881274 0.836317 14.000000 1 343.561282
-6.116239 4.461670 2.722566 10.000000 6 343.561300
-6.664969 4.867307 0.426594 19.000000 0 343.561308
-0.034699 0.037439 4.299110 100.000000 31 343.561319
-0.993829 0.767347 7.982265 13.000000 28 343.561321
-1.785266 1.325725 7.151649 10.000000 25 343.561326
-1.293863 0.949716 3.840724 72.000000 23 343.561329
-3.761026 2.759698 8.612660 8.000000 21 343.561331
-2.534760 1.859908 4.690109 11.000000 19 343.561334
-3.772659 2.768240 5.677025 10.000000 17 343.561336
-0.199438 0.169869 4.357104 99.000000 30 343.561344
-0.847204 0.687567 10.116634 10.000000 29 343.561347
-1.515464 1.142164 7.338560 9.000000 26 343.561349
-1.137238 0.837803 3.895411 19.000000 24 343.561352
-2.605320 1.918681 6.751004 12.000000 22 343.561354
-3.699934 2.723826 7.585250 9.000000 20 343.561357
-2.689024 1.979611 4.494687 40.000000 18 343.561360
-4.150728 3.055701 5.665820 11.000000 16 343.561362
-4.578998 3.351310 5.655985 6.000000 15 343.561320
-3.954325 2.894122 4.032181 7.000000 13 343.561322
-5.502274 4.030003 2.843882 10.000000 7 343.561330
-6.772342 4.962049 2.556135 13.000000 5 343.561333
-4.247223 3.113050 1.091241 36.000000 3 343.561335
-6.690711 4.905829 0.836317 14.000000 1 343.561338
-6.107455 4.489651 2.725851 10.000000 6 343.561356
-6.758805 4.970283 2.114173 20.000000 4 343.561358
-5.141798 3.782552 0.981373 22.000000 2 343.561361
-6.647939 4.890543 0.426594 19.000000 0 343.561363
-0.034562 0.037566 4.299110 100.000000 31 343.561374
-0.989170 0.769553 7.967447 14.000000 28 343.561377
-1.285896 1.002695 7.862996 3.000000 27 343.561379
-1.780395 1.332259 7.151649 10.000000 25 343.561382
-1.291944 0.955614 3.845327 82.000000 23 343.561384
-3.756665 2.777738 8.625826 8.000000 21 343.561387
-2.509825 1.855801 4.657046 7.000000 19 343.561389
-3.765065 2.783955 5.680862 10.000000 17 343.561392
-0.198814 0.170599 4.357104 99.000000 30 343.561400
-0.844678 0.690668 10.116634 10.000000 29 343.561402
-1.506260 1.143907 7.314364 9.000000 26 343.561405
-1.127232 0.836822 3.871947 33.000000 24 343.561407
-2.596858 1.926466 6.746503 12.000000 22 343.561410
-3.696688 2.741385 7.598049 9.000000 20 343.561413
-4.142760 3.072191 5.669495 10.000000 16 343.561418
-4.569554 3.370187 5.659490 7.000000 15 343.561375
-3.906096 2.880868 3.994527 8.000000 13 343.561378
-5.472546 4.039130 2.836390 11.000000 7 343.561386
-6.761829 4.992537 2.558953 13.000000 5 343.561388
-4.184957 3.089926 1.079117 23.000000 3 343.561391
-3.695157 2.734263 4.173859 11.000000 14 343.561401
-0.265281 0.196291 0.323837 4.000000 12 343.561404
-6.103131 4.519374 2.730779 10.000000 6 343.561411
-6.757037 5.005418 2.118862 12.000000 4 343.561414
-5.140499 3.809322 0.983443 13.000000 2 343.561416
-6.642009 4.923801 0.427199 20.000000 0 343.561419
-0.034430 0.037686 4.299110 100.000000 31 343.561430
-0.985255 0.772042 7.957569 13.000000 28 343.561432
-1.278385 1.004032 7.838520 4.000000 27 343.561435
-1.775734 1.338466 7.151649 9.000000 25 343.561437
-1.288601 0.960118 3.845327 81.000000 23 343.561440
-3.752710 2.795127 8.638992 9.000000 21 343.561442
-2.494304 1.857827 4.640514 6.000000 19 343.561445
-3.757895 2.798996 5.684699 10.000000 17 343.561448
-0.198217 0.171292 4.357104 98.000000 30 343.561455
-0.842262 0.693612 10.116634 10.000000 29 343.561458
-1.497263 1.145336 7.290168 9.000000 26 343.561460
-1.125686 0.841785 3.876639 40.000000 24 343.561463
-2.602329 1.944644 6.778008 12.000000 22 343.561466
-4.134727 3.088661 5.673170 11.000000 16 343.561473
-4.560625 3.388244 5.662994 8.000000 15 343.561431
-3.852268 2.861984 3.950598 9.000000 13 343.561433
-5.398888 4.013953 2.806422 13.000000 7 343.561441
-6.755909 5.024699 2.563181 13.000000 5 343.561444
-6.732242 5.007097 1.684387 13.000000 3 343.561446
-5.126031 3.813869 0.665419 3.000000 1 343.561449
-3.679602 2.742681 4.167210 11.000000 14 343.561457
-0.267835 0.199632 0.326780 4.000000 12 343.561459
-6.094889 4.546298 2.734065 10.000000 6 343.561467
-0.034299 0.037806 4.299110 100.000000 31 343.561485
-0.980115 0.773550 7.937812 13.000000 28 343.561488
-1.269284 1.004066 7.804253 6.000000 27 343.561490
-1.773430 1.346462 7.161192 9.000000 25 343.561493
-1.285241 0.964610 3.845327 78.000000 23 343.561495
-3.748679 2.812523 8.652159 9.000000 21 343.561498
-2.490055 1.868212 4.644647 5.000000 19 343.561500
-3.750666 2.814020 5.688536 10.000000 17 343.561503
-0.197618 0.171983 4.357104 98.000000 30 343.561511
-0.839836 0.696548 10.116634 10.000000 29 343.561513
-1.488274 1.146716 7.265972 9.000000 26 343.561516
-1.121362 0.844672 3.871947 40.000000 24 343.561518
-2.595525 1.953716 6.778008 5.000000 22 343.561521
-3.400275 2.558558 5.707494 7.000000 18 343.561526
-4.126629 3.105114 5.676845 11.000000 16 343.561529
-4.548770 3.404143 5.662994 9.000000 15 343.561486
-3.801737 2.845091 3.909807 8.000000 13 343.561489
-5.336605 3.996647 2.782072 14.000000 7 343.561497
-6.738328 5.048251 2.563181 12.000000 5 343.561499
-5.100732 3.822779 0.664080 15.000000 1 343.561504
-3.640143 2.733087 4.133961 12.000000 14 343.561512
-0.267136 0.200565 0.326780 4.000000 12 343.561515
-6.086534 4.573218 2.737350 10.000000 6 343.561522
-6.637652 4.990938 1.249022 13.000000 2 343.561527
-0.034166 0.037926 4.299110 100.000000 31 343.561541
-0.974976 0.775032 7.918055 13.000000 28 343.561543
-1.261791 1.005316 7.779777 7.000000 27 343.561546
-1.763974 1.349015 7.142105 9.000000 25 343.561548
-1.281866 0.969091 3.845327 70.000000 23 343.561551
-3.742662 2.828480 8.660936 8.000000 21 343.561553
-2.443109 1.846352 4.570254 8.000000 19 343.561556
-3.740821 2.827096 5.688536 10.000000 17 343.561559
-0.197017 0.172671 4.357104 99.000000 30 343.561566
-0.837400 0.699475 10.116634 10.000000 29 343.561569
-1.478301 1.147277 7.236937 9.000000 26 343.561571
-1.119782 0.849624 3.876639 40.000000 24 343.561574
-3.376911 2.559488 5.683557 8.000000 18 343.561582
-4.121169 3.123595 5.684196 11.000000 16 343.561584
-4.542555 3.424294 5.670003 10.000000 15 343.561542
-3.751371 2.827881 3.869016 8.000000 13 343.561544
-5.256004 3.964997 2.748358 12.000000 7 343.561552
-6.724494 5.074631 2.564590 13.000000 5 343.561555
-6.693201 5.051015 1.683455 20.000000 3 343.561557
-5.119154 3.864565 0.667650 3.000000 1 343.561560
-3.618667 2.736767 4.120662 10.000000 14 343.561568
-0.266435 0.201497 0.326780 4.000000 12 343.561570
-6.081829 4.602986 2.742278 10.000000 6 343.561578
-3.886966 2.942887 1.266587 39.000000 4 343.561580
-6.620190 5.014077 1.249022 13.000000 2 343.561583
-5.084870 3.852634 0.351020 3.000000 0 343.561586
-0.034034 0.038045 4.299110 100.000000 31 343.561596
-0.969840 0.776487 7.898298 12.000000 28 343.561599
-1.255098 1.007165 7.760196 7.000000 27 343.561601
-1.753338 1.350607 7.118247 8.000000 25 343.561604
-1.278476 0.973559 3.845327 57.000000 23 343.561606
-3.736578 2.844429 8.669713 8.000000 21 343.561609
-2.409780 1.834415 4.520658 15.000000 19 343.561612
-3.728379 2.838194 5.684699 10.000000 17 343.561614
-0.196413 0.173358 4.357104 98.000000 30 343.561622
-0.834545 0.702050 10.111663 9.000000 29 343.561624
-1.469333 1.148556 7.212741 9.000000 26 343.561627
-1.116809 0.853527 3.876639 41.000000 24 343.561630
-3.545828 2.708027 9.284973 3.000000 22 343.561632
-2.291972 1.749794 4.786798 15.000000 20 343.561635
-3.384725 2.584063 5.711484 9.000000 18 343.561637
-4.112935 3.140019 5.687871 11.000000 16 343.561640
-4.527734 3.437973 5.666499 9.000000 15 343.561597
-3.701173 2.810355 3.828225 9.000000 13 343.561600
-5.242132 3.983320 2.748358 13.000000 7 343.561608
-6.660910 5.063236 2.547680 8.000000 5 343.561610
-6.667708 5.068403 1.681590 13.000000 3 343.561613
-3.588298 2.733540 4.097388 8.000000 14 343.561623
-0.268945 0.204875 0.329723 4.000000 12 343.561626
-6.073236 4.629914 2.745563 10.000000 6 343.561633
-3.872804 2.953489 1.265415 43.000000 4 343.561636
-6.602648 5.037155 1.249022 15.000000 2 343.561638
-5.095220 3.888546 0.352230 35.000000 0 343.561641
-0.033901 0.038164 4.299110 100.000000 31 343.561652
-0.964704 0.777916 7.878541 11.000000 28 343.561654
-1.247616 1.008339 7.735720 7.000000 27 343.561657
-1.735634 1.346647 7.065758 7.000000 25 343.561659
-1.275070 0.978016 3.845327 57.000000 23 343.561662
-3.730429 2.860371 8.678491 8.000000 21 343.561664
-2.381031 1.825693 4.479329 37.000000 19 343.561667
-3.713361 2.847290 5.677025 10.000000 17 343.561670
-0.195807 0.174043 4.357104 99.000000 30 343.561677
-0.832089 0.704959 10.111663 9.000000 29 343.561680
-1.460373 1.149787 7.188545 8.000000 26 343.561682
-1.115191 0.858473 3.881332 61.000000 24 343.561685
-3.522545 2.709765 9.248966 5.000000 22 343.561688
-2.285850 1.757784 4.786798 16.000000 20 343.561690
-3.368517 2.590350 5.699515 9.000000 18 343.561693
-4.110012 3.160557 5.698896 11.000000 16 343.561695
-4.498709 3.440758 5.645471 6.000000 15 343.561653
-3.669695 2.806702 3.806261 9.000000 13 343.561656
-5.261328 4.026953 2.765215 13.000000 7 343.561663
-6.635576 5.080623 2.544861 7.000000 5 343.561666
-6.646074 5.088661 1.680657 10.000000 3 343.561668
-6.614179 5.066071 0.839440 11.000000 1 343.561671
-3.560958 2.732409 4.077438 7.000000 14 343.561679
-0.271435 0.208273 0.332666 4.000000 12 343.561681
-6.068274 4.659714 2.750492 10.000000 6 343.561689
-3.820070 2.934419 1.252520 10.000000 4 343.561691
-6.588952 5.063190 1.249712 17.000000 2 343.561694
-0.033767 0.038282 4.299110 98.000000 31 343.561707
-0.960174 0.779809 7.863723 11.000000 28 343.561710
-1.240141 1.009473 7.711244 7.000000 27 343.561712
-1.703857 1.331544 6.956008 6.000000 25 343.561715
-1.273194 0.983655 3.849930 73.000000 23 343.561717
-3.724214 2.876304 8.687268 8.000000 21 343.561720
-2.374643 1.833993 4.479329 37.000000 19 343.561723
-3.705937 2.862194 5.680862 10.000000 17 343.561725
-0.195228 0.174691 4.357104 98.000000 30 343.561733
-0.829341 0.707367 10.106691 10.000000 29 343.561735
-1.450639 1.149935 7.159510 8.000000 26 343.561738
-1.112338 0.862167 3.881332 77.000000 24 343.561741
-3.497571 2.710040 9.208459 5.000000 22 343.561743
-2.254958 1.746588 4.735607 13.000000 20 343.561746
-3.364220 2.605784 5.707494 9.000000 18 343.561748
-4.094147 3.170018 5.691545 11.000000 16 343.561751
-3.421599 2.635928 4.324257 2.000000 15 343.561708
-3.622869 2.790986 3.768607 10.000000 13 343.561711
-5.258961 4.052867 2.770834 10.000000 7 343.561719
-6.651611 5.129828 1.686253 11.000000 3 343.561724
-6.608284 5.098254 0.840779 14.000000 1 343.561726
-3.530715 2.728837 4.054164 8.000000 14 343.561734
-0.273904 0.211691 0.335609 4.000000 12 343.561737
-4.514751 3.489393 2.725228 2.000000 8 343.561742
-6.063997 4.688477 2.755419 10.000000 6 343.561744
-3.791095 2.932202 1.246658 9.000000 4 343.561747
-6.599542 5.106224 1.254540 18.000000 2 343.561750
-6.585729 5.097375 0.429617 15.000000 0 343.561752
-0.033640 0.038393 4.299110 98.000000 31 343.561763
-0.955177 0.781021 7.843966 11.000000 28 343.561765
-1.232849 1.010352 7.686768 8.000000 27 343.561768
-1.639573 1.290082 6.712650 7.000000 25 343.561770
-1.269925 0.987872 3.849930 70.000000 23 343.561773
-3.714655 2.888638 8.687268 8.000000 21 343.561776
-2.359663 1.834948 4.462797 6.000000 19 343.561778
-3.678710 2.860692 5.654004 9.000000 17 343.561781
-0.194403 0.175177 4.352112 98.000000 30 343.561788
-0.826866 0.710258 10.106691 10.000000 29 343.561791
-1.441702 1.151067 7.135314 8.000000 26 343.561794
-1.110682 0.867106 3.886025 80.000000 24 343.561796
-3.471395 2.708227 9.163450 5.000000 22 343.561799
-2.247097 1.752452 4.731341 8.000000 20 343.561801
-3.355561 2.616925 5.707494 9.000000 18 343.561804
-4.083056 3.184289 5.691545 10.000000 16 343.561806
-3.401567 2.638517 4.310239 6.000000 15 343.561764
-3.595138 2.788669 3.749781 10.000000 13 343.561767
-5.252106 4.076886 2.774580 8.000000 7 343.561774
-6.456856 5.013865 2.491312 7.000000 5 343.561777
-6.630682 5.148845 1.685320 13.000000 3 343.561779
-6.599207 5.126249 0.841672 15.000000 1 343.561782
-3.495123 2.719889 4.024241 8.000000 14 343.561790
-0.273201 0.212598 0.335609 4.000000 12 343.561792
-4.663701 3.630588 2.819640 7.000000 8 343.561797
-6.055046 4.715419 2.758705 10.000000 6 343.561800
-3.777002 2.942430 1.245486 7.000000 4 343.561802
-6.609020 5.150538 1.259369 18.000000 2 343.561805
-6.587597 5.135691 0.430625 16.000000 0 343.561808
-0.033506 0.038511 4.299110 100.000000 31 343.561819
-0.950047 0.782373 7.824209 9.000000 28 343.561822
-1.225390 1.011407 7.662292 8.000000 27 343.561824
-1.624525 1.287448 6.669704 8.000000 25 343.561827
-1.268007 0.993504 3.854532 37.000000 23 343.561829
-3.697005 2.895678 8.669713 7.000000 21 343.561832
-3.666177 2.871538 5.650167 9.000000 17 343.561837
-0.193790 0.175854 4.352112 98.000000 30 343.561845
-0.824382 0.713140 10.106691 9.000000 29 343.561847
-1.432774 1.152151 7.111118 8.000000 26 343.561850
-1.107648 0.870978 3.886025 77.000000 24 343.561852
-3.449934 2.710910 9.131945 5.000000 22 343.561855
-2.234813 1.755453 4.718543 6.000000 20 343.561857
-3.346405 2.628623 5.707494 10.000000 18 343.561860
-4.058587 3.188052 5.673170 10.000000 16 343.561863
-3.347373 2.615245 4.254167 11.000000 15 343.561820
-3.566977 2.786821 3.730954 8.000000 13 343.561823
-5.248800 4.103760 2.780199 8.000000 7 343.561831
-3.514537 2.748818 1.400594 2.000000 5 343.561833
-6.612670 5.171958 1.685320 12.000000 3 343.561836
-6.581273 5.149254 0.841672 14.000000 1 343.561838
-3.462094 2.713643 3.997642 8.000000 14 343.561846
-0.269276 0.211057 0.332666 4.000000 12 343.561849
-4.726002 3.705655 2.863699 8.000000 8 343.561854
-6.053412 4.748185 2.765276 10.000000 6 343.561856
-3.724644 2.922591 1.232590 7.000000 4 343.561859
-6.587106 5.170519 1.258679 18.000000 2 343.561861
-6.565700 5.155570 0.430424 17.000000 0 343.561864
-0.033371 0.038627 4.299110 100.000000 31 343.561875
-0.944919 0.783700 7.804452 9.000000 28 343.561877
-1.217155 1.011772 7.632920 8.000000 27 343.561880
-1.603680 1.280066 6.602901 8.000000 25 343.561882
-1.266065 0.999134 3.859135 27.000000 23 343.561885
-3.669946 2.895210 8.630215 7.000000 21 343.561887
-3.625928 2.860491 5.604123 7.000000 17 343.561892
-0.193388 0.176726 4.357104 99.000000 30 343.561900
-0.821888 0.716013 10.106691 9.000000 29 343.561903
-1.422880 1.152395 7.082082 8.000000 26 343.561905
-1.105954 0.875910 3.890718 77.000000 24 343.561908
-3.425082 2.710773 9.091437 5.000000 22 343.561910
-2.228672 1.763243 4.718543 6.000000 20 343.561913
-3.339573 2.642158 5.711484 10.000000 18 343.561916
-3.983625 3.151716 5.584966 8.000000 16 343.561918
-3.313001 2.607064 4.222626 9.000000 15 343.561876
-3.535812 2.782403 3.708989 7.000000 13 343.561878
-5.241727 4.127793 2.783945 8.000000 7 343.561886
-3.512457 2.767007 1.403413 36.000000 5 343.561889
-6.548272 5.158533 1.674129 7.000000 3 343.561891
-6.574992 5.181442 0.843010 14.000000 1 343.561894
-3.426222 2.704886 3.967718 9.000000 14 343.561901
-0.268538 0.211996 0.332666 4.000000 12 343.561904
-4.745093 3.747445 2.882582 9.000000 8 343.561909
-6.036802 4.769286 2.765276 10.000000 6 343.561912
-3.638150 2.875298 1.209144 10.000000 4 343.561914
-6.584557 5.205767 1.261438 18.000000 2 343.561917
-6.543746 5.175357 0.430222 17.000000 0 343.561919
-0.033236 0.038744 4.299110 99.000000 31 343.561930
-0.940389 0.785499 7.789634 11.000000 28 343.561933
-1.209713 1.012745 7.608444 8.000000 27 343.561935
-1.596874 1.283785 6.593357 8.000000 25 343.561938
-1.262569 1.003547 3.859135 27.000000 23 343.561940
-3.007886 2.389994 5.715080 6.000000 19 343.561945
-3.593331 2.855180 5.569591 7.000000 17 343.561948
-0.192770 0.177400 4.357104 98.000000 30 343.561956
-0.818982 0.718525 10.101720 9.000000 29 343.561958
-1.413975 1.153379 7.057886 8.000000 26 343.561961
-1.102890 0.879765 3.890718 77.000000 24 343.561963
-3.401976 2.711852 9.055430 5.000000 22 343.561966
-2.193949 1.748257 4.658820 7.000000 20 343.561969
-3.327972 2.651921 5.707494 10.000000 18 343.561971
-3.832079 3.053627 5.390182 8.000000 16 343.561974
-3.287111 2.605322 4.201598 8.000000 15 343.561931
-3.507773 2.780220 3.690163 7.000000 13 343.561934
-5.234551 4.151826 2.787691 9.000000 7 343.561942
-3.480228 2.761360 1.394958 39.000000 5 343.561944
-6.530225 5.181359 1.674129 7.000000 3 343.561947
-6.572469 5.216747 0.844795 14.000000 1 343.561949
-3.390452 2.695912 3.937795 9.000000 14 343.561957
-0.267796 0.212932 0.332666 4.000000 12 343.561960
-4.703568 3.741384 2.865797 13.000000 8 343.561965
-6.016421 4.787389 2.763633 11.000000 6 343.561967
-3.536822 2.815328 1.181008 49.000000 4 343.561970
-6.581841 5.241058 1.264198 16.000000 2 343.561972
-6.533456 5.204393 0.430625 17.000000 0 343.561975
-0.033101 0.038859 4.299110 99.000000 31 343.561986
-0.935858 0.787275 7.774816 10.000000 28 343.561988
-1.202279 1.013679 7.583968 7.000000 27 343.561991
-1.586580 1.284651 6.569499 9.000000 25 343.561993
-1.259059 1.007949 3.859135 28.000000 23 343.561996
-3.003920 2.403996 5.723346 9.000000 19 343.562001
-3.568324 2.855687 5.546569 7.000000 17 343.562003
-0.192150 0.178072 4.357104 99.000000 30 343.562011
-0.816069 0.721026 10.096748 9.000000 29 343.562014
-1.405082 1.154315 7.033690 8.000000 26 343.562016
-1.099812 0.883610 3.890718 77.000000 24 343.562019
-3.375507 2.710077 9.010422 5.000000 22 343.562021
-2.159357 1.733051 4.599097 13.000000 20 343.562024
-3.318695 2.663521 5.707494 11.000000 18 343.562027
-3.657473 2.935423 5.162322 10.000000 16 343.562029
-3.258487 2.601206 4.177066 8.000000 15 343.561987
-3.476751 2.775447 3.668198 7.000000 13 343.561989
-5.227271 4.175860 2.791437 10.000000 7 343.561997
-3.429345 2.740548 1.379456 33.000000 5 343.562000
-6.446863 5.151989 1.658274 8.000000 3 343.562002
-6.554219 5.239657 0.844795 14.000000 1 343.562005
-3.351874 2.684387 3.904546 9.000000 14 343.562013
-0.263896 0.211338 0.329723 4.000000 12 343.562015
-4.651517 3.726565 2.842719 14.000000 8 343.562020
-5.959137 4.775874 2.745563 11.000000 6 343.562023
