# .PCD v.7 - Point Cloud Data file format
VERSION .7
FIELDS x y z intensity ring timestamp
SIZE 4 4 4 4 2 8
TYPE F F F F U D
COUNT 1 1 1 1 1 1
WIDTH 925
HEIGHT 1
VIEWPOINT 0 0 0 1 0 0 0
POINTS 925
DATA ascii
-0.324288 0.118477 0.173988 4.000000 4 343.255955
-0.040573 0.024155 3.859127 99.000000 31 343.255971
-0.630621 0.249770 4.312397 98.000000 28 343.255974
-1.913501 0.761040 9.923886 92.000000 27 343.255976
-2.873760 1.077201 9.852443 98.000000 25 343.255979
-3.861587 1.423061 9.754969 21.000000 23 343.255981
-5.004638 1.843316 9.837097 9.000000 21 343.255984
-6.171713 2.273181 9.732306 4.000000 19 343.255986
-0.232574 0.105333 4.242296 100.000000 30 343.255997
-0.427985 0.181320 4.285169 99.000000 29 343.255999
-2.387656 0.914422 9.874303 104.000000 26 343.256002
-3.355352 1.243155 9.784832 100.000000 24 343.256004
-4.417093 1.634789 9.798068 27.000000 22 343.256007
-5.563883 2.058129 9.773674 9.000000 20 343.256009
-9.678483 3.580168 13.734364 6.000000 18 343.256012
-10.423797 3.855871 12.126758 36.000000 16 343.256015
-10.395905 3.814643 10.961868 14.000000 15 343.255972
-10.158980 3.727709 8.804740 11.000000 13 343.255975
-1.006918 0.369670 0.787861 28.000000 11 343.255977
-8.235751 3.023638 4.677009 71.000000 9 343.255980
-0.327144 0.120168 0.229128 21.000000 7 343.255983
-0.315515 0.115959 0.188686 11.000000 5 343.255985
-0.921297 0.339694 0.955406 36.000000 14 343.255998
-3.643167 1.343307 2.910875 10.000000 12 343.256001
-1.004790 0.370681 0.714714 6.000000 10 343.256003
-9.760386 3.600793 4.896712 43.000000 8 343.256006
-0.323939 0.119569 0.209258 19.000000 6 343.256008
-0.310193 0.114557 0.170471 5.000000 4 343.256011
-0.040488 0.024297 3.859127 99.000000 31 343.256027
-0.629746 0.251969 4.312397 98.000000 28 343.256029
-1.910832 0.767715 9.923886 90.000000 27 343.256032
-2.869982 1.087226 9.852443 97.000000 25 343.256034
-3.847442 1.433122 9.731956 109.000000 23 343.256037
-4.973476 1.851579 9.788822 16.000000 21 343.256039
-6.153192 2.290783 9.715775 9.000000 19 343.256042
-8.354163 3.110194 10.745629 9.000000 17 343.256044
-0.232224 0.106104 4.242296 100.000000 30 343.256052
-0.427382 0.182738 4.285169 99.000000 29 343.256055
-2.385783 0.922789 9.879142 103.000000 26 343.256057
-3.351211 1.254275 9.784832 100.000000 24 343.256060
-4.358327 1.630360 9.681046 38.000000 22 343.256062
-5.539565 2.071145 9.743813 14.000000 20 343.256065
-6.783557 2.536257 9.661086 5.000000 18 343.256068
-10.407778 3.889230 12.123083 32.000000 16 343.256070
-10.349090 3.838507 10.926823 16.000000 15 343.256028
-10.167805 3.771270 8.823566 3.000000 13 343.256030
-1.001701 0.371728 0.785119 29.000000 11 343.256033
-8.237606 3.056991 4.683963 76.000000 9 343.256035
-0.326744 0.121253 0.229128 17.000000 7 343.256038
-0.315129 0.117005 0.188686 14.000000 5 343.256041
-0.326933 0.121453 0.157688 5.000000 3 343.256043
-0.913108 0.340299 0.948756 36.000000 14 343.256053
-3.646031 1.358839 2.916761 27.000000 12 343.256056
-8.024729 2.990743 5.116072 31.000000 10 343.256059
-9.744138 3.631555 4.894614 47.000000 8 343.256061
-0.323541 0.120643 0.209258 20.000000 6 343.256064
-0.314366 0.117284 0.171643 11.000000 4 343.256066
-0.040407 0.024431 3.859127 94.000000 31 343.256082
-0.629627 0.254348 4.317336 98.000000 28 343.256085
-1.908276 0.774047 9.923886 90.000000 27 343.256087
-2.864966 1.096204 9.847672 97.000000 25 343.256090
-3.835354 1.443121 9.713546 110.000000 23 343.256092
-4.929187 1.853725 9.714215 26.000000 21 343.256095
-6.129758 2.305232 9.690976 17.000000 19 343.256097
-8.331800 3.133366 10.730281 13.000000 17 343.256100
-0.231852 0.106914 4.242296 100.000000 30 343.256108
-0.426741 0.184229 4.285169 99.000000 29 343.256110
-2.382548 0.931111 9.879142 101.000000 26 343.256113
-3.348426 1.266576 9.789525 101.000000 24 343.256115
-4.336600 1.638645 9.645040 100.000000 22 343.256118
-5.498509 2.076603 9.684090 21.000000 20 343.256121
-6.769470 2.556608 9.653108 13.000000 18 343.256123
-10.390965 3.924338 12.119408 17.000000 16 343.256126
-10.296229 3.857790 10.884768 20.000000 15 343.256083
-1.016275 0.380773 0.957159 13.000000 13 343.256086
-0.996547 0.373580 0.782378 31.000000 11 343.256088
-8.231572 3.085846 4.686281 78.000000 9 343.256091
-0.330659 0.124020 0.231001 14.000000 7 343.256094
-0.314719 0.118104 0.188686 15.000000 5 343.256096
-0.326528 0.122536 0.157688 5.000000 3 343.256099
-0.904984 0.340694 0.942106 35.000000 14 343.256109
-3.637722 1.369498 2.913818 26.000000 12 343.256112
-7.998101 3.012657 5.105942 56.000000 10 343.256114
-9.722907 3.662347 4.890418 45.000000 8 343.256117
-0.318699 0.120106 0.207615 14.000000 6 343.256119
-0.313954 0.118380 0.171643 11.000000 4 343.256122
-0.040322 0.024572 3.859127 94.000000 31 343.256138
-0.628735 0.256544 4.317336 98.000000 28 343.256140
-1.905562 0.780703 9.923886 86.000000 27 343.256143
-2.861122 1.106197 9.847672 98.000000 25 343.256145
-3.828467 1.455806 9.708942 97.000000 23 343.256148
-4.866700 1.849641 9.604498 98.000000 21 343.256150
-6.105891 2.320616 9.666179 22.000000 19 343.256153
-7.403800 2.813908 9.556176 6.000000 17 343.256155
-0.231477 0.107722 4.242296 100.000000 30 343.256163
-0.426096 0.185717 4.285169 99.000000 29 343.256166
-2.379283 0.939422 9.879142 101.000000 26 343.256168
-3.343985 1.278257 9.789525 100.000000 24 343.256171
-4.328819 1.652996 9.640538 99.000000 22 343.256173
-5.430312 2.072535 9.577441 63.000000 20 343.256176
-6.729531 2.568401 9.609223 22.000000 18 343.256179
-8.115746 3.097471 9.495340 5.000000 16 343.256181
-10.279365 3.892443 10.881263 17.000000 15 343.256139
-1.000377 0.378804 0.944608 30.000000 13 343.256141
-0.991327 0.375575 0.779637 32.000000 11 343.256144
-8.229036 3.117700 4.690917 81.000000 9 343.256147
-0.330224 0.125174 0.231001 9.000000 7 343.256149
-0.314305 0.119202 0.188686 19.000000 5 343.256152
-0.321505 0.121933 0.156756 5.000000 3 343.256154
-0.893319 0.339867 0.932132 35.000000 14 343.256165
-3.602697 1.370690 2.890272 9.000000 12 343.256167
-7.983508 3.039024 5.103409 64.000000 10 343.256170
-9.718548 3.699493 4.894614 45.000000 8 343.256172
-0.322691 0.122898 0.209258 9.000000 6 343.256175
-0.318081 0.121206 0.172815 11.000000 4 343.256177
-0.328420 0.125211 0.141177 6.000000 2 343.256180
-0.040236 0.024713 3.859127 99.000000 31 343.256193
-0.628554 0.259034 4.322275 96.000000 28 343.256196
-1.902826 0.787350 9.923886 86.000000 27 343.256198
-2.857243 1.116178 9.847672 96.000000 25 343.256201
-3.823362 1.469161 9.708942 97.000000 23 343.256203
-4.862451 1.867477 9.608887 104.000000 21 343.256206
-5.971661 2.293488 9.467798 57.000000 19 343.256208
-7.375977 2.832839 9.533154 14.000000 17 343.256211
-0.231100 0.108530 4.242296 100.000000 30 343.256219
-0.425445 0.187203 4.285169 98.000000 29 343.256221
-2.375989 0.947721 9.879142 99.000000 26 343.256224
-3.341112 1.290543 9.794218 99.000000 24 343.256226
-4.323022 1.668096 9.640538 98.000000 22 343.256229
-5.393844 2.080216 9.526250 98.000000 20 343.256232
-6.571485 2.534396 9.397779 54.000000 18 343.256234
-8.076416 3.114802 9.462264 15.000000 16 343.256237
-8.790206 3.363679 9.328749 2.000000 15 343.256194
-1.002685 0.383685 0.947745 31.000000 13 343.256197
-0.986105 0.377538 0.776895 29.000000 11 343.256199
-8.226377 3.149574 4.695553 83.000000 9 343.256202
-0.329785 0.126326 0.231001 7.000000 7 343.256205
-0.318366 0.122015 0.190095 23.000000 5 343.256207
-0.307317 0.117781 0.153958 7.000000 3 343.256210
-0.888641 0.341643 0.928807 34.000000 14 343.256220
-3.586571 1.378905 2.881443 5.000000 12 343.256223
-7.972850 3.066873 5.103409 67.000000 10 343.256225
-9.692867 3.728507 4.888320 44.000000 8 343.256228
-0.335482 0.129113 0.214186 6.000000 6 343.256230
-0.317656 0.122316 0.172815 13.000000 4 343.256233
-0.332602 0.128137 0.141867 6.000000 2 343.256235
-0.040149 0.024853 3.859127 99.000000 31 343.256249
-0.627646 0.261226 4.322275 96.000000 28 343.256251
-1.901005 0.794380 9.928782 80.000000 27 343.256254
-2.854719 1.126693 9.852443 92.000000 25 343.256256
-3.818210 1.482498 9.708942 94.000000 23 343.256259
-4.849202 1.881839 9.595721 94.000000 21 343.256261
-5.963618 2.314319 9.467798 59.000000 19 343.256264
-7.207640 2.797096 9.329796 46.000000 17 343.256267
-0.230720 0.109336 4.242296 100.000000 30 343.256274
-0.424789 0.188687 4.285169 98.000000 29 343.256277
-2.372667 0.956010 9.879142 97.000000 26 343.256279
-3.336587 1.302198 9.794218 99.000000 24 343.256282
-4.319202 1.683967 9.645040 98.000000 22 343.256285
-5.379260 2.096190 9.513453 96.000000 20 343.256287
-6.562598 2.557320 9.397779 54.000000 18 343.256290
-7.980206 3.109740 9.363034 38.000000 16 343.256292
-8.874873 3.431640 9.430381 4.000000 15 343.256250
-1.001339 0.387183 0.947745 34.000000 13 343.256252
-0.984781 0.380978 0.776895 18.000000 11 343.256255
-8.223597 3.181467 4.700189 87.000000 9 343.256258
-0.329342 0.127476 0.231001 7.000000 7 343.256260
-0.317938 0.123126 0.190095 21.000000 5 343.256263
-0.311485 0.120627 0.154890 16.000000 3 343.256265
-0.890924 0.346095 0.932132 33.000000 14 343.256276
-7.962097 3.094685 5.103409 68.000000 10 343.256281
-9.675562 3.760674 4.886222 44.000000 8 343.256283
-0.335029 0.130283 0.214186 6.000000 6 343.256286
-0.321757 0.125186 0.173988 14.000000 4 343.256288
-0.327537 0.127501 0.141177 6.000000 2 343.256291
-0.040097 0.025019 3.864126 99.000000 31 343.256304
-0.626730 0.263415 4.322275 99.000000 28 343.256307
-1.897283 0.800615 9.923886 69.000000 27 343.256309
-2.847994 1.135545 9.842900 87.000000 25 343.256312
-3.814831 1.496530 9.713546 94.000000 23 343.256314
-4.842603 1.898754 9.595721 92.000000 21 343.256317
-5.947644 2.332040 9.455399 95.000000 19 343.256319
-7.197833 2.822238 9.329796 49.000000 17 343.256322
-0.230337 0.110141 4.242296 100.000000 30 343.256330
-0.424128 0.190169 4.285169 99.000000 29 343.256332
-2.369315 0.964286 9.879142 90.000000 26 343.256335
-3.333627 1.314470 9.798911 97.000000 24 343.256337
-4.313298 1.699034 9.645040 98.000000 22 343.256340
-5.376763 2.116866 9.521984 96.000000 20 343.256343
-6.539608 2.574691 9.377831 97.000000 18 343.256345
-7.865205 3.096593 9.241755 102.000000 16 343.256348
-0.877376 0.342772 1.005452 7.000000 15 343.256305
-1.003608 0.392092 0.950883 36.000000 13 343.256308
-0.987340 0.385935 0.779637 6.000000 11 343.256311
-8.220695 3.213379 4.704825 89.000000 9 343.256313
-0.328895 0.128625 0.231001 6.000000 7 343.256316
-0.326442 0.127731 0.192914 14.000000 5 343.256318
-0.311062 0.121713 0.154890 7.000000 3 343.256321
-0.319782 0.125190 0.123720 5.000000 1 343.256323
-0.893187 0.350567 0.935457 32.000000 14 343.256331
-1.063468 0.417405 0.915412 21.000000 12 343.256334
-7.947233 3.120883 5.100877 68.000000 10 343.256336
-9.658153 3.792766 4.884124 44.000000 8 343.256339
-0.321318 0.126309 0.173988 13.000000 4 343.256344
-0.327090 0.128644 0.141177 6.000000 2 343.256346
-0.040010 0.025159 3.864126 98.000000 31 343.256360
-0.625807 0.265602 4.322275 99.000000 28 343.256362
-1.892603 0.806434 9.914095 63.000000 27 343.256365
-2.844013 1.145479 9.842900 84.000000 25 343.256367
-3.805951 1.508398 9.704340 89.000000 23 343.256370
-4.835946 1.915646 9.595721 92.000000 21 343.256372
-5.942084 2.353823 9.459532 93.000000 19 343.256375
-7.178996 2.843804 9.318285 87.000000 17 343.256378
-0.229970 0.110904 4.242296 101.000000 30 343.256385
-0.423495 0.191574 4.285169 98.000000 29 343.256388
-2.364941 0.971659 9.874303 81.000000 26 343.256390
-3.326043 1.324241 9.789525 92.000000 24 343.256393
-4.311388 1.715690 9.654041 95.000000 22 343.256396
-5.369342 2.135622 9.521984 97.000000 20 343.256398
-6.533382 2.598617 9.381822 96.000000 18 343.256401
-7.864344 3.126415 9.252780 100.000000 16 343.256403
-0.876174 0.345832 1.005452 7.000000 15 343.256361
-1.002233 0.395593 0.950883 37.000000 13 343.256363
-1.044324 0.412418 0.820758 5.000000 11 343.256366
-8.217669 3.245310 4.709461 88.000000 9 343.256369
-0.328467 0.129715 0.231001 5.000000 7 343.256371
-0.321555 0.127050 0.191505 9.000000 5 343.256374
-0.310635 0.122798 0.154890 9.000000 3 343.256376
-0.319343 0.126305 0.123720 6.000000 1 343.256379
-0.898901 0.356436 0.942106 31.000000 14 343.256387
-1.062004 0.421115 0.915412 27.000000 12 343.256389
-7.936841 3.147220 5.100877 70.000000 10 343.256392
-9.637084 3.821427 4.879928 42.000000 8 343.256394
-0.325415 0.129167 0.175160 12.000000 4 343.256399
-0.322059 0.127900 0.140488 9.000000 2 343.256402
-0.039926 0.025291 3.864126 98.000000 31 343.256415
-0.624923 0.267675 4.322275 99.000000 28 343.256418
-1.891789 0.813511 9.923886 45.000000 27 343.256420
-2.837432 1.153779 9.833357 76.000000 25 343.256423
-3.802742 1.521736 9.708942 84.000000 23 343.256425
-4.831791 1.932562 9.600110 89.000000 21 343.256428
-5.931633 2.372470 9.455399 89.000000 19 343.256431
-7.178456 2.871166 9.329796 88.000000 17 343.256433
-0.229582 0.111706 4.242296 101.000000 30 343.256441
-0.423309 0.193274 4.290141 98.000000 29 343.256443
-2.359211 0.978944 9.864624 57.000000 26 343.256446
-3.323001 1.336487 9.794218 79.000000 24 343.256449
-4.301633 1.728354 9.645040 90.000000 22 343.256451
-5.369491 2.156331 9.534781 92.000000 20 343.256454
-6.527526 2.621391 9.385811 94.000000 18 343.256456
-7.847091 3.151321 9.245429 97.000000 16 343.256459
-0.891586 0.355338 1.022975 15.000000 15 343.256416
-1.000916 0.398914 0.950883 37.000000 13 343.256419
-1.070139 0.426720 0.839949 6.000000 11 343.256422
-8.210977 3.274184 4.711780 89.000000 9 343.256424
-0.323706 0.129143 0.229128 5.000000 7 343.256427
-0.325565 0.129950 0.192914 6.000000 5 343.256429
-0.310226 0.123828 0.154890 12.000000 3 343.256432
-0.318922 0.127363 0.123720 6.000000 1 343.256434
-0.908114 0.363579 0.952081 31.000000 14 343.256442
-1.060602 0.424634 0.915412 12.000000 12 343.256445
-7.925807 3.174906 5.100877 67.000000 10 343.256447
-9.619473 3.853356 4.877830 44.000000 8 343.256450
-0.329474 0.132111 0.176332 13.000000 4 343.256455
-0.321611 0.129023 0.140488 19.000000 2 343.256457
-0.039837 0.025431 3.864126 98.000000 31 343.256471
-0.623985 0.269855 4.322275 99.000000 28 343.256473
-3.799219 1.535733 9.713546 51.000000 23 343.256481
-4.822795 1.948519 9.595721 69.000000 21 343.256483
-5.931142 2.396323 9.467798 71.000000 19 343.256486
-7.174335 2.898608 9.337470 74.000000 17 343.256489
-0.229450 0.112635 4.247288 100.000000 30 343.256496
-0.422631 0.194750 4.290141 98.000000 29 343.256499
-3.315118 1.346779 9.784832 19.000000 24 343.256504
-4.301628 1.745816 9.658542 46.000000 22 343.256507
-5.359514 2.174080 9.530516 59.000000 20 343.256509
-6.521129 2.645294 9.389800 66.000000 18 343.256512
-7.864317 3.190162 9.278506 69.000000 16 343.256514
-0.873799 0.351788 1.005452 21.000000 15 343.256472
-0.999517 0.402406 0.950883 37.000000 13 343.256475
-1.103550 0.444514 0.864622 18.000000 11 343.256477
-8.207716 3.306136 4.716415 77.000000 9 343.256480
-0.318953 0.128539 0.227255 5.000000 7 343.256482
-0.334008 0.134674 0.195732 5.000000 5 343.256485
-0.309792 0.124910 0.154890 12.000000 3 343.256487
-0.318475 0.128476 0.123720 7.000000 1 343.256490
-0.913763 0.369547 0.958731 31.000000 14 343.256498
-3.614671 1.461885 2.922647 2.000000 12 343.256500
-7.914676 3.202552 5.100877 68.000000 10 343.256503
-9.601756 3.885208 4.875731 45.000000 8 343.256505
-0.329011 0.133260 0.176332 7.000000 4 343.256510
-0.321159 0.130145 0.140488 11.000000 2 343.256513
-0.039748 0.025569 3.864126 99.000000 31 343.256526
-0.623039 0.272032 4.322275 98.000000 28 343.256529
-4.811527 1.963531 9.586944 32.000000 21 343.256539
-5.925347 2.418075 9.471931 42.000000 19 343.256542
-7.173078 2.927268 9.348981 50.000000 17 343.256544
-0.229055 0.113436 4.247288 100.000000 30 343.256552
-0.422433 0.196450 4.295112 98.000000 29 343.256554
-5.342239 2.188820 9.513453 22.000000 20 343.256565
-6.528589 2.674896 9.413737 31.000000 18 343.256567
-7.837448 3.211168 9.260130 35.000000 16 343.256570
-0.872566 0.354836 1.005452 29.000000 15 343.256527
-1.001712 0.407359 0.954021 37.000000 13 343.256530
-1.109738 0.451515 0.870105 27.000000 11 343.256533
-8.204333 3.338105 4.721051 77.000000 9 343.256535
-0.314209 0.127904 0.225382 4.000000 7 343.256538
-0.309354 0.125990 0.154890 10.000000 3 343.256543
-0.313413 0.127707 0.123274 8.000000 1 343.256545
-0.919382 0.375559 0.965380 31.000000 14 343.256553
-3.572129 1.459208 2.893216 5.000000 12 343.256556
-7.903449 3.230160 5.100877 68.000000 10 343.256558
-9.583936 3.916984 4.873633 47.000000 8 343.256561
-0.337541 0.138089 0.178677 6.000000 4 343.256566
-0.320702 0.131265 0.140488 10.000000 2 343.256569
-0.039659 0.025708 3.864126 99.000000 31 343.256582
-0.622086 0.274205 4.322275 99.000000 28 343.256584
-0.228658 0.114234 4.247288 100.000000 30 343.256607
-0.421745 0.197924 4.295112 98.000000 29 343.256610
-0.864725 0.355170 0.998443 34.000000 15 343.256583
-1.000284 0.410853 0.954021 37.000000 13 343.256586
-1.119758 0.460154 0.878329 32.000000 11 343.256588
-8.200826 3.370091 4.725688 90.000000 9 343.256591
-0.313455 0.128938 0.155823 11.000000 3 343.256598
-0.312966 0.128801 0.123274 15.000000 1 343.256601
-0.918065 0.378766 0.965380 31.000000 14 343.256609
-3.581959 1.477834 2.904988 3.000000 12 343.256611
-7.892125 3.257729 5.100877 68.000000 10 343.256614
-9.566009 3.948682 4.871535 48.000000 8 343.256616
-0.337057 0.139266 0.178677 6.000000 4 343.256621
-0.320242 0.132384 0.140488 9.000000 2 343.256624
-0.039569 0.025846 3.864126 98.000000 31 343.256638
-0.621125 0.276375 4.322275 99.000000 28 343.256641
-1.878387 0.839014 9.914095 5.000000 27 343.256643
-2.841679 1.202011 9.904932 6.000000 25 343.256646
-0.228000 0.114900 4.242296 101.000000 30 343.256664
-0.421051 0.199395 4.295112 99.000000 29 343.256666
-2.351088 1.014280 9.888821 7.000000 26 343.256669
-3.305609 1.383419 9.798911 6.000000 24 343.256671
-0.860185 0.356820 0.994938 35.000000 15 343.256639
-0.998844 0.414342 0.954021 37.000000 13 343.256642
-1.125869 0.467266 0.883812 33.000000 11 343.256644
-8.197196 3.402093 4.730324 90.000000 9 343.256647
-0.308467 0.128147 0.154890 8.000000 3 343.256655
-0.312514 0.129892 0.123274 8.000000 1 343.256657
-0.920185 0.383404 0.968705 31.000000 14 343.256665
-9.878569 4.116092 7.875986 16.000000 12 343.256668
-7.880705 3.285258 5.100877 66.000000 10 343.256670
-9.552166 3.982049 4.871535 48.000000 8 343.256673
-0.345540 0.144186 0.181021 5.000000 4 343.256678
-0.315208 0.131593 0.139798 9.000000 2 343.256680
-0.327070 0.136612 0.107974 5.000000 0 343.256683
-0.039478 0.025984 3.864126 98.000000 31 343.256694
-0.619447 0.278222 4.317336 99.000000 28 343.256696
-1.877303 0.846403 9.923886 7.000000 27 343.256699
-2.830598 1.208990 9.881074 6.000000 25 343.256701
-3.775605 1.587871 9.708942 4.000000 23 343.256704
-7.136120 2.999738 9.341308 4.000000 17 343.256711
-0.227597 0.115696 4.242296 100.000000 30 343.256719
-0.420352 0.200863 4.295112 99.000000 29 343.256722
-2.348686 1.022983 9.893661 7.000000 26 343.256724
-3.294401 1.392262 9.780139 6.000000 24 343.256727
-6.497443 2.741944 9.409748 4.000000 18 343.256735
-0.852356 0.357064 0.987929 34.000000 15 343.256695
-0.997392 0.417826 0.954021 37.000000 13 343.256697
-1.131943 0.474425 0.889295 34.000000 11 343.256700
-8.193442 3.434111 4.734960 88.000000 9 343.256702
-0.326137 0.136825 0.158621 6.000000 3 343.256710
-0.312059 0.130982 0.123274 8.000000 1 343.256713
-0.918841 0.386614 0.968705 31.000000 14 343.256720
-9.841787 4.141144 7.858327 41.000000 12 343.256723
-7.869189 3.312747 5.100877 68.000000 10 343.256726
-9.534027 4.013608 4.869438 49.000000 8 343.256728
-0.319310 0.134616 0.140488 9.000000 2 343.256736
-0.308178 0.129987 0.107168 13.000000 0 343.256738
-0.039387 0.026122 3.864126 98.000000 31 343.256749
-0.618473 0.280383 4.317336 99.000000 28 343.256752
-1.875264 0.853373 9.928782 10.000000 27 343.256754
-2.823618 1.217680 9.871531 7.000000 25 343.256757
-3.773636 1.602569 9.718148 6.000000 23 343.256759
-4.777028 2.027711 9.573778 6.000000 21 343.256762
-5.898779 2.503869 9.484329 5.000000 19 343.256764
-7.128556 3.025881 9.345143 6.000000 17 343.256767
-0.227212 0.116450 4.242296 100.000000 30 343.256775
-0.419684 0.202256 4.295112 99.000000 29 343.256777
-2.342978 1.029754 9.883982 10.000000 26 343.256780
-3.283417 1.400471 9.761369 8.000000 24 343.256782
-4.286530 1.827456 9.694549 8.000000 22 343.256785
-5.325553 2.269330 9.539048 6.000000 20 343.256788
-6.496151 2.768152 9.421717 7.000000 18 343.256790
-0.847820 0.358648 0.984425 32.000000 15 343.256750
-0.992342 0.419788 0.950883 37.000000 13 343.256753
-1.137982 0.481633 0.894778 34.000000 11 343.256755
-8.189564 3.466144 4.739595 88.000000 9 343.256758
-0.325657 0.137962 0.158621 5.000000 3 343.256766
-0.316185 0.134014 0.123720 9.000000 1 343.256768
-0.914049 0.388359 0.965380 31.000000 14 343.256776
-9.834713 4.178634 7.864214 45.000000 12 343.256779
-7.858161 3.338824 5.100877 66.000000 10 343.256781
-9.520665 4.045202 4.869438 46.000000 8 343.256784
-0.323419 0.137614 0.141177 8.000000 2 343.256791
-0.312342 0.132965 0.107370 15.000000 0 343.256794
-0.039301 0.026252 3.864126 98.000000 31 343.256805
-0.618246 0.282756 4.322275 99.000000 28 343.256807
-1.871499 0.859162 9.923886 10.000000 27 343.256810
-2.812717 1.224057 9.847672 8.000000 25 343.256812
-3.779075 1.619691 9.745763 8.000000 23 343.256815
-4.781288 2.048258 9.595721 8.000000 21 343.256817
-5.872336 2.515660 9.455399 6.000000 19 343.256820
-7.127323 3.053291 9.356655 8.000000 17 343.256822
-0.226804 0.117242 4.242296 101.000000 30 343.256830
-0.418976 0.203720 4.295112 99.000000 29 343.256833
-2.340519 1.038436 9.888821 11.000000 26 343.256835
-3.281678 1.413289 9.770754 8.000000 24 343.256838
-4.268123 1.837242 9.667544 10.000000 22 343.256840
-5.329578 2.293060 9.560377 8.000000 20 343.256843
-6.480911 2.788429 9.413737 10.000000 18 343.256846
-0.840066 0.358657 0.977416 28.000000 15 343.256806
-0.994524 0.424605 0.954021 35.000000 13 343.256808
-1.140224 0.487047 0.897520 33.000000 11 343.256811
-8.186172 3.496763 4.744232 90.000000 9 343.256814
-0.316141 0.135234 0.156756 5.000000 3 343.256821
-0.315715 0.135117 0.123720 9.000000 1 343.256824
-0.912687 0.391547 0.965380 31.000000 14 343.256832
-9.812637 4.209751 7.858327 47.000000 12 343.256834
-7.849832 3.369303 5.103409 67.000000 10 343.256837
-9.505774 4.080070 4.869438 46.000000 8 343.256839
-0.327462 0.140754 0.141867 6.000000 2 343.256847
-0.311876 0.134054 0.107370 15.000000 0 343.256849
-0.039204 0.026396 3.864126 98.000000 31 343.256860
-0.617205 0.285020 4.322275 99.000000 28 343.256863
-1.871108 0.867301 9.938571 10.000000 27 343.256865
-2.809579 1.234959 9.852443 10.000000 25 343.256868
-3.762356 1.628874 9.718148 9.000000 23 343.256870
-4.771549 2.064817 9.591332 9.000000 21 343.256873
-5.881155 2.544989 9.484329 8.000000 19 343.256875
-7.110200 3.076847 9.348981 8.000000 17 343.256878
-0.226394 0.118033 4.242296 101.000000 30 343.256886
-0.418262 0.205181 4.295112 99.000000 29 343.256888
-2.333436 1.045057 9.874303 11.000000 26 343.256891
-3.278308 1.425424 9.775446 9.000000 24 343.256893
-4.267675 1.854733 9.681046 10.000000 22 343.256896
-5.316757 2.309571 9.551846 9.000000 20 343.256899
-6.473903 2.812235 9.417727 10.000000 18 343.256901
-0.809594 0.351509 1.035112 25.000000 16 343.256904
-0.835472 0.360321 0.973911 28.000000 15 343.256861
-1.000111 0.431331 0.960297 30.000000 13 343.256864
-1.146110 0.494536 0.903003 33.000000 11 343.256866
-8.177370 3.528499 4.746550 90.000000 9 343.256869
-0.319813 0.138194 0.124166 9.000000 1 343.256879
-0.907888 0.393246 0.962055 32.000000 14 343.256887
-9.801592 4.245584 7.861271 47.000000 12 343.256890
-7.838615 3.395315 5.103409 70.000000 10 343.256892
-9.492191 4.111569 4.869438 45.000000 8 343.256895
-9.231615 4.004442 1.493906 21.000000 2 343.256902
-0.306823 0.133153 0.107168 16.000000 0 343.256905
-0.039116 0.026526 3.864126 98.000000 31 343.256916
-0.616257 0.287065 4.322275 99.000000 28 343.256918
-1.869144 0.873932 9.943466 10.000000 27 343.256921
-2.802738 1.243058 9.842900 10.000000 25 343.256923
-3.762305 1.643688 9.731956 10.000000 23 343.256926
-4.775653 2.085422 9.613275 10.000000 21 343.256928
-5.862368 2.559973 9.467798 10.000000 19 343.256931
-7.105834 3.102974 9.356655 8.000000 17 343.256934
-0.225980 0.118823 4.242296 101.000000 30 343.256941
-0.417543 0.206640 4.295112 99.000000 29 343.256944
-2.324044 1.050605 9.850107 9.000000 26 343.256946
-3.276472 1.438246 9.784832 9.000000 24 343.256949
-4.259507 1.868000 9.676545 11.000000 22 343.256952
-5.311458 2.328237 9.556112 10.000000 20 343.256954
-6.464541 2.833688 9.417727 11.000000 18 343.256957
-0.808362 0.354333 1.035112 25.000000 16 343.256959
-0.827732 0.360243 0.966902 20.000000 15 343.256917
-1.002244 0.436199 0.963434 12.000000 13 343.256919
-1.148297 0.500003 0.905744 32.000000 11 343.256922
-8.173748 3.559134 4.751186 91.000000 9 343.256925
-0.314788 0.137263 0.123720 9.000000 1 343.256935
-0.906579 0.396255 0.962055 32.000000 14 343.256943
-9.783755 4.276445 7.858327 47.000000 12 343.256945
-7.830665 3.424384 5.105942 70.000000 10 343.256948
-9.481939 4.146497 4.871535 43.000000 8 343.256950
-9.194899 4.026709 1.490457 43.000000 2 343.256958
-0.301780 0.132218 0.106966 13.000000 0 343.256960
-0.039024 0.026663 3.864126 94.000000 31 343.256971
-0.615251 0.289214 4.322275 99.000000 28 343.256974
-1.867003 0.880886 9.948361 10.000000 27 343.256976
-2.798382 1.252834 9.842900 11.000000 25 343.256979
-3.756544 1.656811 9.731956 10.000000 23 343.256981
-4.766153 2.101114 9.608887 9.000000 21 343.256984
-5.863695 2.584962 9.484329 10.000000 19 343.256986
-7.100826 3.130346 9.364328 8.000000 17 343.256989
-0.225564 0.119611 4.242296 100.000000 30 343.256997
-0.416819 0.208096 4.295112 98.000000 29 343.256999
-2.302053 1.050356 9.772680 7.000000 26 343.257002
-3.273010 1.450373 9.789525 10.000000 24 343.257004
-4.252961 1.882857 9.676545 11.000000 22 343.257007
-5.303298 2.346763 9.556112 10.000000 20 343.257010
-6.457367 2.857456 9.421717 11.000000 18 343.257012
-0.807120 0.357152 1.035112 28.000000 16 343.257015
-0.833000 0.366000 0.973911 16.000000 15 343.256972
-1.142717 0.502326 0.903003 27.000000 11 343.256978
-8.169385 3.591209 4.755822 90.000000 9 343.256980
-0.296075 0.130335 0.121935 6.000000 1 343.256990
-0.901774 0.397909 0.958731 32.000000 14 343.256998
-9.765070 4.308939 7.855384 48.000000 12 343.257001
-7.822608 3.453438 5.108474 74.000000 10 343.257003
-9.467407 4.179570 4.871535 40.000000 8 343.257006
-9.176259 4.056779 1.489767 84.000000 2 343.257013
-0.301317 0.133271 0.106966 13.000000 0 343.257016
-0.038930 0.026799 3.864126 94.000000 31 343.257027
-0.614238 0.291360 4.322275 99.000000 28 343.257029
-1.863917 0.887398 9.948361 10.000000 27 343.257032
-2.788547 1.260134 9.823813 10.000000 25 343.257034
-3.752523 1.670708 9.736558 10.000000 23 343.257037
-4.760978 2.118712 9.613275 10.000000 21 343.257039
-5.854637 2.605414 9.484329 10.000000 19 343.257042
-7.092785 3.156417 9.368166 8.000000 17 343.257045
-0.225145 0.120397 4.242296 100.000000 30 343.257052
-0.416090 0.209550 4.295112 98.000000 29 343.257055
-2.290376 1.054702 9.738806 6.000000 26 343.257057
-3.269502 1.462494 9.794218 10.000000 24 343.257060
-4.246362 1.897691 9.676545 11.000000 22 343.257063
-5.295074 2.365261 9.556112 10.000000 20 343.257065
-6.450105 2.881208 9.425706 11.000000 18 343.257068
-0.818250 0.365498 1.049813 34.000000 16 343.257070
-0.821937 0.364567 0.963398 9.000000 15 343.257028
-1.144778 0.508008 0.905744 17.000000 11 343.257033
-8.160849 3.621501 4.758140 91.000000 9 343.257036
-9.128943 4.056830 0.988028 14.000000 1 343.257046
-0.900380 0.401055 0.958731 33.000000 14 343.257054
-9.742584 4.339710 7.849498 48.000000 12 343.257056
-7.818383 3.484233 5.113539 86.000000 10 343.257059
-9.456906 4.214439 4.873633 38.000000 8 343.257061
-9.162043 4.088785 1.489767 111.000000 2 343.257069
-0.314536 0.140432 0.107571 18.000000 0 343.257072
-0.038836 0.026934 3.864126 98.000000 31 343.257082
-0.613917 0.293838 4.327214 98.000000 28 343.257085
-1.860808 0.893899 9.948361 10.000000 27 343.257087
-2.782773 1.269240 9.819041 10.000000 25 343.257090
-3.748450 1.684598 9.741160 10.000000 23 343.257092
-4.755739 2.136300 9.617663 10.000000 21 343.257095
-5.850640 2.628141 9.492596 10.000000 19 343.257098
-7.090497 3.185097 9.379676 9.000000 17 343.257100
-0.224724 0.121183 4.242296 101.000000 30 343.257108
-0.415356 0.211001 4.295112 98.000000 29 343.257110
-2.263868 1.052087 9.642021 6.000000 26 343.257113
-3.265950 1.474608 9.798911 9.000000 24 343.257116
-4.239712 1.912502 9.676545 11.000000 22 343.257118
-5.289163 2.384801 9.560377 11.000000 20 343.257121
-6.442756 2.904944 9.429696 11.000000 18 343.257123
-0.813879 0.366959 1.046138 36.000000 16 343.257126
-8.156244 3.653588 4.762776 91.000000 9 343.257091
-9.096553 4.080519 0.986243 29.000000 1 343.257101
-0.898974 0.404195 0.958731 32.000000 14 343.257109
-9.716317 4.368719 7.840669 45.000000 12 343.257112
-7.814036 3.515040 5.118604 107.000000 10 343.257114
-9.442138 4.247424 4.873633 36.000000 8 343.257117
-9.152228 4.122776 1.490457 118.000000 2 343.257124
-0.314044 0.141529 0.107571 8.000000 0 343.257127
-0.038742 0.027070 3.864126 98.000000 31 343.257138
-0.612888 0.295980 4.327214 98.000000 28 343.257140
-1.856760 0.899944 9.943466 10.000000 27 343.257143
-2.766115 1.273325 9.776095 10.000000 25 343.257145
-3.742547 1.697672 9.741160 10.000000 23 343.257148
-4.748253 2.152887 9.617663 10.000000 21 343.257150
-5.838868 2.647385 9.488462 11.000000 19 343.257153
-7.061817 3.201885 9.356655 7.000000 17 343.257156
-0.224299 0.121966 4.242296 101.000000 30 343.257163
-0.414617 0.212449 4.295112 98.000000 29 343.257166
-2.241961 1.051436 9.564594 6.000000 26 343.257168
-3.262353 1.486714 9.803603 10.000000 24 343.257171
-4.233011 1.927290 9.676545 11.000000 22 343.257174
-5.280807 2.403250 9.560377 11.000000 20 343.257176
-6.435320 2.928665 9.433685 11.000000 18 343.257179
-0.818764 0.372606 1.053488 37.000000 16 343.257181
-9.662367 4.366781 8.629025 4.000000 13 343.257142
-7.865973 3.556577 5.744431 69.000000 11 343.257144
-8.151515 3.685687 4.767412 93.000000 9 343.257147
-9.174313 4.152000 2.003344 6.000000 3 343.257154
-9.068643 4.106085 0.984905 61.000000 1 343.257157
-0.897558 0.407331 0.958731 32.000000 14 343.257165
-9.697329 4.400939 7.837726 30.000000 12 343.257167
-7.805644 3.544077 5.121137 107.000000 10 343.257170
-9.431386 4.282234 4.875731 33.000000 8 343.257172
-9.137781 4.154697 1.490457 116.000000 2 343.257180
-0.038647 0.027205 3.864126 99.000000 31 343.257193
-0.611851 0.298117 4.327214 99.000000 28 343.257196
-1.853607 0.906420 9.943466 10.000000 27 343.257198
-2.741337 1.273533 9.704520 8.000000 25 343.257201
-3.736598 1.710726 9.741160 11.000000 23 343.257203
-4.742887 2.170445 9.622052 10.000000 21 343.257206
-5.834709 2.670092 9.496728 11.000000 19 343.257209
-7.047682 3.225182 9.352818 4.000000 17 343.257211
-0.223872 0.122748 4.242296 101.000000 30 343.257219
-0.413873 0.213895 4.295112 98.000000 29 343.257221
-2.218951 1.050107 9.482327 7.000000 26 343.257224
-3.258711 1.498814 9.808295 10.000000 24 343.257227
-4.226257 1.942054 9.676545 11.000000 22 343.257229
-5.274755 2.422757 9.564643 11.000000 20 343.257232
-6.430536 2.953626 9.441665 8.000000 18 343.257234
-0.826701 0.379707 1.064513 34.000000 16 343.257237
-9.693109 4.421485 8.669815 3.000000 13 343.257197
-7.845903 3.580541 5.738949 75.000000 11 343.257200
-8.142631 3.715958 4.769730 93.000000 9 343.257202
-9.159763 4.183999 2.003344 16.000000 3 343.257210
-9.058784 4.139785 0.985351 85.000000 1 343.257212
-0.896131 0.410461 0.958731 32.000000 14 343.257220
-9.689257 4.438128 7.843612 8.000000 12 343.257223
-7.797144 3.573098 5.123669 106.000000 10 343.257225
-9.416381 4.315129 4.875731 30.000000 8 343.257228
-9.123222 4.186569 1.490457 115.000000 2 343.257236
-9.016814 4.139644 0.493906 29.000000 0 343.257238
-0.038552 0.027339 3.864126 98.000000 31 343.257249
-0.610807 0.300251 4.327214 99.000000 28 343.257251
-1.845867 0.910632 9.918991 10.000000 27 343.257254
-2.651681 1.243150 9.403902 9.000000 25 343.257256
-3.732377 1.724578 9.745763 10.000000 23 343.257259
-4.733108 2.185983 9.617663 10.000000 21 343.257262
-5.843236 2.698702 9.525659 10.000000 19 343.257264
-5.566586 2.570934 7.415161 4.000000 17 343.257267
-0.223442 0.123529 4.242296 101.000000 30 343.257274
-0.413124 0.215339 4.295112 98.000000 29 343.257277
-2.201651 1.051341 9.424256 8.000000 26 343.257280
-3.253459 1.510180 9.808295 10.000000 24 343.257282
-4.221428 1.957711 9.681046 11.000000 22 343.257285
-5.263900 2.440058 9.560377 11.000000 20 343.257287
-5.069367 2.349885 7.470852 3.000000 18 343.257290
-0.819219 0.379739 1.057163 28.000000 16 343.257292
-8.354965 3.846380 9.118477 2.000000 15 343.257250
-7.414495 3.413417 6.661639 10.000000 13 343.257253
-7.844751 3.613154 5.747173 79.000000 11 343.257255
-8.137656 3.748065 4.774366 92.000000 9 343.257258
-9.162948 4.224174 2.007074 39.000000 3 343.257265
-9.048800 4.173467 0.985797 98.000000 1 343.257268
-0.894692 0.413587 0.958731 35.000000 14 343.257276
-9.618671 4.446482 7.799465 3.000000 12 343.257278
-7.788538 3.602104 5.126201 106.000000 10 343.257281
-9.405379 4.349877 4.877830 27.000000 8 343.257283
-9.108554 4.218390 1.490457 113.000000 2 343.257291
-9.006842 4.173194 0.494107 69.000000 0 343.257294
-0.038461 0.027467 3.864126 99.000000 31 343.257304
-0.609112 0.301930 4.322275 99.000000 28 343.257307
-1.839190 0.914933 9.899409 9.000000 27 343.257309
-2.648894 1.252576 9.408673 11.000000 25 343.257312
-3.726638 1.736945 9.745763 10.000000 23 343.257314
-4.728004 2.202679 9.622052 11.000000 21 343.257317
-5.816399 2.709746 9.496728 7.000000 19 343.257319
-5.505722 2.565010 7.346096 9.000000 17 343.257322
-0.223031 0.124269 4.242296 101.000000 30 343.257330
-0.412408 0.216708 4.295112 99.000000 29 343.257332
-2.197020 1.058091 9.419418 10.000000 26 343.257335
-3.249997 1.521692 9.812988 11.000000 24 343.257337
-4.214913 1.971699 9.681046 11.000000 22 343.257340
-5.265230 2.461919 9.577441 11.000000 20 343.257342
-5.058817 2.365407 7.466863 8.000000 18 343.257345
-8.293646 3.851533 9.065907 3.000000 15 343.257305
-7.297214 3.388796 6.567505 5.000000 13 343.257308
-7.832726 3.639148 5.747173 61.000000 11 343.257310
-8.129202 3.776896 4.776684 91.000000 9 343.257313
-9.126617 4.244179 2.002411 85.000000 3 343.257321
-9.034911 4.203451 0.985797 102.000000 1 343.257323
-0.893316 0.416552 0.958731 36.000000 14 343.257331
-9.548924 4.452731 7.755317 7.000000 12 343.257334
-7.776550 3.627912 5.126201 106.000000 10 343.257336
-9.395017 4.382962 4.879928 23.000000 8 343.257339
-9.094515 4.248571 1.490457 106.000000 2 343.257346
-8.988427 4.200923 0.493906 91.000000 0 343.257349
-0.038365 0.027601 3.864126 99.000000 31 343.257360
-0.608054 0.304054 4.322275 99.000000 28 343.257362
-1.830526 0.918606 9.870038 9.000000 27 343.257365
-2.643157 1.261171 9.403902 11.000000 25 343.257367
-3.720552 1.749943 9.745763 11.000000 23 343.257370
-4.726790 2.222227 9.635219 10.000000 21 343.257372
-4.579432 2.152951 7.504648 4.000000 19 343.257375
-5.430005 2.552840 7.257846 16.000000 17 343.257377
-0.222596 0.125047 4.242296 101.000000 30 343.257385
-0.411649 0.218146 4.295112 99.000000 29 343.257388
-2.189919 1.064104 9.404901 10.000000 26 343.257390
-3.246225 1.533765 9.817681 11.000000 24 343.257393
-4.217852 1.991048 9.703550 11.000000 22 343.257395
-5.254245 2.479170 9.573175 8.000000 20 343.257398
-5.020546 2.368903 7.422978 14.000000 18 343.257401
-7.527742 3.527846 8.249349 5.000000 15 343.257361
-7.302965 3.422508 6.583194 2.000000 13 343.257363
-7.827547 3.670017 5.752656 34.000000 11 343.257366
-8.123990 3.809011 4.781320 74.000000 9 343.257368
-9.120642 4.280185 2.004276 78.000000 3 343.257376
-9.020183 4.234962 0.985797 104.000000 1 343.257379
-0.891856 0.419667 0.958731 37.000000 14 343.257386
-9.536980 4.487756 7.758260 6.000000 12 343.257389
-7.763839 3.655035 5.126201 106.000000 10 343.257392
-9.383766 4.417663 4.882026 21.000000 8 343.257394
-9.079629 4.280291 1.490457 106.000000 2 343.257402
-8.982746 4.236536 0.494309 103.000000 0 343.257404
-0.038269 0.027735 3.864126 99.000000 31 343.257415
-0.606989 0.306175 4.322275 99.000000 28 343.257418
-1.817316 0.919930 9.816191 9.000000 27 343.257420
-2.638739 1.270390 9.403902 11.000000 25 343.257423
-3.714421 1.762920 9.745763 10.000000 23 343.257425
-0.222159 0.125823 4.242296 101.000000 30 343.257441
-0.410885 0.219581 4.295112 98.000000 29 343.257443
-2.182803 1.070080 9.390383 9.000000 26 343.257446
-3.240852 1.545087 9.817681 12.000000 24 343.257448
-4.204978 2.002949 9.690048 11.000000 22 343.257451
-4.946936 2.355318 7.327230 34.000000 18 343.257456
-7.660459 3.622710 8.407053 6.000000 15 343.257416
-7.276897 3.441322 6.570642 2.000000 13 343.257419
-7.818469 3.699107 5.755398 26.000000 11 343.257421
-8.114650 3.839240 4.783638 74.000000 9 343.257424
-9.105645 4.311996 2.004276 91.000000 3 343.257432
-9.009846 4.268555 0.986243 103.000000 1 343.257434
-0.893759 0.424380 0.962055 37.000000 14 343.257442
-9.517606 4.519286 7.755317 4.000000 12 343.257445
-7.751033 3.682113 5.126201 106.000000 10 343.257447
-9.372387 4.452339 4.884124 18.000000 8 343.257450
-9.064633 4.311959 1.490457 106.000000 2 343.257457
-8.963392 4.265718 0.494107 109.000000 0 343.257460
-0.038172 0.027868 3.864126 99.000000 31 343.257471
-0.606609 0.308644 4.327214 99.000000 28 343.257473
-1.793239 0.915614 9.703601 8.000000 27 343.257476
-3.711769 1.777562 9.754969 10.000000 23 343.257481
-4.541447 2.173934 7.467451 12.000000 19 343.257486
-6.875239 3.291101 9.199340 7.000000 17 343.257488
-0.221718 0.126598 4.242296 101.000000 30 343.257496
-0.410116 0.221014 4.295112 98.000000 29 343.257499
-2.176800 1.076578 9.380704 8.000000 26 343.257501
-3.236994 1.557138 9.822374 12.000000 24 343.257504
-4.188147 2.012898 9.667544 10.000000 22 343.257506
-4.127221 1.982736 7.559655 9.000000 20 343.257509
-4.938684 2.372572 7.327230 36.000000 18 343.257512
-0.867039 0.413736 0.856750 21.000000 13 343.257474
-7.801735 3.724574 5.752656 21.000000 11 343.257477
-8.109195 3.871360 4.788274 83.000000 9 343.257480
-9.094970 4.345872 2.005209 97.000000 3 343.257487
-8.994891 4.299979 0.986243 105.000000 1 343.257490
-0.892273 0.427497 0.962055 38.000000 14 343.257498
-9.505418 4.554227 7.758260 2.000000 12 343.257500
-7.742021 3.711011 5.128734 107.000000 10 343.257503
-9.360882 4.486989 4.886222 14.000000 8 343.257505
-9.049526 4.343574 1.490457 106.000000 2 343.257513
-8.952951 4.299143 0.494309 110.000000 0 343.257515
-0.038074 0.028002 3.864126 98.000000 31 343.257526
-0.605528 0.310760 4.327214 99.000000 28 343.257529
-1.771024 0.912075 9.600801 8.000000 27 343.257531
-2.742460 1.343994 9.804727 9.000000 25 343.257534
-3.698505 1.787108 9.736558 10.000000 23 343.257536
-3.710899 1.792304 7.616435 8.000000 21 343.257539
-4.475549 2.161624 7.372393 34.000000 19 343.257541
-7.019598 3.390372 9.406535 7.000000 17 343.257544
-0.221275 0.127371 4.242296 100.000000 30 343.257552
-0.409810 0.222700 4.300084 99.000000 29 343.257554
-2.168527 1.081923 9.361347 5.000000 26 343.257557
-3.231539 1.568428 9.822374 11.000000 24 343.257559
-4.082726 1.978930 7.491400 17.000000 20 343.257565
-6.340062 3.052620 6.994721 2.000000 15 343.257527
-0.865589 0.416760 0.856750 22.000000 13 343.257530
-7.796221 3.755414 5.758139 33.000000 11 343.257532
-8.103614 3.903487 4.792911 83.000000 9 343.257535
-9.084169 4.379726 2.006141 100.000000 3 343.257543
-8.979827 4.331352 0.986243 105.000000 1 343.257545
-0.894137 0.432234 0.965380 38.000000 14 343.257553
-7.729020 3.738013 5.128734 108.000000 10 343.257558
-9.349248 4.521614 4.888320 12.000000 8 343.257561
-9.034308 4.375136 1.490457 107.000000 2 343.257568
-8.937890 4.330369 0.494309 112.000000 0 343.257571
-0.037976 0.028134 3.864126 98.000000 31 343.257582
-0.604439 0.312872 4.327214 99.000000 28 343.257584
-1.751567 0.909800 9.512687 9.000000 27 343.257587
-2.735075 1.352234 9.795183 8.000000 25 343.257589
-3.695756 1.801719 9.745763 10.000000 23 343.257592
-3.689544 1.797900 7.585714 6.000000 21 343.257594
-4.467977 2.177233 7.372393 45.000000 19 343.257597
-7.010602 3.416259 9.410372 7.000000 17 343.257600
-0.220829 0.128143 4.242296 100.000000 30 343.257607
-0.409031 0.224129 4.300084 99.000000 29 343.257610
-2.157996 1.086093 9.332313 5.000000 26 343.257612
-3.227594 1.580458 9.827067 11.000000 24 343.257615
-4.033621 1.972546 7.414613 13.000000 20 343.257620
-5.208999 2.547343 7.750117 9.000000 18 343.257623
-6.278043 3.049799 6.938649 4.000000 15 343.257583
-0.871133 0.423181 0.863025 32.000000 13 343.257585
-1.088839 0.529176 0.878329 12.000000 11 343.257588
-8.097907 3.935623 4.797546 77.000000 9 343.257591
-9.073244 4.413558 2.007074 100.000000 3 343.257598
-8.969131 4.364850 0.986690 106.000000 1 343.257601
-0.892623 0.435353 0.965380 39.000000 14 343.257609
-1.052260 0.513216 0.936014 16.000000 12 343.257611
-7.715925 3.764969 5.128734 108.000000 10 343.257614
-9.325250 4.550241 4.884124 10.000000 8 343.257616
-9.023432 4.408819 1.491147 105.000000 2 343.257624
-8.927207 4.363735 0.494510 109.000000 0 343.257626
-0.037878 0.028267 3.864126 99.000000 31 343.257637
-0.603344 0.314980 4.327214 99.000000 28 343.257640
-1.746577 0.914963 9.502896 10.000000 27 343.257642
-2.733011 1.363107 9.804727 9.000000 25 343.257645
-3.687691 1.813747 9.741160 9.000000 23 343.257647
-3.676796 1.807597 7.572548 6.000000 21 343.257650
-4.475502 2.200265 7.397191 28.000000 19 343.257652
-7.021650 3.452025 9.441068 4.000000 17 343.257655
-0.220629 0.129060 4.247288 100.000000 30 343.257663
-0.408246 0.225556 4.300084 99.000000 29 343.257665
-2.146341 1.089633 9.298438 5.000000 26 343.257668
-3.222058 1.591715 9.827067 11.000000 24 343.257670
-3.278311 1.618087 7.619665 12.000000 22 343.257673
-5.200075 2.565511 7.750117 6.000000 18 343.257678
-5.725894 2.824932 6.999904 6.000000 16 343.257681
-6.187301 3.032458 6.851035 5.000000 15 343.257638
-0.869650 0.426220 0.863025 34.000000 13 343.257641
-1.075722 0.527451 0.870105 15.000000 11 343.257644
-8.092075 3.967767 4.802182 77.000000 9 343.257646
-9.057782 4.445203 2.007074 97.000000 3 343.257654
-8.953840 4.396132 0.986690 104.000000 1 343.257656
-0.894448 0.440115 0.968705 39.000000 14 343.257664
-1.032328 0.507963 0.921298 34.000000 12 343.257667
-7.706603 3.793784 5.131266 104.000000 10 343.257669
-9.333741 4.594791 4.896712 7.000000 8 343.257672
-9.007987 4.440290 1.491147 105.000000 2 343.257679
-8.916402 4.397079 0.494712 108.000000 0 343.257682
-0.037779 0.028399 3.864126 99.000000 31 343.257693
-0.602240 0.317084 4.327214 99.000000 28 343.257695
-1.742472 0.920578 9.498001 10.000000 27 343.257698
-2.709558 1.363240 9.737922 9.000000 25 343.257700
-3.625392 1.798066 7.480387 13.000000 21 343.257705
-4.886279 2.423430 8.083260 18.000000 19 343.257708
-5.315038 2.636084 7.177270 3.000000 17 343.257711
-0.220178 0.129830 4.247288 101.000000 30 343.257718
-0.407922 0.227240 4.305056 99.000000 29 343.257721
-2.130210 1.090811 9.245207 5.000000 26 343.257723
-3.218026 1.603722 9.831760 11.000000 24 343.257726
-3.262895 1.624667 7.597161 5.000000 22 343.257729
-5.185693 2.580961 7.742138 14.000000 18 343.257734
-5.652264 2.813181 6.922726 6.000000 16 343.257736
-6.096757 3.014521 6.763422 6.000000 15 343.257694
-0.868157 0.429253 0.863025 26.000000 13 343.257696
-1.055135 0.521933 0.856398 8.000000 11 343.257699
-8.086119 3.999919 4.806818 77.000000 9 343.257702
-9.046613 4.478972 2.008007 97.000000 3 343.257709
-8.942903 4.429569 0.987136 103.000000 1 343.257712
-0.896252 0.444895 0.972030 38.000000 14 343.257720
-1.030549 0.511563 0.921298 35.000000 12 343.257722
-7.693313 3.820662 5.131266 73.000000 10 343.257725
-8.996866 4.473912 1.491837 105.000000 2 343.257735
-8.900998 4.428177 0.494712 108.000000 0 343.257738
-0.037679 0.028530 3.864126 98.000000 31 343.257748
-0.601130 0.319184 4.327214 99.000000 28 343.257751
-1.742842 0.928571 9.517582 11.000000 27 343.257753
-2.655505 1.347679 9.561369 8.000000 25 343.257756
-2.887033 1.445065 7.665422 4.000000 23 343.257758
-3.616951 1.809638 7.475998 67.000000 21 343.257761
-4.913022 2.458099 8.141121 18.000000 19 343.257764
-5.268532 2.635973 7.127390 4.000000 17 343.257766
-0.219723 0.130597 4.247288 100.000000 30 343.257774
-0.407126 0.228663 4.305056 99.000000 29 343.257776
-2.116331 1.093045 9.201653 5.000000 26 343.257779
-3.212409 1.614945 9.831760 11.000000 24 343.257782
-3.257205 1.636047 7.597161 4.000000 22 343.257784
-4.928848 2.474631 7.375104 5.000000 18 343.257789
-5.560606 2.791823 6.823496 7.000000 16 343.257792
-6.006415 2.995989 6.675808 8.000000 15 343.257749
-0.877104 0.437493 0.872439 11.000000 13 343.257752
-8.072107 4.028120 4.806818 36.000000 9 343.257757
-9.030923 4.510524 2.008007 97.000000 3 343.257765
-8.927386 4.460759 0.987136 102.000000 1 343.257767
-0.898032 0.449692 0.975355 37.000000 14 343.257775
-1.021528 0.511537 0.915412 36.000000 12 343.257778
-7.683784 3.849424 5.133799 19.000000 10 343.257780
-8.981195 4.505290 1.491837 106.000000 2 343.257790
-8.889952 4.461461 0.494913 108.000000 0 343.257793
-0.037580 0.028662 3.864126 98.000000 31 343.257804
-0.600697 0.321648 4.332154 99.000000 28 343.257806
-1.741384 0.935613 9.527373 12.000000 27 343.257809
-2.560382 1.310659 9.236891 7.000000 25 343.257811
-2.873251 1.450731 7.642410 10.000000 23 343.257814
-3.619167 1.826570 7.493552 37.000000 21 343.257816
-4.879290 2.462555 8.099792 16.000000 19 343.257819
-5.147678 2.598013 6.977750 5.000000 17 343.257822
-0.219289 0.131325 4.247288 101.000000 30 343.257829
-0.406366 0.230011 4.305056 99.000000 29 343.257832
-2.102655 1.094828 9.158101 5.000000 26 343.257834
-3.208575 1.626369 9.836452 11.000000 24 343.257837
-3.224277 1.633627 7.534148 8.000000 22 343.257840
-4.699029 2.379816 8.685861 6.000000 20 343.257842
-4.909424 2.486373 7.359146 4.000000 18 343.257845
-5.472676 2.770436 6.727942 9.000000 16 343.257847
-5.983178 3.010525 6.661790 11.000000 15 343.257805
-7.725757 3.889025 5.755398 11.000000 11 343.257810
-8.065910 4.060256 4.811455 16.000000 9 343.257813
-9.019509 4.544230 2.008939 99.000000 3 343.257820
-8.916208 4.494136 0.987582 97.000000 1 343.257823
-0.903123 0.456192 0.982004 35.000000 14 343.257831
-1.030560 0.520568 0.924241 35.000000 12 343.257833
-7.670977 3.874884 5.133799 18.000000 10 343.257836
-0.321026 0.162159 0.253722 15.000000 8 343.257838
-8.970625 4.537283 1.492527 106.000000 2 343.257846
-8.879566 4.493173 0.495115 105.000000 0 343.257849
-0.037484 0.028786 3.864126 95.000000 31 343.257859
-0.599627 0.323638 4.332154 99.000000 28 343.257862
-1.739167 0.941867 9.532268 13.000000 27 343.257864
-2.443211 1.260917 8.831295 9.000000 25 343.257867
-2.866683 1.459365 7.637807 9.000000 23 343.257869
-4.793350 2.439159 7.971671 7.000000 19 343.257875
-5.099033 2.594714 6.924032 6.000000 17 343.257877
-0.218829 0.132090 4.247288 101.000000 30 343.257885
-0.405097 0.231163 4.300084 98.000000 29 343.257887
-2.088798 1.096897 9.114548 5.000000 26 343.257890
-3.201342 1.636774 9.831760 10.000000 24 343.257893
-3.187813 1.628459 7.462135 18.000000 22 343.257895
-4.674853 2.387083 8.655999 6.000000 20 343.257898
-4.772308 2.436849 7.167651 6.000000 18 343.257900
-5.441837 2.778730 6.702216 13.000000 16 343.257903
-5.973162 3.030350 6.661790 10.000000 15 343.257860
-7.701632 3.908946 5.747173 7.000000 11 343.257866
-8.044501 4.082971 4.806818 8.000000 9 343.257868
-9.004391 4.574115 2.008939 99.000000 3 343.257876
-8.905695 4.525934 0.988028 97.000000 1 343.257878
-0.908261 0.462574 0.988654 33.000000 14 343.257886
-1.039633 0.529485 0.933071 29.000000 12 343.257889
-7.661246 3.903594 5.136331 8.000000 10 343.257891
-0.320458 0.163279 0.253722 15.000000 8 343.257894
-8.954733 4.568569 1.492527 105.000000 2 343.257902
-8.868278 4.526412 0.495317 105.000000 0 343.257904
-0.037384 0.028917 3.864126 95.000000 31 343.257915
-0.598494 0.325729 4.332154 99.000000 28 343.257917
-1.747485 0.954279 9.595905 13.000000 27 343.257920
-2.433496 1.266679 8.812208 8.000000 25 343.257922
