# .PCD v.7 - Point Cloud Data file format
VERSION .7
FIELDS x y z intensity ring timestamp
SIZE 4 4 4 4 2 8
TYPE F F F F U D
COUNT 1 1 1 1 1 1
WIDTH 909
HEIGHT 1
VIEWPOINT 0 0 0 1 0 0 0
POINTS 909
DATA ascii
-0.377093 -0.376724 1.165468 33.000000 22 344.837369
-0.359077 -0.358844 0.900532 32.000000 20 344.837372
-0.345125 -0.344899 0.720621 34.000000 18 344.837375
-0.336547 -0.336323 0.594092 32.000000 16 344.837377
-0.352562 -0.354176 0.570888 34.000000 15 344.837335
-0.464770 -0.466728 0.516456 4.000000 11 344.837340
-0.563705 -0.566075 0.504561 33.000000 9 344.837343
-0.910136 -0.913641 0.609354 12.000000 7 344.837345
-0.900988 -0.904142 0.464888 36.000000 5 344.837348
-0.308594 -0.309676 0.174475 5.000000 3 344.837350
-0.379566 -0.380764 0.141122 11.000000 1 344.837353
-0.588287 -0.589120 0.822412 40.000000 14 344.837361
-0.433112 -0.433725 0.529858 4.000000 12 344.837363
-0.537522 -0.538093 0.532380 30.000000 10 344.837366
-0.587765 -0.588385 0.471919 12.000000 8 344.837368
-0.911701 -0.912342 0.537795 39.000000 6 344.837371
-0.363743 -0.363620 0.114423 13.000000 0 344.837378
-0.018431 -0.014950 1.149230 9.000000 31 344.837389
-0.116488 -0.110850 1.022851 25.000000 28 344.837392
-0.221339 -0.209719 1.489410 38.000000 27 344.837394
-0.313871 -0.308912 1.454211 34.000000 25 344.837397
-0.365002 -0.363125 1.272516 35.000000 23 344.837399
-0.367050 -0.365283 1.015889 32.000000 21 344.837402
-0.349526 -0.347840 0.796871 31.000000 19 344.837404
-0.342212 -0.340558 0.654464 31.000000 17 344.837407
-0.054943 -0.048348 1.102575 33.000000 30 344.837415
-0.089364 -0.081527 1.083581 8.000000 29 344.837417
-0.253340 -0.245936 1.396016 5.000000 26 344.837420
-0.321734 -0.318971 1.286233 24.000000 24 344.837422
-0.378406 -0.375405 1.165468 33.000000 22 344.837425
-0.360327 -0.357589 0.900532 32.000000 20 344.837428
-0.346327 -0.343692 0.720621 34.000000 18 344.837430
-0.335313 -0.332758 0.590417 32.000000 16 344.837433
-0.353796 -0.352943 0.570888 34.000000 15 344.837390
-0.466396 -0.465103 0.516456 4.000000 11 344.837395
-0.565678 -0.564104 0.504561 31.000000 9 344.837398
-0.907537 -0.904378 0.466298 36.000000 5 344.837403
-0.330550 -0.329402 0.180071 10.000000 3 344.837406
-0.373836 -0.372407 0.140230 14.000000 1 344.837408
-0.590340 -0.587063 0.822412 39.000000 14 344.837416
-0.431758 -0.429360 0.526915 4.000000 12 344.837419
-0.545513 -0.542292 0.537445 32.000000 10 344.837421
-0.593034 -0.589529 0.474017 13.000000 8 344.837424
-0.918230 -0.912482 0.539438 39.000000 6 344.837426
-0.375647 -0.372907 0.115028 14.000000 0 344.837434
-0.018521 -0.014907 1.154230 9.000000 31 344.837445
-0.116874 -0.110442 1.022851 26.000000 28 344.837447
-0.222069 -0.208945 1.489410 39.000000 27 344.837450
-0.302127 -0.295290 1.396950 17.000000 25 344.837452
-0.364878 -0.360476 1.267914 35.000000 23 344.837455
-0.370027 -0.365683 1.020278 32.000000 21 344.837457
-0.350738 -0.346618 0.796871 30.000000 19 344.837460
-0.343399 -0.339361 0.654464 30.000000 17 344.837463
-0.055112 -0.048156 1.102575 34.000000 30 344.837470
-0.089648 -0.081215 1.083581 8.000000 29 344.837473
-0.260539 -0.251158 1.429891 5.000000 26 344.837475
-0.322845 -0.317846 1.286233 22.000000 24 344.837478
-0.381265 -0.375610 1.169969 33.000000 22 344.837481
-0.361573 -0.356329 0.900532 32.000000 20 344.837483
-0.347524 -0.342481 0.720621 34.000000 18 344.837486
-0.336472 -0.331586 0.590417 32.000000 16 344.837488
-0.355026 -0.351706 0.570888 34.000000 15 344.837446
-0.465046 -0.460530 0.513714 4.000000 11 344.837451
-0.564495 -0.559009 0.502243 31.000000 9 344.837454
-0.910688 -0.901205 0.466298 38.000000 5 344.837459
-0.324715 -0.321336 0.178206 13.000000 3 344.837461
-0.375134 -0.371100 0.140230 17.000000 1 344.837464
-0.595043 -0.587623 0.825737 39.000000 14 344.837472
-0.430378 -0.425010 0.523971 4.000000 12 344.837474
-0.553538 -0.546442 0.542509 35.000000 10 344.837477
-0.598318 -0.590644 0.476116 22.000000 8 344.837479
-0.921410 -0.909271 0.539438 39.000000 6 344.837482
-0.376947 -0.371594 0.115028 15.000000 0 344.837489
-0.018611 -0.014864 1.159229 9.000000 31 344.837500
-0.117259 -0.110034 1.022851 26.000000 28 344.837503
-0.222797 -0.208168 1.489410 39.000000 27 344.837505
-0.282788 -0.274475 1.306288 7.000000 25 344.837508
-0.366134 -0.359200 1.267914 36.000000 23 344.837510
-0.371301 -0.364389 1.020278 31.000000 21 344.837513
-0.353955 -0.347363 0.801004 27.000000 19 344.837515
-0.344581 -0.338161 0.654464 31.000000 17 344.837518
-0.055279 -0.047963 1.102575 33.000000 30 344.837526
-0.089531 -0.080547 1.078609 7.000000 29 344.837528
-0.268687 -0.257202 1.468604 8.000000 26 344.837531
-0.323953 -0.316717 1.286233 22.000000 24 344.837533
-0.382574 -0.374277 1.169969 33.000000 22 344.837536
-0.364679 -0.356889 0.904797 32.000000 20 344.837539
-0.348718 -0.341266 0.720621 34.000000 18 344.837541
-0.337628 -0.330409 0.590417 33.000000 16 344.837544
-0.356251 -0.350465 0.570888 34.000000 15 344.837501
-0.463669 -0.455972 0.510973 3.000000 11 344.837507
-0.566443 -0.557035 0.502243 30.000000 9 344.837509
-0.913828 -0.898020 0.466298 38.000000 5 344.837514
-0.322331 -0.316757 0.177273 8.000000 3 344.837517
-0.365769 -0.359319 0.138891 20.000000 1 344.837519
-0.597090 -0.585542 0.825737 37.000000 14 344.837527
-0.428973 -0.420676 0.521028 4.000000 12 344.837530
-0.558521 -0.547525 0.545042 35.000000 10 344.837532
-0.600376 -0.588552 0.476116 30.000000 8 344.837535
-0.927951 -0.909355 0.541080 39.000000 6 344.837537
-0.902873 -0.884471 0.395556 5.000000 4 344.837540
-0.381811 -0.373771 0.115229 16.000000 0 344.837545
-0.018701 -0.014820 1.164229 9.000000 31 344.837556
-0.117073 -0.109095 1.017911 24.000000 28 344.837558
-0.223523 -0.207389 1.489410 39.000000 27 344.837561
-0.283745 -0.273486 1.306288 7.000000 25 344.837563
-0.365986 -0.356557 1.263311 36.000000 23 344.837566
-0.372571 -0.363091 1.020278 31.000000 21 344.837568
-0.355165 -0.346125 0.801004 23.000000 19 344.837571
-0.348055 -0.339193 0.658301 31.000000 17 344.837574
-0.055438 -0.047780 1.102575 34.000000 30 344.837581
-0.089798 -0.080249 1.078609 8.000000 29 344.837584
-0.275010 -0.261507 1.497639 16.000000 26 344.837586
-0.325001 -0.315641 1.286233 27.000000 24 344.837589
-0.383878 -0.372939 1.169969 33.000000 22 344.837592
-0.365922 -0.355614 0.904797 32.000000 20 344.837594
-0.349907 -0.340046 0.720621 34.000000 18 344.837597
-0.338722 -0.329288 0.590417 33.000000 16 344.837599
-0.357472 -0.349219 0.570888 34.000000 15 344.837557
-0.468250 -0.457272 0.513714 3.000000 11 344.837562
-0.568384 -0.555054 0.502243 30.000000 9 344.837565
-0.916801 -0.894985 0.466298 38.000000 5 344.837570
-0.333981 -0.325922 0.180071 5.000000 3 344.837572
-0.359892 -0.351085 0.137999 21.000000 1 344.837575
-0.601806 -0.586060 0.829062 34.000000 14 344.837583
-0.430439 -0.419176 0.521028 4.000000 12 344.837585
-0.563422 -0.548677 0.547574 35.000000 10 344.837588
-0.605576 -0.589724 0.478214 30.000000 8 344.837590
-0.937729 -0.912861 0.544366 42.000000 6 344.837593
-0.888384 -0.864523 0.389694 8.000000 4 344.837595
-0.379467 -0.369019 0.115028 16.000000 0 344.837601
-0.018750 -0.014758 1.164229 9.000000 31 344.837611
-0.117434 -0.108706 1.017911 20.000000 28 344.837614
-0.224209 -0.206647 1.489410 39.000000 27 344.837616
-0.284650 -0.272544 1.306288 8.000000 25 344.837619
-0.365763 -0.353982 1.258709 39.000000 23 344.837621
-0.373773 -0.361853 1.020278 31.000000 21 344.837624
-0.358333 -0.346903 0.805137 18.000000 19 344.837627
-0.349178 -0.338037 0.658301 31.000000 17 344.837629
-0.055605 -0.047586 1.102575 33.000000 30 344.837637
-0.089676 -0.079583 1.073638 7.000000 29 344.837639
-0.275006 -0.259682 1.492800 5.000000 26 344.837642
-0.324859 -0.313307 1.281540 32.000000 24 344.837645
-0.386745 -0.373109 1.174470 32.000000 22 344.837647
-0.367162 -0.354334 0.904797 32.000000 20 344.837650
-0.351092 -0.338823 0.720621 34.000000 18 344.837652
-0.339926 -0.328044 0.590417 33.000000 16 344.837655
-0.358628 -0.348032 0.570888 35.000000 15 344.837612
-0.415650 -0.403363 0.549248 4.000000 13 344.837615
-0.472765 -0.458628 0.516456 4.000000 11 344.837618
-0.570222 -0.553166 0.502243 30.000000 9 344.837620
-0.923364 -0.895119 0.467707 38.000000 5 344.837625
-0.350384 -0.339431 0.136660 17.000000 1 344.837630
-0.606533 -0.586551 0.832386 27.000000 14 344.837638
-0.428994 -0.414861 0.518085 4.000000 12 344.837641
-0.562330 -0.543612 0.545042 33.000000 10 344.837643
-0.607734 -0.587501 0.478214 30.000000 8 344.837646
-0.944464 -0.912700 0.546008 46.000000 6 344.837648
-0.898539 -0.868015 0.392039 11.000000 4 344.837651
-0.373565 -0.360752 0.114625 15.000000 0 344.837656
-0.018843 -0.014710 1.169229 8.000000 31 344.837667
-0.117831 -0.108275 1.017911 13.000000 28 344.837669
-0.224965 -0.205824 1.489410 38.000000 27 344.837672
-0.286730 -0.272527 1.311059 10.000000 25 344.837674
-0.367058 -0.352640 1.258709 45.000000 23 344.837677
-0.375097 -0.360481 1.020278 29.000000 21 344.837679
-0.361631 -0.347537 0.809270 15.000000 19 344.837682
-0.350415 -0.336755 0.658301 31.000000 17 344.837685
-0.055779 -0.047382 1.102575 32.000000 30 344.837692
-0.089967 -0.079254 1.073638 7.000000 29 344.837695
-0.326005 -0.312114 1.281540 35.000000 24 344.837700
-0.388045 -0.371757 1.174470 32.000000 22 344.837703
-0.368396 -0.353050 0.904797 32.000000 20 344.837705
-0.354448 -0.339681 0.724611 34.000000 18 344.837708
-0.343517 -0.329201 0.594092 33.000000 16 344.837710
-0.357333 -0.344241 0.567384 35.000000 15 344.837668
-0.403107 -0.388333 0.533559 4.000000 13 344.837671
-0.477455 -0.459793 0.519197 4.000000 11 344.837673
-0.569054 -0.547999 0.499925 29.000000 9 344.837676
-0.926639 -0.891728 0.467707 38.000000 5 344.837681
-0.337211 -0.324396 0.134875 13.000000 1 344.837686
-0.605883 -0.581844 0.829062 11.000000 14 344.837694
-0.427524 -0.410561 0.515142 5.000000 12 344.837696
-0.561114 -0.538660 0.542509 33.000000 10 344.837699
-0.609781 -0.585376 0.478214 29.000000 8 344.837701
-0.951052 -0.912667 0.547651 48.000000 6 344.837704
-0.869995 -0.834590 0.381488 7.000000 4 344.837706
-0.367672 -0.352465 0.114222 16.000000 0 344.837712
-0.018932 -0.014665 1.174229 8.000000 31 344.837722
-0.118209 -0.107863 1.017911 17.000000 28 344.837725
-0.226437 -0.205721 1.494305 36.000000 27 344.837727
-0.287679 -0.271525 1.311059 12.000000 25 344.837730
-0.368286 -0.351356 1.258709 49.000000 23 344.837732
-0.376353 -0.359170 1.020278 28.000000 21 344.837735
-0.362842 -0.346272 0.809270 12.000000 19 344.837738
-0.353908 -0.337743 0.662138 31.000000 17 344.837740
-0.055944 -0.047187 1.102575 35.000000 30 344.837748
-0.090243 -0.078940 1.073638 8.000000 29 344.837750
-0.327092 -0.310974 1.281540 36.000000 24 344.837756
-0.389340 -0.370400 1.174470 32.000000 22 344.837758
-0.369626 -0.351762 0.904797 32.000000 20 344.837761
-0.355632 -0.338441 0.724611 34.000000 18 344.837763
-0.344664 -0.328000 0.594092 33.000000 16 344.837766
-0.358533 -0.342991 0.567384 35.000000 15 344.837723
-0.396022 -0.378850 0.524146 4.000000 13 344.837726
-0.485101 -0.463903 0.524680 5.000000 11 344.837729
-0.570964 -0.546010 0.499925 29.000000 9 344.837731
-0.933214 -0.891802 0.469116 39.000000 5 344.837736
-0.327538 -0.312897 0.133536 11.000000 1 344.837741
-0.426029 -0.406277 0.512199 5.000000 12 344.837752
-0.559870 -0.533724 0.539977 34.000000 10 344.837754
-0.611820 -0.583243 0.478214 31.000000 8 344.837757
-0.957651 -0.912599 0.549294 48.000000 6 344.837759
-0.361663 -0.344290 0.113818 14.000000 0 344.837767
-0.018983 -0.014598 1.174229 8.000000 31 344.837778
-0.118007 -0.106930 1.012972 16.000000 28 344.837780
-0.227153 -0.204929 1.494305 35.000000 27 344.837783
-0.288625 -0.270519 1.311059 15.000000 25 344.837785
-0.369511 -0.350068 1.258709 49.000000 23 344.837788
-0.377604 -0.357854 1.020278 24.000000 21 344.837791
-0.364048 -0.345004 0.809270 9.000000 19 344.837793
-0.355084 -0.336506 0.662138 31.000000 17 344.837796
-0.056108 -0.046991 1.102575 35.000000 30 344.837803
-0.090518 -0.078624 1.073638 7.000000 29 344.837806
-0.276831 -0.255886 1.487961 7.000000 26 344.837809
-0.328176 -0.309830 1.281540 36.000000 24 344.837811
-0.390631 -0.369039 1.174470 32.000000 22 344.837814
-0.370852 -0.350470 0.904797 32.000000 20 344.837816
-0.356811 -0.337198 0.724611 34.000000 18 344.837819
-0.345807 -0.326795 0.594092 33.000000 16 344.837821
-0.359728 -0.341738 0.567384 34.000000 15 344.837779
-0.394519 -0.374785 0.521008 4.000000 13 344.837782
-0.492781 -0.467966 0.530163 6.000000 11 344.837784
-0.572866 -0.544013 0.499925 29.000000 9 344.837787
-0.936322 -0.888539 0.469116 39.000000 5 344.837792
-0.321403 -0.304897 0.132644 11.000000 1 344.837797
-0.427445 -0.404787 0.512199 4.000000 12 344.837807
-0.558599 -0.528802 0.537445 34.000000 10 344.837810
-0.610557 -0.577984 0.476116 31.000000 8 344.837812
-0.964260 -0.912497 0.550936 48.000000 6 344.837815
-0.351971 -0.332730 0.113214 14.000000 0 344.837823
-0.019034 -0.014532 1.174229 8.000000 31 344.837834
-0.118959 -0.107035 1.017911 15.000000 28 344.837837
-0.228627 -0.204813 1.499200 27.000000 27 344.837839
-0.288474 -0.268492 1.306288 17.000000 25 344.837842
-0.370730 -0.348776 1.258709 53.000000 23 344.837844
-0.380596 -0.358175 1.024666 19.000000 21 344.837847
-0.363201 -0.341802 0.805137 8.000000 19 344.837849
-0.358592 -0.337461 0.665975 31.000000 17 344.837852
-0.056264 -0.046805 1.102575 34.000000 30 344.837860
-0.090779 -0.078324 1.073638 7.000000 29 344.837862
-0.284166 -0.260919 1.521836 14.000000 26 344.837865
-0.329202 -0.308740 1.281540 36.000000 24 344.837867
-0.393505 -0.369163 1.178971 33.000000 22 344.837870
-0.373975 -0.350958 0.909063 33.000000 20 344.837872
-0.360184 -0.338013 0.728600 34.000000 18 344.837875
-0.346889 -0.325647 0.594092 33.000000 16 344.837878
-0.363513 -0.342927 0.570888 34.000000 15 344.837835
-0.395825 -0.373405 0.521008 4.000000 13 344.837838
-0.500496 -0.471981 0.535646 18.000000 11 344.837840
-0.571539 -0.538971 0.497607 29.000000 9 344.837843
-0.942754 -0.888720 0.470525 39.000000 5 344.837848
-0.315215 -0.296943 0.131752 10.000000 1 344.837853
-0.425910 -0.400524 0.509256 4.000000 12 344.837864
-0.557209 -0.523994 0.534912 33.000000 10 344.837866
-0.612470 -0.575956 0.476116 25.000000 8 344.837869
-0.967281 -0.909294 0.550936 48.000000 6 344.837871
-0.345789 -0.324721 0.112811 13.000000 0 344.837879
-0.019121 -0.014489 1.179229 8.000000 31 344.837890
-0.119313 -0.106640 1.017911 15.000000 28 344.837892
-0.229305 -0.204054 1.499200 8.000000 27 344.837895
-0.288266 -0.266521 1.301516 24.000000 25 344.837897
-0.373312 -0.348879 1.263311 53.000000 23 344.837900
-0.381782 -0.356911 1.024666 16.000000 21 344.837902
-0.364332 -0.340596 0.805137 7.000000 19 344.837905
-0.359709 -0.336270 0.665975 32.000000 17 344.837907
-0.056427 -0.046608 1.102575 34.000000 30 344.837915
-0.091051 -0.078006 1.073638 7.000000 29 344.837918
-0.279496 -0.254843 1.492800 29.000000 26 344.837920
-0.330277 -0.307589 1.281540 37.000000 24 344.837923
-0.394727 -0.367856 1.178971 32.000000 22 344.837925
-0.375137 -0.349716 0.909063 33.000000 20 344.837928
-0.361303 -0.336816 0.728600 34.000000 18 344.837931
-0.348023 -0.324434 0.594092 33.000000 16 344.837933
-0.364648 -0.341720 0.570888 31.000000 15 344.837891
-0.394221 -0.369429 0.517870 4.000000 13 344.837893
-0.505110 -0.473177 0.538388 26.000000 11 344.837896
-0.573323 -0.537073 0.497607 29.000000 9 344.837898
-0.945850 -0.885424 0.470525 39.000000 5 344.837904
-0.308926 -0.289091 0.130859 10.000000 1 344.837909
-0.427236 -0.399109 0.509256 4.000000 12 344.837919
-0.552733 -0.516160 0.529847 33.000000 10 344.837922
-0.614477 -0.573815 0.476116 14.000000 8 344.837924
-0.973901 -0.909135 0.552579 48.000000 6 344.837927
-0.339613 -0.316698 0.112408 13.000000 0 344.837934
-0.019210 -0.014443 1.184229 7.000000 31 344.837945
-0.119102 -0.105709 1.012972 13.000000 28 344.837948
-0.230779 -0.203926 1.504095 4.000000 27 344.837950
-0.289195 -0.265513 1.301516 30.000000 25 344.837953
-0.374528 -0.347574 1.263311 47.000000 23 344.837955
-0.383025 -0.355576 1.024666 14.000000 21 344.837958
-0.365519 -0.339322 0.805137 7.000000 19 344.837960
-0.360880 -0.335013 0.665975 32.000000 17 344.837963
-0.056589 -0.046411 1.102575 34.000000 30 344.837971
-0.091323 -0.077688 1.073638 7.000000 29 344.837973
-0.278518 -0.252179 1.483122 36.000000 26 344.837976
-0.331349 -0.306435 1.281540 38.000000 24 344.837978
-0.396009 -0.366476 1.178971 32.000000 22 344.837981
-0.378269 -0.350176 0.913329 34.000000 20 344.837984
-0.362476 -0.335553 0.728600 34.000000 18 344.837986
-0.351641 -0.325520 0.597768 33.000000 16 344.837989
-0.368449 -0.342874 0.574393 13.000000 15 344.837946
-0.389808 -0.362746 0.511594 4.000000 13 344.837949
-0.509820 -0.474259 0.541129 35.000000 11 344.837951
-0.575194 -0.535068 0.497607 29.000000 9 344.837954
-0.952449 -0.885383 0.471934 38.000000 5 344.837959
-0.306285 -0.284621 0.130413 10.000000 1 344.837964
-0.428627 -0.397615 0.509256 4.000000 12 344.837975
-0.551370 -0.511296 0.527315 33.000000 10 344.837977
-0.977069 -0.905730 0.552579 48.000000 6 344.837982
-0.333385 -0.308721 0.112005 13.000000 0 344.837990
-0.019260 -0.014375 1.184229 7.000000 31 344.838001
-0.119471 -0.105293 1.012972 12.000000 28 344.838003
-0.231490 -0.203119 1.504095 4.000000 27 344.838006
-0.289016 -0.263496 1.296744 35.000000 25 344.838008
-0.375739 -0.346264 1.263311 47.000000 23 344.838011
-0.386025 -0.355861 1.029055 12.000000 21 344.838013
-0.366701 -0.338044 0.805137 6.000000 19 344.838016
-0.364405 -0.335924 0.669812 32.000000 17 344.838018
-0.056751 -0.046213 1.102575 34.000000 30 344.838026
-0.091594 -0.077369 1.073638 8.000000 29 344.838029
-0.282204 -0.253726 1.497639 31.000000 26 344.838031
-0.333688 -0.306443 1.286233 39.000000 24 344.838034
-0.398953 -0.366495 1.183472 32.000000 22 344.838036
-0.379550 -0.348787 0.913329 34.000000 20 344.838039
-0.365923 -0.336262 0.732590 34.000000 18 344.838042
-0.352832 -0.324229 0.597768 33.000000 16 344.838044
-0.364405 -0.336745 0.567384 6.000000 15 344.838002
-0.388213 -0.358741 0.508457 4.000000 13 344.838004
-0.514544 -0.475314 0.543870 36.000000 11 344.838007
-0.577058 -0.533057 0.497607 28.000000 9 344.838010
-0.955534 -0.882053 0.471934 38.000000 5 344.838015
-0.303665 -0.280120 0.129967 10.000000 1 344.838020
-0.430081 -0.396042 0.509256 4.000000 12 344.838030
-0.546896 -0.503432 0.522250 32.000000 10 344.838033
-0.980382 -0.902143 0.552579 48.000000 6 344.838038
-0.948096 -0.872128 0.401417 24.000000 4 344.838040
-0.327105 -0.300792 0.111602 12.000000 0 344.838045
-0.019352 -0.014325 1.189228 7.000000 31 344.838056
-0.119856 -0.104854 1.012972 10.000000 28 344.838059
-0.232233 -0.202269 1.504095 7.000000 27 344.838061
-0.288872 -0.261433 1.291973 37.000000 25 344.838064
-0.377005 -0.344885 1.263311 51.000000 23 344.838066
-0.387327 -0.354444 1.029055 10.000000 21 344.838069
-0.367938 -0.336698 0.805137 5.000000 19 344.838071
-0.365633 -0.334586 0.669812 32.000000 17 344.838074
-0.056912 -0.046015 1.102575 34.000000 30 344.838082
-0.092274 -0.077389 1.078609 7.000000 29 344.838084
-0.283088 -0.252740 1.497639 15.000000 26 344.838087
-0.334755 -0.305277 1.286233 39.000000 24 344.838089
-0.400230 -0.365100 1.183472 32.000000 22 344.838092
-0.380765 -0.347460 0.913329 34.000000 20 344.838095
-0.367094 -0.334982 0.732590 35.000000 18 344.838097
-0.356409 -0.325343 0.601443 33.000000 16 344.838100
-0.360381 -0.330586 0.560375 5.000000 15 344.838057
-0.378050 -0.346790 0.495905 4.000000 13 344.838060
-0.516283 -0.473425 0.543870 36.000000 11 344.838062
-0.579008 -0.530939 0.497607 28.000000 9 344.838065
-0.962143 -0.881954 0.473344 38.000000 5 344.838070
-0.300969 -0.275694 0.129521 10.000000 1 344.838075
-0.431461 -0.394538 0.509256 4.000000 12 344.838086
-0.548563 -0.501616 0.522250 32.000000 10 344.838088
-0.993825 -0.908445 0.557507 40.000000 6 344.838093
-0.950983 -0.868979 0.401417 25.000000 4 344.838096
-0.324464 -0.296280 0.111400 12.000000 0 344.838101
-0.019438 -0.014280 1.194228 7.000000 31 344.838112
-0.120203 -0.104456 1.012972 10.000000 28 344.838114
-0.232902 -0.201498 1.504095 13.000000 27 344.838117
-0.289737 -0.260474 1.291973 38.000000 25 344.838119
-0.378147 -0.343633 1.263311 51.000000 23 344.838122
-0.390273 -0.354769 1.033443 10.000000 21 344.838124
-0.371135 -0.337369 0.809270 5.000000 19 344.838127
-0.366741 -0.333372 0.669812 32.000000 17 344.838130
-0.057300 -0.045994 1.107566 36.000000 30 344.838137
-0.092544 -0.077066 1.078609 7.000000 29 344.838140
-0.284910 -0.252584 1.502479 15.000000 26 344.838142
-0.335819 -0.304106 1.286233 38.000000 24 344.838145
-0.403052 -0.365233 1.187973 33.000000 22 344.838148
-0.381915 -0.346195 0.913329 34.000000 20 344.838150
-0.368203 -0.333763 0.732590 34.000000 18 344.838153
-0.357543 -0.324097 0.601443 28.000000 16 344.838155
-0.369383 -0.336595 0.570888 3.000000 15 344.838113
-0.387830 -0.353401 0.505319 4.000000 13 344.838115
-0.517850 -0.471710 0.543870 35.000000 11 344.838118
-0.580765 -0.529016 0.497607 28.000000 9 344.838121
-0.965216 -0.878590 0.473344 37.000000 5 344.838126
-0.301882 -0.274695 0.129521 10.000000 1 344.838131
-0.414815 -0.376799 0.491597 4.000000 12 344.838141
-0.547118 -0.496800 0.519718 31.000000 10 344.838144
-0.989997 -0.898623 0.554222 29.000000 6 344.838149
-0.957610 -0.868921 0.402589 26.000000 4 344.838151
-0.318094 -0.288434 0.110997 11.000000 0 344.838156
-0.019488 -0.014212 1.194228 7.000000 31 344.838167
-0.119977 -0.103530 1.008033 10.000000 28 344.838170
-0.233604 -0.200684 1.504095 18.000000 27 344.838172
-0.290645 -0.259461 1.291973 36.000000 25 344.838175
-0.379344 -0.342311 1.263311 49.000000 23 344.838177
-0.393288 -0.355010 1.037832 12.000000 21 344.838180
-0.372310 -0.336071 0.809270 5.000000 19 344.838182
-0.367902 -0.332089 0.669812 32.000000 17 344.838185
-0.057461 -0.045793 1.107566 35.000000 30 344.838193
-0.092812 -0.076743 1.078609 7.000000 29 344.838195
-0.284846 -0.250757 1.497639 31.000000 26 344.838198
-0.336878 -0.302932 1.286233 37.000000 24 344.838200
-0.404325 -0.363824 1.187973 33.000000 22 344.838203
-0.383121 -0.344860 0.913329 33.000000 20 344.838206
-0.369366 -0.332476 0.732590 34.000000 18 344.838208
-0.356152 -0.320579 0.597768 12.000000 16 344.838211
-0.371742 -0.336373 0.486492 3.000000 13 344.838171
-0.516392 -0.467094 0.541129 35.000000 11 344.838174
-0.582609 -0.526985 0.497607 29.000000 9 344.838176
-0.971836 -0.878433 0.474753 37.000000 5 344.838181
-0.299144 -0.270300 0.129074 9.000000 1 344.838186
-0.410125 -0.369934 0.485710 3.000000 12 344.838197
-0.545647 -0.492000 0.517185 31.000000 10 344.838199
-0.964249 -0.868826 0.403762 34.000000 4 344.838207
-0.315387 -0.283979 0.110796 11.000000 0 344.838212
-0.019576 -0.014164 1.199228 7.000000 31 344.838223
-0.120338 -0.103110 1.008033 9.000000 28 344.838225
-0.233528 -0.199207 1.499200 29.000000 27 344.838228
-0.291549 -0.258444 1.291973 35.000000 25 344.838230
-0.380537 -0.340984 1.263311 51.000000 23 344.838233
-0.394524 -0.353635 1.037832 15.000000 21 344.838235
-0.373481 -0.334770 0.809270 7.000000 19 344.838238
-0.369059 -0.330803 0.669812 32.000000 17 344.838241
-0.057620 -0.045593 1.107566 36.000000 30 344.838248
-0.093495 -0.076755 1.083581 7.000000 29 344.838251
-0.284772 -0.248934 1.492800 38.000000 26 344.838253
-0.336646 -0.300605 1.281540 37.000000 24 344.838256
-0.407216 -0.363862 1.192474 33.000000 22 344.838259
-0.384323 -0.343521 0.913329 31.000000 20 344.838261
-0.370524 -0.331184 0.732590 35.000000 18 344.838264
-0.362324 -0.323852 0.605118 5.000000 16 344.838266
-0.390288 -0.350684 0.505319 3.000000 13 344.838226
-0.518019 -0.465289 0.541129 35.000000 11 344.838229
-0.581149 -0.521988 0.495289 31.000000 9 344.838232
-0.974896 -0.875035 0.474753 38.000000 5 344.838237
-0.300085 -0.269255 0.129074 9.000000 1 344.838242
-0.547361 -0.490093 0.517185 32.000000 10 344.838255
-0.970898 -0.868696 0.404934 34.000000 4 344.838262
-0.312652 -0.279546 0.110594 11.000000 0 344.838268
-0.019665 -0.014115 1.204228 7.000000 31 344.838278
-0.120697 -0.102689 1.008033 7.000000 28 344.838281
-0.234222 -0.198391 1.499200 35.000000 27 344.838283
-0.292449 -0.257425 1.291973 34.000000 25 344.838286
-0.380265 -0.338355 1.258709 53.000000 23 344.838288
-0.397546 -0.353848 1.042221 18.000000 21 344.838291
-0.376749 -0.335335 0.813403 9.000000 19 344.838294
-0.372607 -0.331644 0.673649 32.000000 17 344.838296
-0.057779 -0.045391 1.107566 34.000000 30 344.838304
-0.093762 -0.076428 1.083581 7.000000 29 344.838306
-0.284689 -0.247114 1.487961 39.000000 26 344.838309
-0.337694 -0.299428 1.281540 37.000000 24 344.838312
-0.408484 -0.362438 1.192474 33.000000 22 344.838314
-0.385520 -0.342177 0.913329 27.000000 20 344.838317
-0.371678 -0.329889 0.732590 35.000000 18 344.838319
-0.516520 -0.460695 0.538388 35.000000 11 344.838285
-0.582967 -0.519956 0.495289 28.000000 9 344.838287
-0.981526 -0.874819 0.476162 38.000000 5 344.838292
-0.297305 -0.264893 0.128628 9.000000 1 344.838297
-0.545847 -0.485314 0.514653 31.000000 10 344.838310
-0.973924 -0.865302 0.404934 34.000000 4 344.838318
-0.313625 -0.278453 0.110594 11.000000 0 344.838323
-0.019753 -0.014065 1.209228 7.000000 31 344.838334
-0.121055 -0.102267 1.008033 8.000000 28 344.838336
-0.234133 -0.196918 1.494305 38.000000 27 344.838339
-0.293346 -0.256403 1.291973 31.000000 25 344.838341
-0.381444 -0.337026 1.258709 53.000000 23 344.838344
-0.398779 -0.352458 1.042221 24.000000 21 344.838346
-0.377917 -0.334018 0.813403 13.000000 19 344.838349
-0.373762 -0.330342 0.673649 32.000000 17 344.838352
-0.057937 -0.045189 1.107566 36.000000 30 344.838359
-0.094028 -0.076100 1.083581 7.000000 29 344.838362
-0.285549 -0.246119 1.487961 39.000000 26 344.838364
-0.338737 -0.298248 1.281540 37.000000 24 344.838367
-0.411444 -0.362378 1.196974 33.000000 22 344.838370
-0.386771 -0.340762 0.913329 17.000000 20 344.838372
-0.375146 -0.330517 0.736579 34.000000 18 344.838375
-0.514995 -0.456117 0.535646 33.000000 11 344.838340
-0.584779 -0.517918 0.495289 28.000000 9 344.838343
-0.984574 -0.871387 0.476162 38.000000 5 344.838348
-0.294543 -0.260502 0.128182 9.000000 1 344.838353
-0.547622 -0.483310 0.514653 31.000000 10 344.838366
-0.980735 -0.864942 0.406106 34.000000 4 344.838373
-0.310848 -0.274053 0.110392 11.000000 0 344.838379
-0.019843 -0.014012 1.214227 6.000000 31 344.838389
-0.121429 -0.101823 1.008033 7.000000 28 344.838392
-0.234853 -0.196058 1.494305 39.000000 27 344.838394
-0.294284 -0.255326 1.291973 26.000000 25 344.838397
-0.382677 -0.335626 1.258709 51.000000 23 344.838399
-0.401869 -0.352574 1.046609 28.000000 21 344.838402
-0.377024 -0.330775 0.809270 13.000000 19 344.838405
-0.374970 -0.328970 0.673649 32.000000 17 344.838407
-0.058094 -0.044987 1.107566 33.000000 30 344.838415
-0.093875 -0.075440 1.078609 8.000000 29 344.838417
-0.286407 -0.245121 1.487961 39.000000 26 344.838420
-0.339776 -0.297063 1.281540 37.000000 24 344.838423
-0.414345 -0.362373 1.201475 34.000000 22 344.838425
-0.387958 -0.339410 0.913329 8.000000 20 344.838428
-0.376298 -0.329205 0.736579 34.000000 18 344.838430
-0.388153 -0.341368 0.499043 3.000000 13 344.838393
-0.507242 -0.445943 0.527422 11.000000 11 344.838396
-0.583346 -0.512846 0.492971 29.000000 9 344.838398
-0.987609 -0.867945 0.476162 38.000000 5 344.838403
-0.295451 -0.259472 0.128182 6.000000 1 344.838408
-0.545980 -0.478650 0.512120 21.000000 10 344.838421
-0.983598 -0.861685 0.406106 34.000000 4 344.838429
-0.311803 -0.272966 0.110392 11.000000 0 344.838434
-0.019929 -0.013965 1.219227 6.000000 31 344.838445
-0.121766 -0.101420 1.008033 8.000000 28 344.838447
-0.235502 -0.195278 1.494305 39.000000 27 344.838450
-0.295129 -0.254349 1.291973 21.000000 25 344.838452
-0.383787 -0.334355 1.258709 51.000000 23 344.838455
-0.403036 -0.351240 1.046609 30.000000 21 344.838458
-0.378119 -0.329522 0.809270 11.000000 19 344.838460
-0.376059 -0.327724 0.673649 32.000000 17 344.838463
-0.058251 -0.044784 1.107566 35.000000 30 344.838470
-0.094138 -0.075111 1.078609 8.000000 29 344.838473
-0.287261 -0.244120 1.487961 38.000000 26 344.838476
-0.340811 -0.295875 1.281540 38.000000 24 344.838478
-0.417189 -0.362425 1.205976 34.000000 22 344.838481
-0.389082 -0.338121 0.913329 5.000000 20 344.838483
-0.379662 -0.329933 0.740569 34.000000 18 344.838486
-0.380488 -0.332395 0.489630 4.000000 13 344.838449
-0.585043 -0.510909 0.492971 29.000000 9 344.838454
-0.994248 -0.867646 0.477571 38.000000 5 344.838459
-0.292557 -0.255217 0.127736 5.000000 1 344.838464
-0.550899 -0.479572 0.514653 12.000000 10 344.838477
-0.990267 -0.861436 0.407279 35.000000 4 344.838484
-0.308983 -0.268598 0.110191 10.000000 0 344.838490
-0.019980 -0.013892 1.219227 6.000000 31 344.838500
-0.122737 -0.101466 1.012972 7.000000 28 344.838503
-0.236216 -0.194414 1.494305 39.000000 27 344.838505
-0.297194 -0.254236 1.296744 21.000000 25 344.838508
-0.385010 -0.332946 1.258709 53.000000 23 344.838510
-0.404321 -0.349760 1.046609 31.000000 21 344.838513
-0.379324 -0.328134 0.809270 10.000000 19 344.838515
-0.377258 -0.326344 0.673649 32.000000 17 344.838518
-0.058415 -0.044570 1.107566 35.000000 30 344.838526
-0.094412 -0.074766 1.078609 8.000000 29 344.838528
-0.289115 -0.243876 1.492800 35.000000 26 344.838531
-0.341893 -0.294624 1.281540 40.000000 24 344.838533
-0.420164 -0.362316 1.210477 34.000000 22 344.838536
-0.392293 -0.338396 0.917595 5.000000 20 344.838538
-0.380869 -0.328539 0.740569 34.000000 18 344.838541
-0.405232 -0.351401 0.514732 5.000000 13 344.838504
-0.586912 -0.508761 0.492971 28.000000 9 344.838509
-0.997421 -0.863997 0.477571 38.000000 5 344.838514
-0.293490 -0.254143 0.127736 5.000000 1 344.838519
-0.344510 -0.297803 0.486602 3.000000 14 344.838527
-0.430077 -0.371764 0.497483 4.000000 12 344.838530
-0.993417 -0.857801 0.407279 35.000000 4 344.838540
-0.292307 -0.252316 0.146006 5.000000 2 344.838542
-0.309966 -0.267464 0.110191 9.000000 0 344.838545
-0.020029 -0.013822 1.219227 6.000000 31 344.838556
-0.123090 -0.101037 1.012972 7.000000 28 344.838558
-0.236893 -0.193588 1.494305 39.000000 27 344.838561
-0.298080 -0.253197 1.296744 21.000000 25 344.838563
-0.386170 -0.331600 1.258709 49.000000 23 344.838566
-0.407356 -0.349908 1.050998 31.000000 21 344.838568
-0.382602 -0.328642 0.813403 10.000000 19 344.838571
-0.378395 -0.325025 0.673649 26.000000 17 344.838573
-0.058570 -0.044366 1.107566 37.000000 30 344.838581
-0.095094 -0.074763 1.083581 9.000000 29 344.838584
-0.287071 -0.240444 1.478283 26.000000 26 344.838586
-0.342919 -0.293429 1.281540 44.000000 24 344.838589
-0.423080 -0.362263 1.214978 35.000000 22 344.838591
-0.395453 -0.338722 0.921861 6.000000 20 344.838594
-0.382014 -0.327208 0.740569 35.000000 18 344.838597
-0.418256 -0.360145 0.527283 6.000000 13 344.838559
-0.605473 -0.521160 0.504561 11.000000 9 344.838564
-1.004068 -0.863638 0.478980 37.000000 5 344.838570
-0.294376 -0.253117 0.127736 6.000000 1 344.838575
-0.354049 -0.303896 0.496577 4.000000 14 344.838582
-0.455910 -0.391321 0.521028 6.000000 12 344.838585
-1.000095 -0.857492 0.408451 35.000000 4 344.838595
-0.289426 -0.248072 0.145316 7.000000 2 344.838598
-0.307103 -0.263130 0.109989 6.000000 0 344.838600
-0.020077 -0.013752 1.219227 6.000000 31 344.838611
-0.124045 -0.101097 1.017911 8.000000 28 344.838614
-0.237567 -0.192760 1.494305 38.000000 27 344.838616
-0.298962 -0.252155 1.296744 28.000000 25 344.838619
-0.387325 -0.330250 1.258709 49.000000 23 344.838621
-0.408575 -0.348484 1.050998 31.000000 21 344.838624
-0.385888 -0.329130 0.817536 13.000000 19 344.838626
-0.389284 -0.332024 0.688996 14.000000 17 344.838629
-0.058725 -0.044161 1.107566 37.000000 30 344.838637
-0.095355 -0.074431 1.083581 9.000000 29 344.838639
-0.274364 -0.228187 1.410534 7.000000 26 344.838642
-0.343941 -0.292230 1.281540 44.000000 24 344.838644
-0.424342 -0.360784 1.214978 35.000000 22 344.838647
-0.398619 -0.339029 0.926127 9.000000 20 344.838650
-0.383153 -0.325872 0.740569 35.000000 18 344.838652
-0.425428 -0.363742 0.533559 30.000000 13 344.838615
-0.988837 -0.844550 0.471934 8.000000 5 344.838625
-0.295258 -0.252088 0.127736 9.000000 1 344.838630
-0.369318 -0.314769 0.513201 4.000000 14 344.838638
-0.466502 -0.397593 0.529858 11.000000 12 344.838641
-1.003083 -0.853996 0.408451 35.000000 4 344.838651
-0.290291 -0.247060 0.145316 9.000000 2 344.838653
-0.308020 -0.262056 0.109989 5.000000 0 344.838656
-0.020125 -0.013682 1.219227 6.000000 31 344.838667
-0.125003 -0.101150 1.022851 8.000000 28 344.838669
-0.238239 -0.191930 1.494305 38.000000 27 344.838672
-0.299840 -0.251110 1.296744 34.000000 25 344.838674
-0.388476 -0.328896 1.258709 51.000000 23 344.838677
-0.411617 -0.348603 1.055387 31.000000 21 344.838679
-0.389181 -0.329600 0.821669 19.000000 19 344.838682
-0.383101 -0.324447 0.677486 5.000000 17 344.838684
-0.058878 -0.043956 1.107566 36.000000 30 344.838692
-0.096038 -0.074422 1.088552 10.000000 29 344.838695
-0.268367 -0.221625 1.376659 4.000000 26 344.838697
-0.344959 -0.291028 1.281540 45.000000 24 344.838700
-0.427263 -0.360705 1.219478 34.000000 22 344.838702
-0.401793 -0.339318 0.930393 15.000000 20 344.838705
-0.386591 -0.326477 0.744558 35.000000 18 344.838708
-0.432631 -0.367294 0.539834 32.000000 13 344.838670
-0.296136 -0.251056 0.127736 8.000000 1 344.838686
-0.373265 -0.315891 0.516526 5.000000 14 344.838694
-0.495656 -0.419462 0.556346 15.000000 12 344.838696
-1.009770 -0.853627 0.409623 35.000000 4 344.838706
-0.294934 -0.249242 0.146006 11.000000 2 344.838709
-0.308933 -0.260980 0.109989 5.000000 0 344.838711
-0.020133 -0.013593 1.214227 6.000000 31 344.838722
-0.125355 -0.100713 1.022851 8.000000 28 344.838725
-0.238907 -0.191097 1.494305 39.000000 27 344.838727
-0.299566 -0.249107 1.291973 36.000000 25 344.838730
-0.391117 -0.328795 1.263311 51.000000 23 344.838732
-0.412832 -0.347165 1.055387 32.000000 21 344.838735
-0.392483 -0.330050 0.825802 26.000000 19 344.838737
-0.059024 -0.043760 1.107566 35.000000 30 344.838748
-0.096709 -0.074426 1.093524 10.000000 29 344.838750
-0.257425 -0.211168 1.318589 4.000000 26 344.838753
-0.345923 -0.289882 1.281540 44.000000 24 344.838755
-0.428519 -0.359212 1.219478 35.000000 22 344.838758
-0.404973 -0.339589 0.934659 22.000000 20 344.838761
-0.387729 -0.325126 0.744558 35.000000 18 344.838763
-0.436887 -0.368291 0.542972 36.000000 13 344.838726
-0.297010 -0.250021 0.127736 7.000000 1 344.838741
-0.388661 -0.326598 0.533150 10.000000 14 344.838749
-0.490928 -0.412528 0.550460 16.000000 12 344.838752
-1.020039 -0.856525 0.411968 35.000000 4 344.838762
-0.288172 -0.241894 0.144627 13.000000 2 344.838764
-0.305970 -0.256742 0.109788 8.000000 0 344.838767
-0.020178 -0.013526 1.214227 6.000000 31 344.838778
-0.125688 -0.100297 1.022851 10.000000 28 344.838780
-0.239540 -0.190304 1.494305 39.000000 27 344.838783
-0.300391 -0.248112 1.291973 38.000000 25 344.838785
-0.392205 -0.327496 1.263311 51.000000 23 344.838788
-0.413981 -0.345794 1.055387 32.000000 21 344.838790
-0.395736 -0.330551 0.829935 31.000000 19 344.838793
-0.059176 -0.043554 1.107566 37.000000 30 344.838803
-0.097395 -0.074410 1.098495 12.000000 29 344.838806
-0.258161 -0.210268 1.318589 4.000000 26 344.838808
-0.346932 -0.288673 1.281540 44.000000 24 344.838811
-0.431382 -0.359182 1.223979 35.000000 22 344.838814
-0.406097 -0.338244 0.934659 29.000000 20 344.838816
-0.388805 -0.323838 0.744558 35.000000 18 344.838819
-0.441090 -0.369339 0.546110 36.000000 13 344.838781
-0.297838 -0.249034 0.127736 9.000000 1 344.838797
-0.398342 -0.332486 0.543125 33.000000 14 344.838805
-0.489190 -0.408308 0.547517 34.000000 12 344.838807
-0.554201 -0.462405 0.509588 6.000000 10 344.838810
-1.026756 -0.856072 0.413140 36.000000 4 344.838817
-0.289015 -0.240887 0.144627 15.000000 2 344.838820
-0.306864 -0.255673 0.109788 15.000000 0 344.838822
-0.020264 -0.013474 1.219227 6.000000 31 344.838833
-0.126038 -0.099858 1.022851 13.000000 28 344.838836
-0.240202 -0.189466 1.494305 38.000000 27 344.838838
-0.300100 -0.246115 1.287201 39.000000 25 344.838841
-0.393346 -0.326125 1.263311 45.000000 23 344.838843
-0.417029 -0.345876 1.059775 32.000000 21 344.838846
-0.399053 -0.330964 0.834068 32.000000 19 344.838848
-0.059328 -0.043347 1.107566 37.000000 30 344.838859
-0.097654 -0.074070 1.098495 12.000000 29 344.838861
-0.257914 -0.208575 1.313750 5.000000 26 344.838864
-0.347938 -0.287460 1.281540 47.000000 24 344.838866
-0.432633 -0.357674 1.223979 34.000000 22 344.838869
-0.409285 -0.338487 0.938925 31.000000 20 344.838872
-0.392255 -0.324400 0.748548 35.000000 18 344.838874
-0.312973 -0.260214 0.479770 3.000000 15 344.838834
-0.442377 -0.367797 0.546110 35.000000 13 344.838837
-0.464752 -0.386262 0.480817 3.000000 11 344.838840
-0.298705 -0.247993 0.127736 9.000000 1 344.838852
-0.408126 -0.338242 0.553099 34.000000 14 344.838860
-0.487500 -0.404019 0.544574 36.000000 12 344.838863
-0.565772 -0.468719 0.517185 5.000000 10 344.838865
-1.037227 -0.858682 0.415485 36.000000 4 344.838873
-0.286039 -0.236719 0.143937 15.000000 2 344.838875
-0.307755 -0.254600 0.109788 10.000000 0 344.838878
-0.020311 -0.013403 1.219227 6.000000 31 344.838889
-0.126386 -0.099417 1.022851 16.000000 28 344.838891
-0.240862 -0.188627 1.494305 38.000000 27 344.838894
-0.300957 -0.245066 1.287201 39.000000 25 344.838896
-0.394482 -0.324750 1.263311 45.000000 23 344.838899
-0.418234 -0.344418 1.059775 32.000000 21 344.838901
-0.400206 -0.329569 0.834068 32.000000 19 344.838904
-0.059479 -0.043140 1.107566 37.000000 30 344.838914
-0.097912 -0.073728 1.098495 13.000000 29 344.838917
-0.257660 -0.206887 1.308910 6.000000 26 344.838919
-0.348939 -0.286244 1.281540 45.000000 24 344.838922
-0.435562 -0.357543 1.228480 34.000000 22 344.838925
-0.410464 -0.337056 0.938925 32.000000 20 344.838927
-0.393385 -0.323029 0.748548 34.000000 18 344.838930
-0.327630 -0.270472 0.497293 4.000000 15 344.838890
-0.443658 -0.366251 0.546110 34.000000 13 344.838892
-0.459647 -0.379315 0.475334 4.000000 11 344.838895
-0.295726 -0.243781 0.127290 7.000000 1 344.838908
-0.412188 -0.339188 0.556424 34.000000 14 344.838916
-0.485786 -0.399746 0.541630 36.000000 12 344.838918
-0.544097 -0.447570 0.499458 3.000000 10 344.838921
-1.051482 -0.864315 0.419002 36.000000 4 344.838928
-0.286864 -0.235720 0.143937 9.000000 2 344.838931
-0.308641 -0.253524 0.109788 9.000000 0 344.838934
-0.020398 -0.013350 1.224227 6.000000 31 344.838944
-0.126118 -0.098499 1.017911 15.000000 28 344.838947
-0.241519 -0.187785 1.494305 39.000000 27 344.838949
-0.301811 -0.244014 1.287201 39.000000 25 344.838952
-0.395613 -0.323371 1.263311 51.000000 23 344.838954
-0.421289 -0.344472 1.064164 31.000000 21 344.838957
-0.401354 -0.328170 0.834068 32.000000 19 344.838960
-0.059867 -0.043097 1.112558 37.000000 30 344.838970
-0.098169 -0.073386 1.098495 13.000000 29 344.838972
-0.258380 -0.205986 1.308910 8.000000 26 344.838975
-0.349936 -0.285024 1.281540 45.000000 24 344.838978
-0.436807 -0.356021 1.228480 35.000000 22 344.838980
-0.411638 -0.335621 0.938925 32.000000 20 344.838983
-0.394510 -0.321653 0.748548 35.000000 18 344.838985
-0.339605 -0.278370 0.511311 5.000000 15 344.838945
-0.444934 -0.364700 0.546110 34.000000 13 344.838948
-0.470671 -0.385658 0.483558 5.000000 11 344.838951
-0.924503 -0.756970 0.440932 6.000000 5 344.838958
-0.288868 -0.236439 0.126397 7.000000 1 344.838963
-0.413370 -0.337747 0.556424 33.000000 14 344.838971
-0.484049 -0.395491 0.538687 35.000000 12 344.838974
-1.054493 -0.860640 0.419002 36.000000 4 344.838984
-0.283847 -0.231586 0.143247 6.000000 2 344.838986
-0.305653 -0.249288 0.109586 10.000000 0 344.838989
-0.020484 -0.013296 1.229227 6.000000 31 344.839000
-0.126461 -0.098058 1.017911 13.000000 28 344.839002
-0.242173 -0.186941 1.494305 38.000000 27 344.839005
-0.302661 -0.242959 1.287201 39.000000 25 344.839007
-0.396739 -0.321988 1.263311 51.000000 23 344.839010
-0.424349 -0.344510 1.068553 31.000000 21 344.839012
-0.402497 -0.326767 0.834068 33.000000 19 344.839015
-0.060017 -0.042888 1.112558 37.000000 30 344.839025
-0.098424 -0.073043 1.098495 11.000000 29 344.839028
-0.258111 -0.204303 1.304071 10.000000 26 344.839030
-0.350929 -0.283801 1.281540 47.000000 24 344.839033
-0.438047 -0.354494 1.228480 35.000000 22 344.839036
-0.414835 -0.335823 0.943191 33.000000 20 344.839038
-0.395631 -0.320274 0.748548 34.000000 18 344.839041
-0.343341 -0.279433 0.514816 7.000000 15 344.839001
-0.443185 -0.360687 0.542972 34.000000 13 344.839004
-0.465527 -0.378735 0.478075 4.000000 11 344.839006
-0.938307 -0.762817 0.445160 5.000000 5 344.839014
-0.281962 -0.229148 0.125505 9.000000 1 344.839019
-0.414546 -0.336302 0.556424 33.000000 14 344.839027
-0.485426 -0.393799 0.538687 35.000000 12 344.839029
-1.049938 -0.850833 0.416657 29.000000 4 344.839039
-0.306521 -0.248219 0.109586 9.000000 0 344.839045
-0.020531 -0.013224 1.229227 6.000000 31 344.839055
-0.126803 -0.097616 1.017911 11.000000 28 344.839058
-0.242824 -0.186094 1.494305 38.000000 27 344.839060
-0.303507 -0.241901 1.287201 40.000000 25 344.839063
-0.396340 -0.319376 1.258709 53.000000 23 344.839065
-0.427414 -0.344530 1.072941 32.000000 21 344.839068
-0.405826 -0.327126 0.838201 32.000000 19 344.839071
-0.060166 -0.042678 1.112558 37.000000 30 344.839081
-0.098679 -0.072699 1.098495 9.000000 29 344.839083
-0.258823 -0.203400 1.304071 13.000000 26 344.839086
-0.351918 -0.282574 1.281540 45.000000 24 344.839089
-0.440980 -0.354327 1.232981 35.000000 22 344.839091
-0.416004 -0.334373 0.943191 33.000000 20 344.839094
-0.399096 -0.320780 0.752537 34.000000 18 344.839096
-0.349862 -0.282716 0.521825 21.000000 15 344.839056
-0.444441 -0.359138 0.542972 34.000000 13 344.839059
-0.473352 -0.382363 0.483558 4.000000 11 344.839062
-0.940964 -0.759537 0.445160 5.000000 5 344.839069
-0.282760 -0.228162 0.125505 8.000000 1 344.839074
-0.412809 -0.332511 0.553099 33.000000 14 344.839082
-0.486798 -0.392102 0.538687 33.000000 12 344.839085
-0.307386 -0.247148 0.109586 9.000000 0 344.839100
-0.020617 -0.013170 1.234227 6.000000 31 344.839111
-0.127761 -0.097643 1.022851 8.000000 28 344.839113
-0.243472 -0.185245 1.494305 37.000000 27 344.839116
-0.304349 -0.240840 1.287201 40.000000 25 344.839118
-0.397452 -0.317990 1.258709 53.000000 23 344.839121
-0.428614 -0.343036 1.072941 32.000000 21 344.839124
-0.406965 -0.325707 0.838201 32.000000 19 344.839126
-0.060075 -0.042305 1.107566 37.000000 30 344.839136
-0.098932 -0.072354 1.098495 8.000000 29 344.839139
-0.258539 -0.201723 1.299232 17.000000 26 344.839142
-0.351552 -0.280269 1.276847 45.000000 24 344.839144
-0.442214 -0.352785 1.232981 35.000000 22 344.839147
-0.419207 -0.334546 0.947457 33.000000 20 344.839149
-0.400213 -0.319385 0.752537 34.000000 18 344.839152
-0.353628 -0.283725 0.525329 23.000000 15 344.839112
-0.445692 -0.357584 0.542972 33.000000 13 344.839115
-0.474684 -0.380708 0.483558 4.000000 11 344.839117
-0.951096 -0.762248 0.447978 7.000000 5 344.839125
-0.283555 -0.227174 0.125505 6.000000 1 344.839130
-0.408135 -0.326403 0.546449 33.000000 14 344.839138
-0.488164 -0.390400 0.538687 25.000000 12 344.839140
-0.308247 -0.246073 0.109586 8.000000 0 344.839156
-0.020662 -0.013098 1.234227 6.000000 31 344.839166
-0.128101 -0.097196 1.022851 8.000000 28 344.839169
-0.244118 -0.184394 1.494305 37.000000 27 344.839171
-0.305188 -0.239776 1.287201 40.000000 25 344.839174
-0.398560 -0.316601 1.258709 51.000000 23 344.839176
-0.431684 -0.343028 1.077330 33.000000 21 344.839179
-0.408100 -0.324285 0.838201 33.000000 19 344.839181
-0.060223 -0.042095 1.107566 39.000000 30 344.839192
-0.099184 -0.072008 1.098495 8.000000 29 344.839194
-0.258247 -0.200049 1.294393 22.000000 26 344.839197
-0.352529 -0.279040 1.276847 45.000000 24 344.839199
-0.445150 -0.352592 1.237482 35.000000 22 344.839202
-0.420373 -0.333080 0.947457 33.000000 20 344.839204
-0.403688 -0.319857 0.756527 34.000000 18 344.839207
-0.357406 -0.284711 0.528834 26.000000 15 344.839167
-0.443893 -0.353601 0.539834 33.000000 13 344.839170
-0.482552 -0.384259 0.489041 3.000000 11 344.839172
-0.998798 -0.794768 0.464888 9.000000 5 344.839180
-0.276551 -0.219982 0.124612 5.000000 1 344.839185
-0.406347 -0.322654 0.543125 32.000000 14 344.839193
-0.495854 -0.393721 0.544574 13.000000 12 344.839196
-0.305188 -0.241893 0.109385 12.000000 0 344.839211
-0.020708 -0.013026 1.234227 6.000000 31 344.839222
-0.128440 -0.096749 1.022851 7.000000 28 344.839224
-0.244760 -0.183541 1.494305 37.000000 27 344.839227
-0.306023 -0.238710 1.287201 40.000000 25 344.839229
-0.399662 -0.315208 1.258709 53.000000 23 344.839232
-0.432879 -0.341519 1.077330 33.000000 21 344.839234
-0.411439 -0.324601 0.842334 33.000000 19 344.839237
-0.060369 -0.041885 1.107566 37.000000 30 344.839247
-0.099434 -0.071662 1.098495 7.000000 29 344.839250
-0.257946 -0.198380 1.289554 28.000000 26 344.839252
-0.353500 -0.277807 1.276847 45.000000 24 344.839255
-0.446378 -0.351036 1.237482 35.000000 22 344.839257
-0.423583 -0.333223 0.951723 33.000000 20 344.839260
-0.404802 -0.318446 0.756527 34.000000 18 344.839263
-0.361194 -0.285674 0.532338 29.000000 15 344.839223
-0.445124 -0.352049 0.539834 33.000000 13 344.839225
-0.483891 -0.382572 0.489041 4.000000 11 344.839228
-1.024152 -0.809120 0.473344 40.000000 5 344.839236
-0.404538 -0.318922 0.539800 32.000000 14 344.839248
-0.490877 -0.386983 0.538687 5.000000 12 344.839251
-0.309957 -0.243915 0.109586 8.000000 0 344.839266
-0.020753 -0.012953 1.234227 6.000000 31 344.839277
-0.129400 -0.096763 1.027790 7.000000 28 344.839280
-0.245399 -0.182686 1.494305 36.000000 27 344.839282
-0.306855 -0.237640 1.287201 38.000000 25 344.839285
-0.400760 -0.313811 1.258709 53.000000 23 344.839287
-0.435955 -0.341483 1.081719 33.000000 21 344.839290
-0.412569 -0.323163 0.842334 33.000000 19 344.839292
-0.060508 -0.041684 1.107566 38.000000 30 344.839303
-0.099672 -0.071331 1.098495 7.000000 29 344.839305
-0.258602 -0.197524 1.289554 32.000000 26 344.839308
-0.354420 -0.276634 1.276847 45.000000 24 344.839310
-0.449317 -0.350815 1.241983 36.000000 22 344.839313
-0.424743 -0.331743 0.951723 33.000000 20 344.839316
-0.408286 -0.318886 0.760516 34.000000 18 344.839318
-0.362189 -0.284411 0.532338 30.000000 15 344.839278
-0.446350 -0.350493 0.539834 32.000000 13 344.839281
-0.491801 -0.386044 0.494524 4.000000 11 344.839283
-1.057023 -0.829411 0.484617 40.000000 5 344.839291
-0.402708 -0.315206 0.536475 32.000000 14 344.839304
-0.302892 -0.236733 0.109183 6.000000 0 344.839322
-0.020796 -0.012885 1.234227 6.000000 31 344.839333
-0.129720 -0.096334 1.027790 7.000000 28 344.839335
-0.246003 -0.181871 1.494305 36.000000 27 344.839338
-0.308825 -0.237531 1.291973 38.000000 25 344.839340
-0.401799 -0.312480 1.258709 51.000000 23 344.839343
-0.437085 -0.340036 1.081719 33.000000 21 344.839345
-0.413639 -0.321793 0.842334 33.000000 19 344.839348
-0.060653 -0.041473 1.107566 39.000000 30 344.839358
-0.099483 -0.070676 1.093524 7.000000 29 344.839361
-0.259290 -0.196620 1.289554 33.000000 26 344.839363
-0.355383 -0.275395 1.276847 45.000000 24 344.839366
-0.452260 -0.350579 1.246483 37.000000 22 344.839368
-0.425899 -0.330258 0.951723 33.000000 20 344.839371
-0.409397 -0.317459 0.760516 34.000000 18 344.839374
-0.363131 -0.283208 0.532338 28.000000 15 344.839334
-0.444441 -0.346617 0.536697 32.000000 13 344.839336
-0.489781 -0.381840 0.491783 3.000000 11 344.839339
-1.071265 -0.834561 0.488845 40.000000 5 344.839347
-0.403806 -0.313798 0.536475 31.000000 14 344.839360
-0.983055 -0.763088 0.390866 4.000000 4 344.839372
-0.280034 -0.217298 0.107974 5.000000 0 344.839377
-0.020843 -0.012808 1.234227 6.000000 31 344.839388
-0.130699 -0.096317 1.032729 6.000000 28 344.839391
-0.246668 -0.180968 1.494305 36.000000 27 344.839393
-0.309694 -0.236398 1.291973 38.000000 25 344.839396
-0.402941 -0.311005 1.258709 51.000000 23 344.839398
-0.440224 -0.339895 1.086107 33.000000 21 344.839401
-0.417043 -0.321995 0.846467 33.000000 19 344.839403
-0.060805 -0.041250 1.107566 37.000000 30 344.839414
-0.099741 -0.070311 1.093524 7.000000 29 344.839416
-0.260009 -0.195668 1.289554 35.000000 26 344.839419
