# .PCD v.7 - Point Cloud Data file format
VERSION .7
FIELDS x y z intensity ring timestamp
SIZE 4 4 4 4 2 8
TYPE F F F F U D
COUNT 1 1 1 1 1 1
WIDTH 925
HEIGHT 1
VIEWPOINT 0 0 0 1 0 0 0
POINTS 925
DATA ascii
3.628832 -3.119081 2.021621 11.000000 7 344.012312
3.412280 -2.933985 1.411868 12.000000 5 344.012315
3.192070 -2.744641 0.890728 12.000000 3 344.012317
3.035382 -2.610837 0.451684 14.000000 1 344.012320
2.831691 -2.439930 3.409144 75.000000 14 344.012327
2.920140 -2.516147 2.890272 20.000000 12 344.012330
3.384480 -2.917277 2.710266 63.000000 10 344.012333
3.727321 -3.212795 2.362265 11.000000 8 344.012335
3.498236 -3.016397 1.695888 11.000000 6 344.012338
3.272147 -2.822445 1.132943 14.000000 4 344.012340
3.108114 -2.681902 0.664058 14.000000 2 344.012343
2.949688 -2.546099 0.250860 20.000000 0 344.012345
0.031664 -0.040316 4.324109 99.000000 31 344.012356
0.449863 -0.409533 3.867863 99.000000 28 344.012359
0.584753 -0.533594 3.829328 88.000000 27 344.012361
0.844208 -0.740471 3.634888 10.000000 25 344.012364
1.084035 -0.940319 3.440305 5.000000 23 344.012366
2.289954 -1.985700 5.619595 41.000000 21 344.012369
2.777096 -2.408125 5.471236 92.000000 19 344.012371
2.372681 -2.057443 3.835291 31.000000 17 344.012374
0.181925 -0.182421 4.282229 99.000000 30 344.012382
0.308058 -0.293998 3.922256 97.000000 29 344.012384
0.769359 -0.684501 3.999508 18.000000 26 344.012387
0.969096 -0.843580 3.548146 10.000000 24 344.012389
1.443867 -1.255996 4.018998 12.000000 22 344.012392
2.528201 -2.198489 5.550400 96.000000 20 344.012395
2.158073 -1.876632 3.860356 34.000000 18 344.012397
2.571874 -2.236474 3.773110 33.000000 16 344.012400
2.802741 -2.424377 3.721475 27.000000 15 344.012357
3.034847 -2.625154 3.316767 37.000000 13 344.012360
3.116208 -2.696483 2.786390 61.000000 11 344.012362
3.709659 -3.210006 2.653372 14.000000 9 344.012365
3.575861 -3.095320 1.999144 10.000000 7 344.012368
3.369379 -2.917615 1.399185 12.000000 5 344.012370
3.145334 -2.723610 0.881401 12.000000 3 344.012373
2.992372 -2.592071 0.447668 14.000000 1 344.012375
2.825977 -2.452248 3.412469 72.000000 14 344.012383
2.893022 -2.510430 2.872613 39.000000 12 344.012386
3.374276 -2.929073 2.710266 63.000000 10 344.012388
3.671528 -3.187110 2.334990 11.000000 8 344.012391
3.448462 -2.994530 1.677818 11.000000 6 344.012393
3.229250 -2.805162 1.122392 14.000000 4 344.012396
3.053876 -2.653755 0.655780 14.000000 2 344.012398
2.906848 -2.526881 0.249046 20.000000 0 344.012401
0.031523 -0.040426 4.324109 99.000000 31 344.012412
0.447858 -0.410575 3.862924 99.000000 28 344.012414
0.582887 -0.535632 3.829328 87.000000 27 344.012417
0.843856 -0.745391 3.644432 9.000000 25 344.012419
1.073390 -0.937671 3.417292 6.000000 23 344.012422
2.283009 -1.993681 5.619595 86.000000 21 344.012424
2.768673 -2.417805 5.471236 92.000000 19 344.012427
2.365485 -2.065712 3.835291 32.000000 17 344.012429
0.181287 -0.183055 4.282229 100.000000 30 344.012437
0.307030 -0.295071 3.922256 97.000000 29 344.012440
0.766965 -0.687182 3.999508 18.000000 26 344.012442
0.966145 -0.846958 3.548146 9.000000 24 344.012445
1.444388 -1.265333 4.032500 14.000000 22 344.012447
2.520511 -2.207301 5.550400 96.000000 20 344.012450
2.153777 -1.886140 3.864346 34.000000 18 344.012453
2.561501 -2.243204 3.769435 33.000000 16 344.012455
2.794261 -2.434146 3.721475 27.000000 15 344.012413
2.964024 -2.582034 3.250874 14.000000 13 344.012415
3.106777 -2.707344 2.786390 61.000000 11 344.012418
3.711791 -3.234578 2.662644 6.000000 9 344.012421
3.526595 -3.074274 1.978541 9.000000 7 344.012423
3.323017 -2.897828 1.385093 12.000000 5 344.012426
3.106190 -2.708745 0.873940 13.000000 3 344.012428
2.949531 -2.573036 0.443652 14.000000 1 344.012431
2.820212 -2.464555 3.415793 62.000000 14 344.012439
2.878154 -2.515193 2.866727 61.000000 12 344.012441
3.360785 -2.937996 2.707734 63.000000 10 344.012444
3.622794 -3.167048 2.311911 10.000000 8 344.012446
3.402440 -2.975462 1.661391 12.000000 6 344.012449
3.179197 -2.781213 1.109497 14.000000 4 344.012451
2.996148 -2.622002 0.646812 14.000000 2 344.012454
2.867938 -2.510686 0.247433 21.000000 0 344.012456
0.031382 -0.040536 4.324109 99.000000 31 344.012467
0.446422 -0.412136 3.862924 99.000000 28 344.012470
0.581014 -0.537663 3.829328 89.000000 27 344.012472
0.842365 -0.749325 3.649204 8.000000 25 344.012475
1.073044 -0.943993 3.426497 6.000000 23 344.012477
2.276036 -2.001638 5.619595 90.000000 21 344.012480
2.760216 -2.427454 5.471236 92.000000 19 344.012482
2.358260 -2.073957 3.835291 32.000000 17 344.012485
0.180445 -0.183480 4.277238 100.000000 30 344.012493
0.305998 -0.296141 3.922256 97.000000 29 344.012495
0.764562 -0.689855 3.999508 18.000000 26 344.012498
0.963183 -0.850325 3.548146 9.000000 24 344.012500
1.451394 -1.280452 4.064005 31.000000 22 344.012503
2.512791 -2.216086 5.550400 96.000000 20 344.012506
2.147180 -1.893646 3.864346 33.000000 18 344.012508
2.553656 -2.252132 3.769435 33.000000 16 344.012511
2.785747 -2.443885 3.721475 27.000000 15 344.012468
2.925729 -2.566693 3.219496 10.000000 13 344.012471
3.097308 -2.718173 2.786390 61.000000 11 344.012473
3.703808 -3.250437 2.664962 6.000000 9 344.012476
3.477520 -3.052922 1.957938 10.000000 7 344.012479
3.276835 -2.877754 1.371001 13.000000 5 344.012481
3.059806 -2.687156 0.864614 13.000000 3 344.012484
2.906859 -2.553735 0.439636 14.000000 1 344.012486
2.814395 -2.476851 3.419118 58.000000 14 344.012494
2.863288 -2.519884 2.860841 65.000000 12 344.012497
3.350509 -2.949709 2.707734 63.000000 10 344.012499
3.574245 -3.146686 2.288833 9.000000 8 344.012502
3.356593 -2.956109 1.644964 12.000000 6 344.012504
3.132998 -2.760162 1.097774 14.000000 4 344.012507
2.968401 -2.616073 0.643363 13.000000 2 344.012509
2.829176 -2.494251 0.245821 20.000000 0 344.012512
0.031240 -0.040645 4.324109 99.000000 31 344.012523
0.444981 -0.413692 3.862924 99.000000 28 344.012525
0.579134 -0.539688 3.829328 90.000000 27 344.012528
0.839744 -0.752260 3.649204 8.000000 25 344.012530
1.069742 -0.947733 3.426497 5.000000 23 344.012533
2.269035 -2.009571 5.619595 91.000000 21 344.012535
2.751726 -2.437074 5.471236 92.000000 19 344.012538
2.348606 -2.080050 3.831454 32.000000 17 344.012541
0.179803 -0.184108 4.277238 100.000000 30 344.012548
0.304581 -0.296834 3.917285 96.000000 29 344.012551
0.762149 -0.692520 3.999508 19.000000 26 344.012553
0.958919 -0.852535 3.543453 7.000000 24 344.012556
1.432263 -1.272493 4.023498 50.000000 22 344.012559
2.503090 -2.223112 5.546134 96.000000 20 344.012561
2.140557 -1.901130 3.864346 32.000000 18 344.012564
2.543244 -2.258781 3.765759 32.000000 16 344.012566
2.777200 -2.453594 3.721475 27.000000 15 344.012524
2.872991 -2.538228 3.172430 10.000000 13 344.012526
3.084667 -2.726198 2.783648 61.000000 11 344.012529
3.659243 -3.234007 2.641781 9.000000 9 344.012532
3.428637 -3.031265 1.937334 11.000000 7 344.012534
3.230835 -2.857393 1.356909 13.000000 5 344.012537
3.013611 -2.665277 0.855288 13.000000 3 344.012539
2.868089 -2.537467 0.436067 13.000000 1 344.012542
2.808527 -2.489137 3.422443 55.000000 14 344.012550
2.854475 -2.529863 2.860841 65.000000 12 344.012552
3.340192 -2.961387 2.707734 60.000000 10 344.012555
3.525883 -3.126023 2.265754 10.000000 8 344.012557
3.307389 -2.933339 1.626895 13.000000 6 344.012560
3.086985 -2.738824 1.086051 14.000000 4 344.012562
2.925917 -2.596834 0.637155 14.000000 2 344.012565
2.794301 -2.480893 0.244411 19.000000 0 344.012567
0.031122 -0.040791 4.329109 98.000000 31 344.012578
0.443534 -0.415243 3.862924 99.000000 28 344.012581
0.577246 -0.541706 3.829328 90.000000 27 344.012583
0.843767 -0.761190 3.677834 9.000000 25 344.012586
1.067885 -0.952762 3.431100 4.000000 23 344.012588
2.262006 -2.017479 5.619595 91.000000 21 344.012591
2.743203 -2.446665 5.471236 92.000000 19 344.012593
2.341331 -2.088236 3.831454 32.000000 17 344.012596
0.179159 -0.184735 4.277238 99.000000 30 344.012604
0.303543 -0.297895 3.917285 96.000000 29 344.012606
0.760655 -0.696025 4.004348 19.000000 26 344.012609
0.955938 -0.855877 3.543453 6.000000 24 344.012611
1.424567 -1.274581 4.014497 82.000000 22 344.012614
2.495315 -2.231836 5.546134 95.000000 20 344.012617
2.136154 -1.910599 3.868335 29.000000 18 344.012619
2.535343 -2.267645 3.765759 32.000000 16 344.012622
2.765954 -2.460903 3.717971 27.000000 15 344.012579
2.826305 -2.514601 3.131638 12.000000 13 344.012582
3.075132 -2.736949 2.783648 61.000000 11 344.012585
3.624767 -3.226143 2.625555 9.000000 9 344.012587
3.379948 -3.009305 1.916731 11.000000 7 344.012590
3.181435 -2.833555 1.341408 13.000000 5 344.012592
2.967607 -2.643109 0.845962 13.000000 3 344.012595
2.829467 -2.520960 0.432497 14.000000 1 344.012597
2.802607 -2.501412 3.425768 54.000000 14 344.012605
2.842611 -2.537120 2.857898 65.000000 12 344.012608
3.329834 -2.973028 2.707734 60.000000 10 344.012610
3.470939 -3.099017 2.238480 11.000000 8 344.012613
3.258387 -2.910262 1.608826 13.000000 6 344.012615
3.041160 -2.717198 1.074327 14.000000 4 344.012618
2.887295 -2.580630 0.631637 14.000000 2 344.012620
2.755829 -2.463992 0.242798 19.000000 0 344.012623
0.030979 -0.040899 4.329109 98.000000 31 344.012634
0.442082 -0.416788 3.862924 99.000000 28 344.012636
0.575352 -0.543718 3.829328 89.000000 27 344.012639
0.832261 -0.756096 3.639660 8.000000 25 344.012641
1.070366 -0.961706 3.449510 4.000000 23 344.012644
2.254950 -2.025362 5.619595 91.000000 21 344.012646
2.734645 -2.456226 5.471236 92.000000 19 344.012649
2.331642 -2.094254 3.827617 32.000000 17 344.012652
0.178513 -0.185359 4.277238 99.000000 30 344.012659
0.302501 -0.298953 3.917285 96.000000 29 344.012662
0.758221 -0.698676 4.004348 19.000000 26 344.012664
0.951662 -0.858053 3.538760 6.000000 24 344.012667
1.408784 -1.269341 3.982990 95.000000 22 344.012670
2.485571 -2.238787 5.541868 95.000000 20 344.012672
2.129472 -1.918044 3.868335 24.000000 18 344.012675
2.527412 -2.276481 3.765759 32.000000 16 344.012677
2.757347 -2.470543 3.717971 28.000000 15 344.012635
2.776920 -2.488084 3.087710 17.000000 13 344.012637
3.065559 -2.747666 2.783648 59.000000 11 344.012640
3.557400 -3.188509 2.586149 10.000000 9 344.012643
3.328003 -2.983947 1.894255 12.000000 7 344.012645
3.132241 -2.809408 1.325907 13.000000 5 344.012648
2.925452 -2.623932 0.837568 13.000000 3 344.012650
2.790997 -2.504215 0.428927 15.000000 1 344.012653
2.799413 -2.516173 3.432418 52.000000 14 344.012661
2.833737 -2.547027 2.857898 68.000000 12 344.012663
3.319436 -2.984633 2.707734 57.000000 10 344.012666
3.419602 -3.074700 2.213303 11.000000 8 344.012668
3.206075 -2.883721 1.589113 13.000000 6 344.012671
2.995523 -2.695285 1.062604 14.000000 4 344.012673
2.845143 -2.560876 0.625428 14.000000 2 344.012676
2.721222 -2.450196 0.241388 19.000000 0 344.012679
0.030836 -0.041007 4.329109 98.000000 31 344.012689
0.440624 -0.418329 3.862924 99.000000 28 344.012692
0.573450 -0.545723 3.829328 89.000000 27 344.012694
0.825210 -0.754963 3.620573 9.000000 25 344.012697
1.064105 -0.962815 3.440305 5.000000 23 344.012699
2.246090 -2.031614 5.615206 89.000000 21 344.012702
2.723968 -2.463869 5.467103 92.000000 19 344.012705
2.324318 -2.102380 3.827617 32.000000 17 344.012707
0.177865 -0.185981 4.277238 99.000000 30 344.012715
0.301456 -0.300007 3.917285 97.000000 29 344.012717
0.755777 -0.701319 4.004348 18.000000 26 344.012720
0.947384 -0.860210 3.534068 7.000000 24 344.012723
1.394668 -1.265471 3.955986 97.000000 22 344.012725
2.477741 -2.247449 5.541868 95.000000 20 344.012728
2.122764 -1.925466 3.868335 17.000000 18 344.012730
2.519451 -2.285289 3.765759 32.000000 16 344.012733
2.748706 -2.480153 3.717971 28.000000 15 344.012690
2.756657 -2.487330 3.075159 32.000000 13 344.012693
3.055950 -2.758350 2.783648 59.000000 11 344.012696
3.510073 -3.168254 2.560650 9.000000 9 344.012698
3.276277 -2.958263 1.871778 12.000000 7 344.012701
3.083254 -2.784953 1.310406 12.000000 5 344.012703
2.883466 -2.604494 0.829175 13.000000 3 344.012706
2.752678 -2.487231 0.425358 14.000000 1 344.012708
2.796150 -2.530941 3.439067 51.000000 14 344.012716
2.824829 -2.556903 2.857898 68.000000 12 344.012719
3.312194 -2.999096 2.710266 52.000000 10 344.012721
3.334834 -3.019600 2.167146 12.000000 8 344.012724
3.157488 -2.860021 1.571044 13.000000 6 344.012726
2.950078 -2.673088 1.050881 14.000000 4 344.012729
2.806833 -2.544185 0.619910 14.000000 2 344.012731
2.686746 -2.436189 0.239977 22.000000 0 344.012734
0.030693 -0.041114 4.329109 98.000000 31 344.012745
0.439161 -0.419865 3.862924 99.000000 28 344.012747
0.571542 -0.547721 3.829328 90.000000 27 344.012750
0.817078 -0.752779 3.596715 8.000000 25 344.012752
1.060738 -0.966524 3.440305 5.000000 23 344.012755
2.238985 -2.039442 5.615206 89.000000 21 344.012757
2.715351 -2.473362 5.467103 93.000000 19 344.012760
2.314595 -2.108322 3.823780 31.000000 17 344.012763
0.177215 -0.186601 4.277238 100.000000 30 344.012770
0.300783 -0.301436 3.922256 97.000000 29 344.012773
0.754244 -0.704811 4.009187 18.000000 26 344.012775
0.944376 -0.863512 3.534068 7.000000 24 344.012778
1.385419 -1.265925 3.942483 98.000000 22 344.012781
2.469881 -2.256084 5.541868 95.000000 20 344.012783
2.116030 -1.932864 3.868335 14.000000 18 344.012786
2.511458 -2.294070 3.765759 32.000000 16 344.012788
2.740032 -2.489732 3.717971 29.000000 15 344.012746
2.739314 -2.489084 3.065745 46.000000 13 344.012749
3.046303 -2.769001 2.783648 58.000000 11 344.012751
3.449819 -3.135789 2.525880 10.000000 9 344.012754
3.224771 -2.932256 1.849302 12.000000 7 344.012756
3.034477 -2.760190 1.294905 12.000000 5 344.012759
2.841653 -2.584795 0.820781 13.000000 3 344.012761
2.718195 -2.473364 0.422234 15.000000 1 344.012764
2.792818 -2.545717 3.445717 51.000000 14 344.012772
2.812900 -2.564026 2.854955 66.000000 12 344.012774
3.304890 -3.013544 2.712799 46.000000 10 344.012777
3.270615 -2.982294 2.133577 10.000000 8 344.012779
3.109107 -2.836017 1.552974 13.000000 6 344.012782
2.908415 -2.653883 1.040330 14.000000 4 344.012784
2.768675 -2.527258 0.614391 15.000000 2 344.012787
2.652401 -2.421972 0.238566 22.000000 0 344.012790
0.030526 -0.041184 4.324109 98.000000 31 344.012800
0.437693 -0.421395 3.862924 99.000000 28 344.012803
0.569627 -0.549713 3.829328 90.000000 27 344.012805
0.810066 -0.751563 3.577628 8.000000 25 344.012808
1.068873 -0.980788 3.477125 6.000000 23 344.012810
2.231852 -2.047246 5.615206 92.000000 21 344.012813
2.706701 -2.482825 5.467103 92.000000 19 344.012816
2.307221 -2.116388 3.823780 31.000000 17 344.012818
0.176793 -0.187399 4.282229 99.000000 30 344.012826
0.299782 -0.302432 3.922256 97.000000 29 344.012828
0.751902 -0.707309 4.009187 18.000000 26 344.012831
0.940237 -0.865470 3.529375 10.000000 24 344.012834
1.377787 -1.267804 3.933481 98.000000 22 344.012836
2.461991 -2.264692 5.541868 96.000000 20 344.012839
2.104833 -1.936157 3.860356 12.000000 18 344.012841
2.503837 -2.302386 3.765759 32.000000 16 344.012844
2.731325 -2.499282 3.717971 29.000000 15 344.012801
2.730609 -2.498631 3.065745 46.000000 13 344.012804
3.033535 -2.776795 2.780907 58.000000 11 344.012807
3.347352 -3.064056 2.460975 8.000000 9 344.012809
3.170575 -2.902241 1.824952 12.000000 7 344.012812
2.989927 -2.737840 1.280813 12.000000 5 344.012814
2.803635 -2.568154 0.813320 14.000000 3 344.012817
2.680171 -2.455921 0.418665 15.000000 1 344.012819
2.792168 -2.563026 3.455692 52.000000 14 344.012827
2.803932 -2.573829 2.854955 65.000000 12 344.012830
3.298055 -3.027402 2.715331 35.000000 10 344.012832
3.180464 -2.919465 2.083224 6.000000 8 344.012835
3.057944 -2.807983 1.533262 13.000000 6 344.012837
2.867382 -2.633919 1.029779 13.000000 4 344.012840
2.734754 -2.512970 0.609562 15.000000 2 344.012843
2.618608 -2.407087 0.237155 21.000000 0 344.012845
0.030389 -0.041285 4.324109 98.000000 31 344.012856
0.436293 -0.422844 3.862924 99.000000 28 344.012858
0.567801 -0.551599 3.829328 89.000000 27 344.012861
0.805386 -0.752206 3.568084 11.000000 25 344.012863
1.092881 -1.009514 3.564573 9.000000 23 344.012866
2.225051 -2.054635 5.615206 92.000000 21 344.012869
2.698452 -2.491787 5.467103 92.000000 19 344.012871
2.300190 -2.124027 3.823780 31.000000 17 344.012874
0.176138 -0.188015 4.282229 100.000000 30 344.012881
0.298724 -0.303477 3.922256 97.000000 29 344.012884
0.748516 -0.709064 4.004348 18.000000 26 344.012887
0.937210 -0.868747 3.529375 14.000000 24 344.012889
1.373575 -1.272366 3.933481 98.000000 22 344.012892
2.454467 -2.272844 5.541868 96.000000 20 344.012894
2.105035 -1.949270 3.872325 9.000000 18 344.012897
2.493297 -2.308808 3.762084 33.000000 16 344.012899
2.723022 -2.508326 3.717971 28.000000 15 344.012857
2.728035 -2.512947 3.072021 44.000000 13 344.012860
3.024310 -2.786839 2.780907 56.000000 11 344.012862
3.223145 -2.970066 2.379844 4.000000 9 344.012865
3.119521 -2.875585 1.802476 12.000000 7 344.012867
2.941557 -2.712487 1.265311 14.000000 5 344.012870
2.766213 -2.550797 0.805859 13.000000 3 344.012872
2.646389 -2.441159 0.415541 15.000000 1 344.012875
2.789139 -2.577341 3.462342 55.000000 14 344.012883
2.795382 -2.583113 2.854955 63.000000 12 344.012885
3.290633 -3.041823 2.717864 21.000000 10 344.012888
3.170254 -2.930549 2.083224 5.000000 8 344.012890
3.006517 -2.780165 1.513550 14.000000 6 344.012893
2.826057 -2.614207 1.019228 14.000000 4 344.012895
2.696887 -2.495594 0.604044 15.000000 2 344.012898
2.588192 -2.395850 0.235946 22.000000 0 344.012901
0.030238 -0.041396 4.324109 99.000000 31 344.012912
0.434740 -0.424440 3.862924 99.000000 28 344.012915
0.565775 -0.553676 3.829328 89.000000 27 344.012917
0.800449 -0.753105 3.558541 13.000000 25 344.012920
1.114918 -1.037469 3.647419 10.000000 23 344.012922
2.217505 -2.062777 5.615206 91.000000 21 344.012925
2.689302 -2.501661 5.467103 92.000000 19 344.012927
2.292390 -2.132444 3.823780 31.000000 17 344.012930
0.175480 -0.188629 4.282229 99.000000 30 344.012938
0.297291 -0.304135 3.917285 97.000000 29 344.012940
0.746036 -0.711672 4.004348 18.000000 26 344.012943
0.934172 -0.872013 3.529375 14.000000 24 344.012945
1.367310 -1.275906 3.928980 98.000000 22 344.012948
2.446121 -2.281825 5.541868 96.000000 20 344.012950
2.102285 -1.961084 3.880304 8.000000 18 344.012953
2.485223 -2.317497 3.762084 33.000000 16 344.012956
2.711196 -2.515863 3.714466 28.000000 15 344.012913
2.724513 -2.528225 3.078296 43.000000 13 344.012916
3.011011 -2.795060 2.778165 56.000000 11 344.012918
3.208991 -2.978845 2.377526 4.000000 9 344.012921
3.068693 -2.848609 1.780000 12.000000 7 344.012924
2.896918 -2.690095 1.251220 13.000000 5 344.012926
2.731652 -2.537516 0.799331 13.000000 3 344.012929
2.611887 -2.427112 0.412418 16.000000 1 344.012931
2.787874 -2.595179 3.472316 64.000000 14 344.012939
2.785896 -2.593341 2.854955 65.000000 12 344.012942
3.289462 -3.062103 2.725461 11.000000 10 344.012944
3.120142 -2.904489 2.058047 7.000000 8 344.012947
2.958778 -2.755242 1.495480 14.000000 6 344.012949
2.788462 -2.597551 1.009850 15.000000 4 344.012952
2.662799 -2.481359 0.599215 15.000000 2 344.012954
2.554233 -2.381024 0.234536 22.000000 0 344.012957
0.030100 -0.041496 4.324109 99.000000 31 344.012968
0.433331 -0.425880 3.862924 99.000000 28 344.012970
0.563936 -0.555549 3.829328 89.000000 27 344.012973
0.795778 -0.753701 3.548997 14.000000 25 344.012975
1.120026 -1.049174 3.675034 11.000000 23 344.012978
2.208904 -2.068481 5.610817 91.000000 21 344.012980
2.678937 -2.508641 5.462971 93.000000 19 344.012983
2.282966 -2.137843 3.819944 31.000000 17 344.012985
0.174821 -0.189240 4.282229 100.000000 30 344.012993
0.296227 -0.305171 3.917285 97.000000 29 344.012996
0.742640 -0.713401 3.999508 18.000000 26 344.012998
0.931123 -0.875268 3.529375 15.000000 24 344.013001
1.363072 -1.280433 3.928980 98.000000 22 344.013003
2.438540 -2.289924 5.541868 96.000000 20 344.013006
2.108953 -1.980424 3.904241 6.000000 18 344.013009
2.474647 -2.323838 3.758409 33.000000 16 344.013011
2.702838 -2.524840 3.714466 28.000000 15 344.012969
2.718959 -2.539903 3.081434 44.000000 13 344.012971
3.001725 -2.805030 2.778165 56.000000 11 344.012974
3.121410 -2.916875 2.321894 6.000000 9 344.012976
3.021478 -2.824479 1.759396 13.000000 7 344.012979
2.852470 -2.667424 1.237128 13.000000 5 344.012982
2.698107 -2.523074 0.792802 14.000000 3 344.012984
2.578367 -2.411945 0.409294 14.000000 1 344.012987
2.784702 -2.609517 3.478966 77.000000 14 344.012994
2.777280 -2.602565 2.854955 67.000000 12 344.012997
3.278753 -3.073567 2.725461 11.000000 10 344.013000
3.083495 -2.890532 2.041263 18.000000 8 344.013002
2.894026 -2.713868 1.469197 14.000000 6 344.013005
2.751018 -2.580665 1.000471 15.000000 4 344.013007
2.628843 -2.466918 0.594386 14.000000 2 344.013010
2.520408 -2.365990 0.233125 20.000000 0 344.013012
0.029955 -0.041601 4.324109 96.000000 31 344.013023
0.431841 -0.427390 3.862924 99.000000 28 344.013026
0.561993 -0.557515 3.829328 89.000000 27 344.013028
0.790981 -0.754413 3.539454 24.000000 25 344.013031
1.133410 -1.069164 3.730264 13.000000 23 344.013033
2.201670 -2.076179 5.610817 89.000000 21 344.013036
2.670164 -2.517978 5.462971 93.000000 19 344.013038
2.275490 -2.145799 3.819944 31.000000 17 344.013041
0.174159 -0.189849 4.282229 99.000000 30 344.013049
0.295160 -0.306203 3.917285 96.000000 29 344.013051
0.738338 -0.714239 3.989830 17.000000 26 344.013054
0.926809 -0.877327 3.524682 7.000000 24 344.013056
1.358594 -1.285183 3.928980 98.000000 22 344.013059
2.430532 -2.298422 5.541868 96.000000 20 344.013062
2.910085 -2.751917 5.376366 13.000000 18 344.013064
2.466520 -2.332462 3.758409 33.000000 16 344.013067
2.691410 -2.531816 3.710962 28.000000 15 344.013024
2.715748 -2.554713 3.087710 47.000000 13 344.013027
2.991916 -2.815490 2.778165 56.000000 11 344.013029
3.053135 -2.873104 2.280169 10.000000 9 344.013032
2.974469 -2.800055 1.738793 13.000000 7 344.013035
2.811709 -2.647765 1.224445 13.000000 5 344.013037
2.660674 -2.505536 0.785342 14.000000 3 344.013040
2.544557 -2.397027 0.406171 14.000000 1 344.013042
2.778292 -2.621784 3.482290 86.000000 14 344.013050
2.768179 -2.612244 2.854955 68.000000 12 344.013053
3.255464 -3.073155 2.715331 11.000000 10 344.013055
3.037083 -2.867007 2.018184 16.000000 8 344.013058
2.867367 -2.707742 1.460984 14.000000 6 344.013060
2.713726 -2.563549 0.991093 15.000000 4 344.013063
2.595020 -2.452270 0.589558 15.000000 2 344.013065
2.490351 -2.354181 0.231916 20.000000 0 344.013068
0.029833 -0.041743 4.329109 96.000000 31 344.013079
0.430347 -0.428894 3.862924 99.000000 28 344.013081
0.560044 -0.559473 3.829328 89.000000 27 344.013084
0.786189 -0.755100 3.529911 27.000000 25 344.013086
1.133920 -1.077151 3.744072 6.000000 23 344.013089
2.192672 -2.082202 5.606428 78.000000 21 344.013091
2.661358 -2.527283 5.462971 93.000000 19 344.013094
2.267986 -2.153729 3.819944 32.000000 17 344.013096
0.173495 -0.190456 4.282229 99.000000 30 344.013104
0.294089 -0.307232 3.917285 96.000000 29 344.013107
0.734939 -0.715934 3.984991 17.000000 26 344.013109
0.923740 -0.880557 3.524682 3.000000 24 344.013112
1.352523 -1.288415 3.924480 99.000000 22 344.013114
2.420605 -2.305094 5.537602 96.000000 20 344.013117
2.909192 -2.770372 5.392324 36.000000 18 344.013120
2.458363 -2.341057 3.758409 33.000000 16 344.013122
2.682556 -2.541195 3.710962 27.000000 15 344.013080
2.712466 -2.569531 3.093985 46.000000 13 344.013082
2.982069 -2.825917 2.778165 55.000000 11 344.013085
3.030225 -2.871554 2.270897 13.000000 9 344.013088
2.931032 -2.778527 1.720062 13.000000 7 344.013090
2.767639 -2.624553 1.210353 13.000000 5 344.013093
2.630525 -2.494528 0.779746 14.000000 3 344.013095
2.514496 -2.385330 0.403493 17.000000 1 344.013098
2.774538 -2.636611 3.488940 93.000000 14 344.013106
2.759043 -2.621891 2.854955 68.000000 12 344.013108
3.204097 -3.045885 2.682410 12.000000 10 344.013111
2.990873 -2.843194 1.995106 16.000000 8 344.013113
2.823677 -2.685191 1.444557 14.000000 6 344.013116
2.676588 -2.546205 0.981714 15.000000 4 344.013118
2.561332 -2.437416 0.584729 16.000000 2 344.013121
2.456789 -2.338747 0.230505 22.000000 0 344.013123
0.029687 -0.041847 4.329109 98.000000 31 344.013134
0.428847 -0.430394 3.862924 93.000000 28 344.013137
0.558087 -0.561424 3.829328 89.000000 27 344.013139
0.780328 -0.754724 3.515595 27.000000 25 344.013142
1.132977 -1.083803 3.753277 6.000000 23 344.013144
2.185390 -2.089843 5.606428 58.000000 21 344.013147
2.652520 -2.536557 5.462971 93.000000 19 344.013149
2.260453 -2.161633 3.819944 32.000000 17 344.013152
0.172830 -0.191060 4.282229 99.000000 30 344.013160
0.293015 -0.308256 3.917285 96.000000 29 344.013162
0.729743 -0.715852 3.970474 16.000000 26 344.013165
0.919416 -0.882581 3.519989 3.000000 24 344.013167
1.348017 -1.293129 3.924480 99.000000 22 344.013170
2.412544 -2.313529 5.537602 96.000000 20 344.013173
2.890802 -2.772166 5.376366 70.000000 18 344.013175
2.447730 -2.347278 3.754734 33.000000 16 344.013178
2.671089 -2.548082 3.707457 27.000000 15 344.013135
2.706296 -2.581671 3.097123 46.000000 13 344.013138
2.972187 -2.836309 2.778165 56.000000 11 344.013140
3.013773 -2.875998 2.266261 12.000000 9 344.013143
2.887782 -2.756730 1.701332 13.000000 7 344.013146
2.730706 -2.607692 1.199079 14.000000 5 344.013148
2.596934 -2.479947 0.773217 15.000000 3 344.013151
2.480947 -2.370013 0.400370 17.000000 1 344.013153
2.765317 -2.646280 3.488940 93.000000 14 344.013161
2.749875 -2.631506 2.854955 67.000000 12 344.013164
3.156073 -3.021276 2.652020 7.000000 10 344.013166
2.948146 -2.822232 1.974125 15.000000 8 344.013169
2.787000 -2.668901 1.431415 15.000000 6 344.013171
2.643114 -2.531996 0.973508 15.000000 4 344.013174
2.527780 -2.422357 0.579900 16.000000 2 344.013176
2.426971 -2.326565 0.229296 22.000000 0 344.013179
0.029540 -0.041950 4.329109 98.000000 31 344.013190
0.427342 -0.431888 3.862924 93.000000 28 344.013192
0.556124 -0.563369 3.829328 90.000000 27 344.013195
0.775549 -0.755359 3.506052 32.000000 25 344.013197
1.133408 -1.091818 3.767084 7.000000 23 344.013200
2.176357 -2.095797 5.602040 56.000000 21 344.013202
2.643650 -2.545801 5.462971 94.000000 19 344.013205
2.250585 -2.167286 3.816107 32.000000 17 344.013208
0.172162 -0.191663 4.282229 99.000000 30 344.013215
0.291938 -0.309277 3.917285 96.000000 29 344.013218
0.728134 -0.719279 3.975312 15.000000 26 344.013220
0.915089 -0.884586 3.515297 4.000000 24 344.013223
1.343495 -1.297826 3.924480 99.000000 22 344.013226
2.402578 -2.320125 5.533336 96.000000 20 344.013228
2.876772 -2.778052 5.368387 85.000000 18 344.013231
2.439521 -2.355808 3.754734 33.000000 16 344.013233
2.662179 -2.557390 3.707457 27.000000 15 344.013191
2.702883 -2.596496 3.103399 43.000000 13 344.013193
2.962268 -2.846667 2.778165 55.000000 11 344.013196
2.981355 -2.865013 2.250035 9.000000 9 344.013199
2.848063 -2.737878 1.684475 13.000000 7 344.013201
2.690466 -2.587281 1.186397 14.000000 5 344.013204
2.563477 -2.465162 0.766689 15.000000 3 344.013206
2.451126 -2.357943 0.397693 18.000000 1 344.013209
2.758752 -2.658508 3.492265 91.000000 14 344.013217
2.737761 -2.638283 2.852011 66.000000 12 344.013219
3.092742 -2.981408 2.608969 4.000000 10 344.013222
2.905602 -2.801007 1.953144 14.000000 8 344.013224
2.747073 -2.649110 1.416631 14.000000 6 344.013227
2.606273 -2.514210 0.964130 16.000000 4 344.013229
2.494365 -2.407094 0.575072 16.000000 2 344.013232
2.397269 -2.314204 0.228087 22.000000 0 344.013234
0.029394 -0.042053 4.329109 98.000000 31 344.013245
0.425832 -0.433377 3.862924 99.000000 28 344.013248
0.554154 -0.565307 3.829328 89.000000 27 344.013250
0.771841 -0.757016 3.501280 32.000000 25 344.013253
1.139406 -1.105290 3.799302 9.000000 23 344.013255
2.169028 -2.103381 5.602040 56.000000 21 344.013258
2.632727 -2.553055 5.458838 94.000000 19 344.013260
2.243006 -2.175129 3.816107 32.000000 17 344.013263
0.171492 -0.192262 4.282229 99.000000 30 344.013271
0.290856 -0.310294 3.917285 96.000000 29 344.013273
0.720269 -0.716493 3.946277 13.000000 26 344.013276
0.910759 -0.886571 3.510604 8.000000 24 344.013278
1.338957 -1.302508 3.924480 99.000000 22 344.013281
2.394465 -2.328497 5.533336 96.000000 20 344.013284
2.871379 -2.792279 5.376366 93.000000 18 344.013286
2.431283 -2.364309 3.754734 33.000000 16 344.013289
2.653235 -2.566667 3.707457 27.000000 15 344.013246
2.699399 -2.611328 3.109674 43.000000 13 344.013249
2.952313 -2.856990 2.778165 54.000000 11 344.013252
2.955418 -2.859998 2.238445 7.000000 9 344.013254
2.805180 -2.715559 1.665744 13.000000 7 344.013257
2.653848 -2.569959 1.175123 14.000000 5 344.013259
2.533683 -2.453592 0.761093 16.000000 3 344.013262
2.421418 -2.345695 0.395015 18.000000 1 344.013264
2.752136 -2.670722 3.495590 85.000000 14 344.013272
2.728536 -2.647824 2.852011 66.000000 12 344.013275
3.073036 -2.983176 2.601372 3.000000 10 344.013277
2.869755 -2.785843 1.936360 14.000000 8 344.013280
2.710706 -2.632364 1.403490 15.000000 6 344.013282
2.573076 -2.499584 0.955923 16.000000 4 344.013285
2.464638 -2.395079 0.570933 16.000000 2 344.013287
2.367683 -2.301663 0.226877 23.000000 0 344.013290
0.029247 -0.042155 4.329109 98.000000 31 344.013301
0.424317 -0.434861 3.862924 99.000000 28 344.013303
0.552178 -0.567238 3.829328 89.000000 27 344.013306
0.768132 -0.758656 3.496508 34.000000 25 344.013308
1.142528 -1.116086 3.822315 12.000000 23 344.013311
2.161672 -2.110940 5.602040 67.000000 21 344.013313
2.623799 -2.562229 5.458838 93.000000 19 344.013316
2.235400 -2.182945 3.816107 32.000000 17 344.013319
0.170819 -0.192860 4.282229 100.000000 30 344.013326
0.289771 -0.311308 3.917285 96.000000 29 344.013329
0.710656 -0.711880 3.907563 11.000000 26 344.013331
0.906427 -0.888536 3.505911 10.000000 24 344.013334
1.332618 -1.305883 3.919979 99.000000 22 344.013337
2.385914 -2.337258 5.533336 96.000000 20 344.013339
2.861125 -2.802785 5.376366 95.000000 18 344.013342
2.422601 -2.373204 3.754734 32.000000 16 344.013344
2.644260 -2.575913 3.707457 28.000000 15 344.013302
2.695844 -2.626168 3.115950 46.000000 13 344.013304
2.942323 -2.867278 2.778165 47.000000 11 344.013307
2.920034 -2.845562 2.219901 6.000000 9 344.013310
2.765808 -2.696209 1.648887 13.000000 7 344.013312
2.617385 -2.552412 1.163849 14.000000 5 344.013315
2.500059 -2.438850 0.754565 16.000000 3 344.013317
2.391420 -2.333685 0.392338 19.000000 1 344.013320
2.744999 -2.683402 3.498915 80.000000 14 344.013328
2.718812 -2.657807 2.852011 65.000000 12 344.013330
3.034340 -2.967291 2.578580 4.000000 10 344.013333
2.830321 -2.767783 1.917477 14.000000 8 344.013335
2.674034 -2.615862 1.390348 15.000000 6 344.013338
2.539580 -2.485201 0.947717 17.000000 4 344.013340
2.431072 -2.379847 0.566104 17.000000 2 344.013343
2.338214 -2.288945 0.225668 23.000000 0 344.013346
0.029092 -0.042262 4.329109 99.000000 31 344.013356
0.422720 -0.436413 3.862924 99.000000 28 344.013359
0.549388 -0.568525 3.824433 89.000000 27 344.013361
0.765346 -0.761466 3.496508 39.000000 25 344.013364
1.152355 -1.133969 3.868340 16.000000 23 344.013366
2.153921 -2.118848 5.602040 81.000000 21 344.013369
2.614390 -2.571828 5.458838 93.000000 19 344.013372
2.227384 -2.191123 3.816107 32.000000 17 344.013374
0.169921 -0.193266 4.277238 99.000000 30 344.013382
0.288628 -0.312368 3.917285 97.000000 29 344.013384
0.700075 -0.706438 3.864011 10.000000 26 344.013387
0.903164 -0.891853 3.505911 10.000000 24 344.013390
1.328052 -1.310526 3.919979 98.000000 22 344.013392
2.377741 -2.345572 5.533336 96.000000 20 344.013395
2.853470 -2.814872 5.380355 95.000000 18 344.013397
2.414303 -2.381646 3.754734 32.000000 16 344.013400
2.634801 -2.585588 3.707457 28.000000 15 344.013357
2.691757 -2.641484 3.122225 47.000000 13 344.013360
2.934778 -2.880972 2.780907 47.000000 11 344.013363
2.884293 -2.831416 2.201356 6.000000 9 344.013365
2.729446 -2.680343 1.633903 13.000000 7 344.013368
2.584056 -2.538455 1.153985 14.000000 5 344.013370
2.470505 -2.426908 0.748969 16.000000 3 344.013373
2.365499 -2.324566 0.390107 19.000000 1 344.013375
2.738276 -2.695587 3.502240 77.000000 14 344.013383
2.706638 -2.664446 2.849068 63.000000 12 344.013386
3.011677 -2.965765 2.568450 5.000000 10 344.013388
2.791538 -2.748986 1.898595 14.000000 8 344.013391
2.637972 -2.598667 1.377207 15.000000 6 344.013393
2.510117 -2.473580 0.940683 17.000000 4 344.013396
2.401590 -2.367459 0.561965 17.000000 2 344.013398
2.312022 -2.279960 0.224660 23.000000 0 344.013401
0.028923 -0.042326 4.324109 99.000000 31 344.013412
0.421194 -0.437886 3.862924 99.000000 28 344.013414
0.547400 -0.570440 3.824433 89.000000 27 344.013417
0.762683 -0.764133 3.496508 38.000000 25 344.013419
1.152552 -1.142110 3.882147 18.000000 23 344.013422
2.148213 -2.128040 5.606428 90.000000 21 344.013424
2.603398 -2.578958 5.454705 93.000000 19 344.013427
2.219722 -2.198885 3.816107 32.000000 17 344.013430
0.169245 -0.193858 4.277238 100.000000 30 344.013437
0.287536 -0.313373 3.917285 97.000000 29 344.013440
0.693195 -0.704394 3.839815 10.000000 26 344.013442
0.900045 -0.895000 3.505911 9.000000 24 344.013445
1.323469 -1.315154 3.919979 95.000000 22 344.013448
2.369539 -2.353858 5.533336 96.000000 20 344.013450
2.843627 -2.824815 5.380355 95.000000 18 344.013453
2.403569 -2.387670 3.751059 32.000000 16 344.013455
2.625759 -2.594769 3.707457 27.000000 15 344.013413
2.688059 -2.656337 3.128501 49.000000 13 344.013416
2.927677 -2.894138 2.783648 38.000000 11 344.013418
2.846037 -2.813437 2.180494 15.000000 9 344.013421
2.690406 -2.660517 1.617046 13.000000 7 344.013423
2.547896 -2.520469 1.142712 14.000000 5 344.013426
2.437573 -2.411334 0.742441 16.000000 3 344.013428
2.336131 -2.311791 0.387430 21.000000 1 344.013431
2.734154 -2.710387 3.508889 76.000000 14 344.013439
2.697321 -2.673877 2.849068 62.000000 12 344.013441
2.958449 -2.933760 2.532997 7.000000 10 344.013444
2.752922 -2.729952 1.879713 14.000000 8 344.013446
2.602064 -2.581253 1.364065 15.000000 6 344.013449
2.477316 -2.458361 0.932477 18.000000 4 344.013451
2.372224 -2.354894 0.557826 18.000000 2 344.013454
2.282780 -2.266895 0.223451 25.000000 0 344.013457
0.028775 -0.042426 4.324109 98.000000 31 344.013467
0.419663 -0.439354 3.862924 99.000000 28 344.013470
0.545405 -0.572347 3.824433 89.000000 27 344.013472
0.758960 -0.765730 3.491737 38.000000 25 344.013475
1.127815 -1.125427 3.813110 5.000000 23 344.013477
2.140772 -2.135526 5.606428 90.000000 21 344.013480
2.594380 -2.588030 5.454705 93.000000 19 344.013483
2.209763 -2.204356 3.812269 32.000000 17 344.013485
0.168568 -0.194448 4.277238 100.000000 30 344.013493
0.286441 -0.314375 3.917285 97.000000 29 344.013495
0.670516 -0.686115 3.728513 9.000000 26 344.013498
0.895696 -0.896915 3.501218 8.000000 24 344.013501
1.318870 -1.319766 3.919979 94.000000 22 344.013503
2.361308 -2.362114 5.533336 96.000000 20 344.013506
2.833749 -2.834724 5.380355 95.000000 18 344.013508
2.395220 -2.396045 3.751059 32.000000 16 344.013511
2.616686 -2.603919 3.707457 27.000000 15 344.013468
2.681529 -2.668449 3.131638 50.000000 13 344.013471
2.920521 -2.907290 2.786390 26.000000 11 344.013474
2.811081 -2.798350 2.161950 29.000000 9 344.013476
2.654823 -2.643722 1.602062 13.000000 7 344.013479
2.515291 -2.505648 1.132847 14.000000 5 344.013481
2.408260 -2.399027 0.736845 17.000000 3 344.013484
2.310410 -2.302355 0.385199 21.000000 1 344.013486
2.729962 -2.725191 3.515539 76.000000 14 344.013494
2.687971 -2.683276 2.849068 62.000000 12 344.013497
2.911582 -2.907512 2.502608 8.000000 10 344.013499
2.714473 -2.710682 1.860830 13.000000 8 344.013502
2.569651 -2.566957 1.352567 15.000000 6 344.013504
2.448091 -2.446379 0.925443 19.000000 4 344.013507
2.346478 -2.345655 0.554377 19.000000 2 344.013510
2.257190 -2.257186 0.222444 26.000000 0 344.013512
0.028626 -0.042527 4.324109 98.000000 31 344.013523
0.418127 -0.440816 3.862924 99.000000 28 344.013525
0.543404 -0.574247 3.824433 89.000000 27 344.013528
0.756282 -0.768374 3.491737 38.000000 25 344.013530
1.115612 -1.121048 3.785494 4.000000 23 344.013533
2.133305 -2.142985 5.606428 92.000000 21 344.013536
2.585330 -2.597070 5.454705 93.000000 19 344.013538
2.202055 -2.212056 3.812269 32.000000 17 344.013541
0.167888 -0.195035 4.277238 100.000000 30 344.013548
0.285699 -0.315770 3.922256 97.000000 29 344.013551
0.650601 -0.670395 3.631729 8.000000 26 344.013554
0.892560 -0.900036 3.501218 7.000000 24 344.013556
1.312721 -1.322816 3.915478 95.000000 22 344.013559
2.353048 -2.370342 5.533336 95.000000 20 344.013561
2.823837 -2.844598 5.380355 95.000000 18 344.013564
2.386842 -2.404392 3.751059 33.000000 16 344.013566
2.607581 -2.613037 3.707457 28.000000 15 344.013524
2.677698 -2.683305 3.137914 49.000000 13 344.013527
2.913307 -2.920427 2.789131 15.000000 11 344.013529
2.776265 -2.783053 2.143406 12.000000 9 344.013532
2.616117 -2.623429 1.585204 14.000000 7 344.013534
2.479434 -2.487232 1.121574 15.000000 5 344.013537
2.379063 -2.386545 0.731250 18.000000 3 344.013539
2.284783 -2.292768 0.382968 21.000000 1 344.013542
2.725701 -2.739999 3.522188 76.000000 14 344.013550
2.678588 -2.692643 2.849068 62.000000 12 344.013552
2.858855 -2.874860 2.467154 8.000000 10 344.013555
2.676192 -2.691177 1.841948 13.000000 8 344.013557
2.537369 -2.552467 1.341068 16.000000 6 344.013560
2.418980 -2.434223 0.918409 20.000000 4 344.013562
2.317335 -2.332751 0.550238 19.000000 2 344.013565
2.231695 -2.247327 0.221436 26.000000 0 344.013568
0.028478 -0.042626 4.324109 99.000000 31 344.013578
0.416585 -0.442273 3.862924 99.000000 28 344.013581
0.541396 -0.576141 3.824433 90.000000 27 344.013583
0.752552 -0.769941 3.486965 38.000000 25 344.013586
1.093840 -1.106870 3.725662 4.000000 23 344.013588
2.125811 -2.150419 5.606428 89.000000 21 344.013591
2.576249 -2.606079 5.454705 93.000000 19 344.013593
2.194320 -2.219729 3.812269 32.000000 17 344.013596
0.167206 -0.195620 4.277238 100.000000 30 344.013604
0.284595 -0.316765 3.922256 96.000000 29 344.013606
0.639530 -0.663604 3.583337 7.000000 26 344.013609
0.888202 -0.901917 3.496526 6.000000 24 344.013611
1.308096 -1.327390 3.915478 95.000000 22 344.013614
2.344760 -2.378542 5.533336 95.000000 20 344.013616
2.811774 -2.852292 5.376366 95.000000 18 344.013619
2.378434 -2.412709 3.751059 33.000000 16 344.013622
2.598444 -2.622123 3.707457 28.000000 15 344.013579
2.673795 -2.698165 3.144189 48.000000 13 344.013582
2.903095 -2.930579 2.789131 15.000000 11 344.013584
2.744709 -2.770696 2.127179 11.000000 9 344.013587
2.580847 -2.606192 1.570220 14.000000 7 344.013590
2.447112 -2.472007 1.111709 15.000000 5 344.013592
2.349983 -2.373889 0.725654 19.000000 3 344.013595
2.259251 -2.283031 0.380737 22.000000 1 344.013597
2.718744 -2.752153 3.525513 75.000000 14 344.013605
2.666332 -2.699101 2.846125 63.000000 12 344.013608
2.809422 -2.844943 2.434232 8.000000 10 344.013610
2.641270 -2.674668 1.825163 14.000000 8 344.013613
2.505220 -2.537783 1.329569 17.000000 6 344.013615
2.389983 -2.421894 0.911375 21.000000 4 344.013618
2.291789 -2.323199 0.546789 20.000000 2 344.013620
2.206297 -2.237317 0.220428 26.000000 0 344.013623
0.028329 -0.042725 4.324109 99.000000 31 344.013634
0.415039 -0.443724 3.862924 98.000000 28 344.013636
0.538688 -0.577282 3.819538 90.000000 27 344.013639
0.749860 -0.772564 3.486965 71.000000 25 344.013641
1.072181 -1.092554 3.665829 4.000000 23 344.013644
2.118292 -2.157826 5.606428 89.000000 21 344.013646
2.567136 -2.615056 5.454705 93.000000 19 344.013649
2.186558 -2.227375 3.812269 32.000000 17 344.013651
0.166709 -0.196424 4.282229 99.000000 30 344.013659
0.283133 -0.317358 3.917285 97.000000 29 344.013662
0.618081 -0.645836 3.476874 7.000000 26 344.013664
0.883842 -0.903778 3.491833 6.000000 24 344.013667
1.303455 -1.331948 3.915478 96.000000 22 344.013669
2.336443 -2.386712 5.533336 95.000000 20 344.013672
2.801801 -2.862089 5.376366 95.000000 18 344.013675
2.367626 -2.418574 3.747383 33.000000 16 344.013677
2.586773 -2.628635 3.703953 28.000000 15 344.013635
2.672552 -2.715806 3.153603 47.000000 13 344.013637
2.884051 -2.931752 2.780907 15.000000 11 344.013640
2.710166 -2.754994 2.108635 12.000000 9 344.013642
2.548980 -2.592047 1.557109 15.000000 7 344.013645
2.418290 -2.460007 1.103254 14.000000 5 344.013648
2.324464 -2.364562 0.720991 20.000000 3 344.013650
2.230324 -2.269591 0.378059 23.000000 1 344.013653
2.714351 -2.766958 3.532163 75.000000 14 344.013660
2.656894 -2.708392 2.846125 63.000000 12 344.013663
2.754196 -2.808560 2.396246 19.000000 10 344.013666
2.606496 -2.657948 1.808379 14.000000 8 344.013668
2.473205 -2.522906 1.318070 17.000000 6 344.013671
2.357700 -2.405920 0.903169 21.000000 4 344.013673
2.266338 -2.313497 0.543340 21.000000 2 344.013676
2.180997 -2.227157 0.219421 26.000000 0 344.013678
0.028180 -0.042824 4.324109 98.000000 31 344.013689
0.413488 -0.445171 3.862924 98.000000 28 344.013692
0.536669 -0.579159 3.819538 90.000000 27 344.013694
0.747158 -0.775176 3.486965 61.000000 25 344.013697
1.047908 -1.075303 3.596791 5.000000 23 344.013699
2.109074 -2.163492 5.602040 91.000000 21 344.013702
2.557992 -2.624001 5.454705 93.000000 19 344.013704
2.178770 -2.234994 3.812269 32.000000 17 344.013707
0.166022 -0.197005 4.282229 100.000000 30 344.013715
0.282023 -0.318344 3.917285 97.000000 29 344.013717
0.615823 -0.647990 3.476874 7.000000 26 344.013720
0.889097 -0.915523 3.524682 8.000000 24 344.013722
1.298797 -1.336490 3.915478 99.000000 22 344.013725
2.328098 -2.394853 5.533336 96.000000 20 344.013728
2.791793 -2.871852 5.376366 95.000000 18 344.013730
2.359169 -2.426823 3.747383 33.000000 16 344.013733
2.577582 -2.637649 3.703953 28.000000 15 344.013690
2.665777 -2.727903 3.156741 46.000000 13 344.013693
2.832892 -2.899926 2.742526 14.000000 11 344.013695
2.675766 -2.739085 2.090091 12.000000 9 344.013698
2.514005 -2.574395 1.542124 15.000000 7 344.013701
2.386230 -2.444404 1.093390 14.000000 5 344.013703
2.295608 -2.351571 0.715395 20.000000 3 344.013706
2.204998 -2.259541 0.375828 24.000000 1 344.013708
2.709888 -2.781766 3.538813 75.000000 14 344.013716
2.647424 -2.717649 2.846125 62.000000 12 344.013719
2.705274 -2.778004 2.363324 13.000000 10 344.013721
2.571872 -2.641018 1.791595 14.000000 8 344.013724
2.441325 -2.507837 1.306571 18.000000 6 344.013726
2.328949 -2.393235 0.896135 21.000000 4 344.013729
2.237530 -2.300095 0.539201 21.000000 2 344.013731
2.155795 -2.216849 0.218413 27.000000 0 344.013734
0.028030 -0.042922 4.324109 98.000000 31 344.013745
0.411931 -0.446611 3.862924 98.000000 28 344.013747
0.534644 -0.581029 3.819538 90.000000 27 344.013750
0.744448 -0.777780 3.486965 39.000000 25 344.013752
1.026487 -1.060703 3.536958 7.000000 23 344.013755
2.101510 -2.170841 5.602040 91.000000 21 344.013757
2.546860 -2.630892 5.450572 92.000000 19 344.013760
2.170955 -2.242586 3.812269 33.000000 17 344.013762
0.165333 -0.197583 4.282229 100.000000 30 344.013770
0.280910 -0.319326 3.917285 97.000000 29 344.013773
0.611831 -0.648305 3.467196 7.000000 26 344.013775
0.903864 -0.937254 3.595074 12.000000 24 344.013778
1.294124 -1.341015 3.915478 98.000000 22 344.013780
2.319724 -2.402965 5.533336 96.000000 20 344.013783
2.781751 -2.881579 5.376366 95.000000 18 344.013786
2.350684 -2.435043 3.747383 33.000000 16 344.013788
2.565876 -2.644071 3.700448 29.000000 15 344.013746
2.661660 -2.742779 3.163016 48.000000 13 344.013748
2.802372 -2.888788 2.723336 11.000000 11 344.013751
2.641511 -2.722970 2.071547 12.000000 9 344.013754
2.482412 -2.559858 1.529013 16.000000 7 344.013756
2.357648 -2.432051 1.084935 17.000000 5 344.013759
2.270289 -2.341935 0.710732 21.000000 3 344.013761
2.179769 -2.249343 0.373597 25.000000 1 344.013764
2.702757 -2.793892 3.542138 74.000000 14 344.013772
2.637922 -2.726874 2.846125 60.000000 12 344.013774
2.680575 -2.771934 2.350662 13.000000 10 344.013777
2.537397 -2.623879 1.774810 15.000000 8 344.013779
2.409580 -2.492576 1.295073 18.000000 6 344.013782
2.303692 -2.383873 0.890274 23.000000 4 344.013784
2.212284 -2.290083 0.535752 22.000000 2 344.013787
2.130691 -2.206391 0.217405 28.000000 0 344.013789
0.027880 -0.043020 4.324109 98.000000 31 344.013800
0.410370 -0.448046 3.862924 99.000000 28 344.013803
0.532613 -0.582891 3.819538 90.000000 27 344.013805
0.741728 -0.780374 3.486965 39.000000 25 344.013808
1.006534 -1.047376 3.481728 8.000000 23 344.013810
2.093919 -2.178163 5.602040 91.000000 21 344.013813
2.537661 -2.639766 5.450572 94.000000 19 344.013815
2.160892 -2.247839 3.808433 33.000000 17 344.013818
0.164677 -0.198130 4.282229 100.000000 30 344.013826
0.279850 -0.320256 3.917285 97.000000 29 344.013828
0.607958 -0.648495 3.457517 7.000000 26 344.013831
0.936564 -0.977631 3.735857 11.000000 24 344.013833
1.287928 -1.343952 3.910977 96.000000 22 344.013836
2.311322 -2.411048 5.533336 96.000000 20 344.013839
2.769590 -2.889096 5.372376 95.000000 18 344.013841
2.342596 -2.442825 3.747383 33.000000 16 344.013844
2.556631 -2.653012 3.700448 28.000000 15 344.013801
2.657473 -2.757659 3.169292 48.000000 13 344.013804
2.766162 -2.871450 2.698663 10.000000 11 344.013806
2.604328 -2.703459 2.050684 13.000000 9 344.013809
2.451396 -2.544705 1.515902 16.000000 7 344.013812
2.329604 -2.419123 1.076479 17.000000 5 344.013814
2.245067 -2.332151 0.706069 23.000000 3 344.013817
2.154638 -2.238996 0.371366 27.000000 1 344.013819
2.698162 -2.808696 3.548787 74.000000 14 344.013827
2.628387 -2.736066 2.846125 60.000000 12 344.013830
2.650461 -2.759045 2.332935 13.000000 10 344.013832
2.503528 -2.606095 1.758026 15.000000 8 344.013835
2.381675 -2.480116 1.285217 19.000000 6 344.013837
2.275578 -2.370461 0.883240 23.000000 4 344.013840
2.187533 -2.279541 0.532303 22.000000 2 344.013842
2.106070 -2.195418 0.216398 29.000000 0 344.013845
0.027737 -0.043112 4.324109 98.000000 31 344.013856
0.408882 -0.449405 3.862924 99.000000 28 344.013858
0.531361 -0.585409 3.824433 90.000000 27 344.013861
0.739136 -0.782829 3.486965 51.000000 25 344.013863
0.999008 -1.046469 3.467920 7.000000 23 344.013866
2.086684 -2.185095 5.602040 91.000000 21 344.013868
2.528893 -2.648167 5.450572 92.000000 19 344.013871
2.153426 -2.254992 3.808433 32.000000 17 344.013874
0.163985 -0.198704 4.282229 99.000000 30 344.013881
0.278730 -0.321231 3.917285 96.000000 29 344.013884
0.606548 -0.651534 3.462357 7.000000 26 344.013886
0.933146 -0.980894 3.735857 11.000000 24 344.013889
1.286468 -1.351370 3.919979 92.000000 22 344.013892
2.301515 -2.416811 5.529070 96.000000 20 344.013894
2.759994 -2.898265 5.372376 95.000000 18 344.013897
2.331717 -2.448533 3.743708 33.000000 16 344.013899
2.547819 -2.661475 3.700448 29.000000 15 344.013857
2.653697 -2.772081 3.175567 48.000000 13 344.013859
2.733497 -2.856439 2.676731 10.000000 11 344.013862
2.567781 -2.683273 2.029822 13.000000 9 344.013865
2.420065 -2.529797 1.502791 17.000000 7 344.013867
2.304568 -2.409904 1.069433 17.000000 5 344.013870
2.220345 -2.321832 0.701406 24.000000 3 344.013872
2.129995 -2.228130 0.369135 23.000000 1 344.013875
2.693990 -2.823031 3.555437 74.000000 14 344.013883
2.622090 -2.747691 2.849068 62.000000 12 344.013885
2.617008 -2.743324 2.312675 13.000000 10 344.013888
2.469354 -2.588547 1.741241 16.000000 8 344.013890
2.350190 -2.464491 1.273718 19.000000 6 344.013893
2.250520 -2.360799 0.877378 24.000000 4 344.013895
2.165897 -2.272823 0.529544 24.000000 2 344.013898
2.084610 -2.188287 0.215592 29.000000 0 344.013900
0.027586 -0.043208 4.324109 95.000000 31 344.013911
0.407310 -0.450829 3.862924 99.000000 28 344.013914
0.529314 -0.587260 3.824433 90.000000 27 344.013916
0.736399 -0.785404 3.486965 36.000000 25 344.013919
1.004757 -1.059874 3.500138 5.000000 23 344.013921
2.079045 -2.192365 5.602040 90.000000 21 344.013924
2.519634 -2.656979 5.450572 92.000000 19 344.013926
2.145542 -2.262495 3.808433 32.000000 17 344.013929
0.163107 -0.199050 4.277238 99.000000 30 344.013937
0.277259 -0.321797 3.912313 96.000000 29 344.013939
0.604270 -0.653648 3.462357 8.000000 26 344.013942
0.942751 -0.997944 3.787477 11.000000 24 344.013944
1.277255 -1.351105 3.906476 74.000000 22 344.013947
2.293065 -2.424829 5.529070 96.000000 20 344.013950
2.749861 -2.907881 5.372376 95.000000 18 344.013952
2.323155 -2.456657 3.743708 33.000000 16 344.013955
2.536056 -2.667768 3.696944 29.000000 15 344.013912
