# .PCD v.7 - Point Cloud Data file format
VERSION .7
FIELDS x y z intensity ring timestamp
SIZE 4 4 4 4 2 8
TYPE F F F F U D
COUNT 1 1 1 1 1 1
WIDTH 927
HEIGHT 1
VIEWPOINT 0 0 0 1 0 0 0
POINTS 927
DATA ascii
0.715378 -0.572911 1.071864 30.000000 16 345.911095
2.527590 -2.013408 3.255371 14.000000 15 345.911052
3.397443 -2.706316 3.583478 8.000000 13 345.911055
3.278402 -2.612426 2.832995 10.000000 11 345.911058
3.178266 -2.532635 2.212946 12.000000 9 345.911060
3.081966 -2.456777 1.680729 12.000000 7 345.911063
2.993373 -2.387010 1.214581 12.000000 5 345.911065
2.922715 -2.330665 0.801196 13.000000 3 345.911068
2.865155 -2.285583 0.421342 14.000000 1 345.911070
3.465538 -2.769465 4.030890 7.000000 14 345.911078
3.342767 -2.671356 3.199304 10.000000 12 345.911081
3.200480 -2.558563 2.492478 12.000000 10 345.911083
3.106265 -2.483248 1.925870 12.000000 8 345.911086
3.021014 -2.415960 1.434701 13.000000 6 345.911088
2.949221 -2.359390 1.001644 13.000000 4 345.911091
2.880414 -2.305168 0.606113 13.000000 2 345.911093
2.827352 -2.263513 0.239775 20.000000 0 345.911096
0.019858 -0.020771 1.729208 6.000000 31 345.911107
0.206066 -0.173813 1.714347 7.000000 28 345.911109
1.160188 -0.983034 7.334311 101.000000 27 345.911112
0.331209 -0.269414 1.411266 39.000000 25 345.911114
0.433119 -0.348460 1.369169 37.000000 23 345.911117
0.627546 -0.504720 1.542528 39.000000 21 345.911119
0.614497 -0.494229 1.230831 49.000000 19 345.911122
0.665996 -0.535653 1.099550 36.000000 17 345.911125
0.079859 -0.073465 1.711551 7.000000 30 345.911132
0.141558 -0.124885 1.714950 8.000000 29 345.911135
3.042292 -2.512091 15.216785 6.000000 26 345.911137
1.266819 -1.022895 4.482007 90.000000 24 345.911140
0.508051 -0.409923 1.413014 34.000000 22 345.911143
0.573773 -0.462795 1.275934 27.000000 20 345.911145
0.560416 -0.452024 1.027813 38.000000 18 345.911148
0.708097 -0.571148 1.064513 34.000000 16 345.911150
2.503856 -2.008829 3.234344 13.000000 15 345.911108
3.345466 -2.684054 3.539550 9.000000 13 345.911111
3.230130 -2.592447 2.800097 10.000000 11 345.911113
3.134856 -2.515984 2.189766 12.000000 9 345.911116
3.037222 -2.438497 1.661999 12.000000 7 345.911118
2.951360 -2.370408 1.201898 12.000000 5 345.911121
2.880093 -2.313169 0.792802 13.000000 3 345.911123
2.829984 -2.273736 0.418218 14.000000 1 345.911126
3.386031 -2.725349 3.951094 8.000000 14 345.911134
3.289339 -2.647527 3.158100 10.000000 12 345.911136
3.154591 -2.539978 2.464621 12.000000 10 345.911139
3.062228 -2.465613 1.904889 12.000000 8 345.911141
2.975784 -2.396867 1.418274 13.000000 6 345.911144
2.906903 -2.342223 0.991093 13.000000 4 345.911146
2.841505 -2.290346 0.600595 13.000000 2 345.911149
2.792209 -2.251417 0.238365 19.000000 0 345.911152
0.019786 -0.020840 1.729208 6.000000 31 345.911162
0.205458 -0.174531 1.714347 7.000000 28 345.911165
1.155975 -0.986417 7.329416 100.000000 27 345.911167
0.331421 -0.271515 1.416037 39.000000 25 345.911170
0.430383 -0.348739 1.364567 37.000000 23 345.911172
0.616472 -0.499368 1.520585 37.000000 21 345.911175
0.612768 -0.496371 1.230831 53.000000 19 345.911178
0.664122 -0.537974 1.099550 36.000000 17 345.911180
0.079392 -0.073544 1.706559 7.000000 30 345.911188
0.141122 -0.125378 1.714950 8.000000 29 345.911190
1.263241 -1.027310 4.482007 90.000000 24 345.911196
0.494787 -0.402080 1.381508 39.000000 22 345.911198
0.572155 -0.464795 1.275934 27.000000 20 345.911201
0.558835 -0.453978 1.027813 37.000000 18 345.911203
0.700836 -0.569341 1.057163 34.000000 16 345.911206
2.499603 -2.019798 3.237848 8.000000 15 345.911163
3.293686 -2.661462 3.495621 10.000000 13 345.911166
3.182039 -2.572163 2.767200 10.000000 11 345.911169
3.088155 -2.496276 2.164268 12.000000 9 345.911171
2.996248 -2.422849 1.645141 12.000000 7 345.911174
2.909500 -2.353542 1.189215 12.000000 5 345.911176
2.845267 -2.301583 0.786274 13.000000 3 345.911179
2.791059 -2.258539 0.414649 14.000000 1 345.911181
3.292372 -2.668956 3.854673 10.000000 14 345.911189
3.236119 -2.623357 3.116896 11.000000 12 345.911192
3.108871 -2.521103 2.436764 12.000000 10 345.911194
3.021877 -2.450559 1.886007 12.000000 8 345.911197
2.938060 -2.383439 1.405133 13.000000 6 345.911199
2.868516 -2.327853 0.981714 14.000000 4 345.911202
2.806580 -2.278403 0.595766 14.000000 2 345.911205
2.753308 -2.235954 0.236752 20.000000 0 345.911207
0.019713 -0.020909 1.729208 6.000000 31 345.911218
0.205437 -0.175753 1.719286 7.000000 28 345.911220
1.152525 -0.990446 7.329416 100.000000 27 345.911223
0.330471 -0.272671 1.416037 39.000000 25 345.911225
0.429163 -0.350240 1.364567 37.000000 23 345.911228
0.607300 -0.495458 1.503030 36.000000 21 345.911231
0.611032 -0.498507 1.230831 53.000000 19 345.911233
0.659756 -0.538263 1.095713 36.000000 17 345.911236
0.079135 -0.073821 1.706559 7.000000 30 345.911243
0.140683 -0.125870 1.714950 8.000000 29 345.911246
1.259647 -1.031714 4.482007 91.000000 24 345.911251
0.491696 -0.402425 1.377008 40.000000 22 345.911254
0.570529 -0.466789 1.275934 28.000000 20 345.911256
0.554914 -0.454017 1.023823 37.000000 18 345.911259
0.693597 -0.567490 1.049813 34.000000 16 345.911261
2.487005 -2.024009 3.230839 6.000000 15 345.911219
3.239086 -2.636084 3.448554 11.000000 13 345.911222
3.134129 -2.551575 2.734302 11.000000 11 345.911224
3.045067 -2.479071 2.141088 12.000000 9 345.911227
2.951826 -2.404017 1.626411 13.000000 7 345.911229
2.867794 -2.336413 1.176532 12.000000 5 345.911232
2.806749 -2.286679 0.778813 13.000000 3 345.911234
2.752276 -2.243099 0.411079 14.000000 1 345.911237
3.186239 -2.601405 3.078635 10.000000 12 345.911247
3.063322 -2.501941 2.408908 12.000000 10 345.911250
2.978153 -2.432383 1.865026 12.000000 8 345.911252
2.896809 -2.366789 1.390348 14.000000 6 345.911255
2.830265 -2.313244 0.972336 14.000000 4 345.911257
2.767939 -2.263109 0.590248 14.000000 2 345.911260
2.718416 -2.223411 0.235342 19.000000 0 345.911263
0.019640 -0.020978 1.729208 6.000000 31 345.911273
0.204823 -0.176469 1.719286 7.000000 28 345.911276
1.149061 -0.994463 7.329416 100.000000 27 345.911278
0.329518 -0.273823 1.416037 39.000000 25 345.911281
0.426428 -0.350495 1.359964 38.000000 23 345.911283
0.561143 -0.461072 1.397702 33.000000 21 345.911286
0.609288 -0.500636 1.230831 55.000000 19 345.911288
0.655396 -0.538527 1.091876 36.000000 17 345.911291
0.078876 -0.074097 1.706559 7.000000 30 345.911299
0.140243 -0.126361 1.714950 8.000000 29 345.911301
1.256038 -1.036104 4.482007 93.000000 24 345.911306
0.500370 -0.412450 1.404013 39.000000 22 345.911309
0.566883 -0.467119 1.271668 29.000000 20 345.911311
0.553326 -0.455951 1.023823 35.000000 18 345.911314
0.686379 -0.565596 1.042462 31.000000 16 345.911317
3.181693 -2.607890 3.398350 10.000000 13 345.911277
3.089635 -2.533336 2.704146 11.000000 11 345.911279
3.002136 -2.461595 2.117907 12.000000 9 345.911282
2.911157 -2.387846 1.609554 12.000000 7 345.911285
2.829952 -2.322065 1.165259 12.000000 5 345.911287
2.772167 -2.274651 0.772285 14.000000 3 345.911290
2.717484 -2.230575 0.407956 15.000000 1 345.911292
2.621780 -2.155845 3.103258 14.000000 14 345.911300
3.136552 -2.579138 3.040374 11.000000 12 345.911303
3.021275 -2.485231 2.383584 12.000000 10 345.911305
2.938099 -2.416815 1.846144 12.000000 8 345.911308
2.859357 -2.352880 1.377207 14.000000 6 345.911310
2.792151 -2.298396 0.962957 14.000000 4 345.911313
2.733262 -2.250721 0.585419 14.000000 2 345.911315
2.683646 -2.210651 0.233931 20.000000 0 345.911318
0.019566 -0.021046 1.729208 6.000000 31 345.911329
0.204205 -0.177183 1.719286 7.000000 28 345.911331
1.145583 -0.998468 7.329416 100.000000 27 345.911334
0.328560 -0.274971 1.416037 39.000000 25 345.911336
0.425202 -0.351981 1.359964 37.000000 23 345.911339
0.518924 -0.429424 1.301152 35.000000 21 345.911341
0.607537 -0.502760 1.230831 53.000000 19 345.911344
0.651043 -0.538768 1.088039 36.000000 17 345.911346
0.078617 -0.074372 1.706559 7.000000 30 345.911354
0.139407 -0.126489 1.709979 8.000000 29 345.911357
1.252414 -1.040482 4.482007 91.000000 24 345.911362
0.520634 -0.432369 1.462524 38.000000 22 345.911364
0.565167 -0.469194 1.271668 31.000000 20 345.911367
0.551651 -0.457976 1.023823 35.000000 18 345.911370
0.676476 -0.561611 1.031437 29.000000 16 345.911372
3.142549 -2.594198 3.366972 10.000000 13 345.911332
3.045307 -2.514817 2.673990 11.000000 11 345.911335
2.962781 -2.446671 2.097045 12.000000 9 345.911337
2.870637 -2.371421 1.592696 13.000000 7 345.911340
2.792245 -2.307481 1.153985 12.000000 5 345.911343
2.737309 -2.262887 0.765756 14.000000 3 345.911345
2.682426 -2.218304 0.404832 15.000000 1 345.911348
2.636867 -2.184498 3.129857 19.000000 14 345.911355
3.086614 -2.557094 3.002113 11.000000 12 345.911358
2.978951 -2.468778 2.358259 12.000000 10 345.911361
2.901265 -2.404400 1.829359 13.000000 8 345.911363
2.821630 -2.339233 1.364065 14.000000 6 345.911366
2.753777 -2.283792 0.953579 15.000000 4 345.911368
2.698315 -2.238590 0.580590 14.000000 2 345.911371
2.652843 -2.200866 0.232722 19.000000 0 345.911373
0.019489 -0.021118 1.729208 6.000000 31 345.911384
0.203555 -0.177930 1.719286 7.000000 28 345.911387
1.141915 -1.002660 7.329416 100.000000 27 345.911389
0.326408 -0.275210 1.411266 39.000000 25 345.911392
0.425410 -0.354789 1.364567 37.000000 23 345.911394
0.508147 -0.423652 1.279209 35.000000 21 345.911397
0.605690 -0.504984 1.230831 47.000000 19 345.911399
0.646601 -0.539097 1.084202 36.000000 17 345.911402
0.078344 -0.074659 1.706559 7.000000 30 345.911410
0.138942 -0.126999 1.709979 8.000000 29 345.911412
0.297990 -0.254800 1.546031 4.000000 26 345.911415
1.248592 -1.045066 4.482007 90.000000 24 345.911417
0.540837 -0.452347 1.521034 37.000000 22 345.911420
0.563526 -0.471164 1.271668 32.000000 20 345.911423
0.547737 -0.457966 1.019834 35.000000 18 345.911425
0.669310 -0.559620 1.024087 27.000000 16 345.911428
2.429671 -2.020726 3.185280 2.000000 15 345.911385
3.103090 -2.580806 3.335594 9.000000 13 345.911388
3.000711 -2.496545 2.643834 11.000000 11 345.911390
2.919738 -2.429179 2.073865 12.000000 9 345.911393
2.833420 -2.358201 1.577712 13.000000 7 345.911396
2.757962 -2.296213 1.144121 12.000000 5 345.911398
2.702968 -2.250427 0.759228 14.000000 3 345.911401
2.647880 -2.205344 0.401709 16.000000 1 345.911403
2.623490 -2.188905 3.123207 17.000000 14 345.911411
3.040426 -2.536779 2.966795 11.000000 12 345.911414
2.940526 -2.454298 2.335467 12.000000 10 345.911416
2.861496 -2.388339 1.810477 13.000000 8 345.911419
2.784447 -2.324855 1.350924 14.000000 6 345.911421
2.719675 -2.271579 0.945372 15.000000 4 345.911424
2.663882 -2.225769 0.575761 14.000000 2 345.911426
2.617926 -2.188146 0.231311 19.000000 0 345.911429
0.019415 -0.021186 1.729208 6.000000 31 345.911440
0.203515 -0.179154 1.724225 8.000000 28 345.911442
1.138408 -1.006640 7.329416 100.000000 27 345.911445
0.325446 -0.276348 1.411266 40.000000 25 345.911447
0.425665 -0.357528 1.369169 36.000000 23 345.911450
0.502995 -0.422342 1.270431 36.000000 21 345.911452
0.606079 -0.508904 1.234964 40.000000 19 345.911455
0.644716 -0.541351 1.084202 36.000000 17 345.911457
0.078083 -0.074932 1.706559 7.000000 30 345.911465
0.138498 -0.127483 1.709979 8.000000 29 345.911468
0.303768 -0.261587 1.579906 7.000000 26 345.911470
1.244936 -1.049418 4.482007 91.000000 24 345.911473
0.539255 -0.454232 1.521034 37.000000 22 345.911475
0.563873 -0.474808 1.275934 33.000000 20 345.911478
0.546135 -0.459875 1.019834 35.000000 18 345.911481
0.651794 -0.548851 1.002036 22.000000 16 345.911483
2.430805 -2.036065 3.195793 2.000000 15 345.911441
3.061235 -2.564126 3.301078 9.000000 13 345.911443
2.956723 -2.477463 2.613677 11.000000 11 345.911446
2.880679 -2.413748 2.053003 12.000000 9 345.911449
2.796748 -2.344253 1.562728 13.000000 7 345.911451
2.720521 -2.281167 1.132847 13.000000 5 345.911454
2.668747 -2.237755 0.752700 14.000000 3 345.911456
2.613457 -2.192170 0.398585 16.000000 1 345.911459
2.612975 -2.195646 3.119882 17.000000 14 345.911467
2.997513 -2.518773 2.934420 11.000000 12 345.911469
2.898940 -2.436807 2.310143 12.000000 10 345.911472
2.821874 -2.372030 1.791595 13.000000 8 345.911474
2.747399 -2.310245 1.337782 15.000000 6 345.911477
2.685691 -2.259156 0.937166 15.000000 4 345.911479
2.629573 -2.212734 0.570933 15.000000 2 345.911482
2.587339 -2.177967 0.230102 20.000000 0 345.911484
0.019341 -0.021253 1.729208 6.000000 31 345.911495
0.202307 -0.179347 1.719286 7.000000 28 345.911498
1.134887 -1.010607 7.329416 100.000000 27 345.911500
0.324479 -0.277483 1.411266 47.000000 25 345.911503
0.424414 -0.359012 1.369169 34.000000 23 345.911505
0.499688 -0.422548 1.266042 37.000000 21 345.911508
0.604299 -0.511017 1.234964 39.000000 19 345.911510
0.640374 -0.541528 1.080365 36.000000 17 345.911513
0.077821 -0.075204 1.706559 7.000000 30 345.911521
0.137662 -0.127602 1.705007 8.000000 29 345.911523
0.308552 -0.267593 1.608941 10.000000 26 345.911526
1.241265 -1.053757 4.482007 91.000000 24 345.911528
0.529363 -0.449068 1.498530 38.000000 22 345.911531
0.562212 -0.476774 1.275934 34.000000 20 345.911534
0.544527 -0.461779 1.019834 35.000000 18 345.911536
0.660216 -0.559894 1.016736 16.000000 16 345.911539
2.423683 -2.044538 3.195793 2.000000 15 345.911496
3.022511 -2.549695 3.269701 10.000000 13 345.911499
2.916101 -2.460802 2.586263 11.000000 11 345.911501
2.841764 -2.398075 2.032140 12.000000 9 345.911504
2.760209 -2.330078 1.547743 13.000000 7 345.911507
2.686885 -2.268983 1.122983 13.000000 5 345.911509
2.634648 -2.224871 0.746171 15.000000 3 345.911512
2.579159 -2.178783 0.395462 16.000000 1 345.911514
2.608145 -2.207166 3.123207 18.000000 14 345.911522
2.954762 -2.500499 2.902045 11.000000 12 345.911525
2.860802 -2.421841 2.287351 12.000000 10 345.911527
2.785865 -2.358406 1.774810 13.000000 8 345.911530
2.714091 -2.298458 1.326284 15.000000 6 345.911532
2.651828 -2.246524 0.928960 16.000000 4 345.911535
2.599165 -2.202689 0.566794 15.000000 2 345.911537
2.556856 -2.167601 0.228893 21.000000 0 345.911540
0.019292 -0.021357 1.734208 6.000000 31 345.911551
0.202259 -0.180570 1.724225 7.000000 28 345.911553
1.132111 -1.015243 7.334311 99.000000 27 345.911556
0.323508 -0.278613 1.411266 55.000000 25 345.911558
0.424645 -0.361758 1.373772 33.000000 23 345.911561
0.498210 -0.424290 1.266042 37.000000 21 345.911563
0.604654 -0.514948 1.239097 38.000000 19 345.911566
0.638480 -0.543760 1.080365 37.000000 17 345.911569
0.077558 -0.075475 1.706559 7.000000 30 345.911576
0.137216 -0.128081 1.705007 8.000000 29 345.911579
0.315192 -0.275292 1.647655 10.000000 26 345.911581
1.237579 -1.058083 4.482007 90.000000 24 345.911584
0.521169 -0.445254 1.480527 38.000000 22 345.911587
0.562527 -0.480427 1.280200 34.000000 20 345.911589
0.542911 -0.463676 1.019834 36.000000 18 345.911592
0.650524 -0.555590 1.005711 11.000000 16 345.911594
2.413814 -2.050677 3.192289 2.000000 15 345.911552
2.980958 -2.532505 3.235185 10.000000 13 345.911554
2.875631 -2.443887 2.558848 11.000000 11 345.911557
2.802994 -2.382159 2.011278 12.000000 9 345.911560
2.723802 -2.315676 1.532759 14.000000 7 345.911562
2.653368 -2.256593 1.113118 13.000000 5 345.911565
2.604414 -2.214960 0.740576 15.000000 3 345.911567
2.548779 -2.168411 0.392784 16.000000 1 345.911570
2.600425 -2.216257 3.123207 17.000000 14 345.911578
2.912176 -2.481957 2.869670 11.000000 12 345.911580
2.822804 -2.406639 2.264559 13.000000 10 345.911583
2.746533 -2.341615 1.755927 14.000000 8 345.911585
2.677307 -2.283402 1.313142 16.000000 6 345.911588
2.618086 -2.233684 0.920754 17.000000 4 345.911590
2.565093 -2.189245 0.561965 16.000000 2 345.911593
2.522678 -2.153805 0.227482 20.000000 0 345.911595
0.019217 -0.021424 1.734208 6.000000 31 345.911606
0.201627 -0.181275 1.724225 7.000000 28 345.911609
1.128560 -1.019188 7.334311 99.000000 27 345.911611
0.322534 -0.279741 1.411266 56.000000 25 345.911614
0.424863 -0.364510 1.378374 32.000000 23 345.911616
0.496726 -0.426027 1.266042 37.000000 21 345.911619
0.602852 -0.517055 1.239097 36.000000 19 345.911621
0.634145 -0.543898 1.076528 37.000000 17 345.911624
0.077294 -0.075746 1.706559 7.000000 30 345.911632
0.136768 -0.128560 1.705007 8.000000 29 345.911634
0.315173 -0.277221 1.652494 10.000000 26 345.911637
1.235186 -1.063523 4.486700 90.000000 24 345.911639
0.514660 -0.442810 1.467024 38.000000 22 345.911642
0.564801 -0.485789 1.288732 34.000000 20 345.911645
0.541289 -0.465569 1.019834 37.000000 18 345.911647
2.403931 -2.056772 3.188784 2.000000 15 345.911607
2.939562 -2.515056 3.200670 10.000000 13 345.911610
2.835315 -2.426721 2.531433 11.000000 11 345.911613
2.767735 -2.368883 1.992734 12.000000 9 345.911615
2.687531 -2.301049 1.517775 14.000000 7 345.911618
2.623613 -2.247117 1.104663 14.000000 5 345.911620
2.570550 -2.201669 0.734047 16.000000 3 345.911623
2.518504 -2.157853 0.390107 16.000000 1 345.911625
2.595506 -2.227753 3.126532 12.000000 14 345.911633
2.872823 -2.465782 2.840239 11.000000 12 345.911636
2.784947 -2.391201 2.241767 13.000000 10 345.911638
2.710795 -2.327536 1.739143 14.000000 8 345.911641
2.644243 -2.271194 1.301643 17.000000 6 345.911643
2.584466 -2.220635 0.912548 17.000000 4 345.911646
2.534902 -2.178817 0.557826 17.000000 2 345.911648
2.492415 -2.143055 0.226273 21.000000 0 345.911651
0.019142 -0.021491 1.734208 6.000000 31 345.911662
0.200993 -0.181978 1.724225 7.000000 28 345.911664
1.125749 -1.023807 7.339206 100.000000 27 345.911667
0.320431 -0.279882 1.406494 64.000000 25 345.911669
0.425066 -0.367268 1.382977 33.000000 23 345.911672
0.495236 -0.427758 1.266042 37.000000 21 345.911674
0.601044 -0.519156 1.239097 35.000000 19 345.911677
0.632242 -0.546108 1.076528 37.000000 17 345.911680
0.077029 -0.076015 1.706559 7.000000 30 345.911687
0.136318 -0.129036 1.705007 8.000000 29 345.911690
0.319850 -0.283326 1.681529 14.000000 26 345.911692
1.231466 -1.067828 4.486700 90.000000 24 345.911695
0.519694 -0.450308 1.485028 38.000000 22 345.911698
0.565074 -0.489465 1.292997 35.000000 20 345.911700
0.539661 -0.467455 1.019834 37.000000 18 345.911703
2.396737 -2.065150 3.188784 2.000000 15 345.911663
2.901274 -2.499891 3.169292 10.000000 13 345.911665
2.798322 -2.412033 2.506760 11.000000 11 345.911668
2.729249 -2.352498 1.971871 13.000000 9 345.911671
2.654905 -2.289225 1.504664 15.000000 7 345.911673
2.590325 -2.234328 1.094799 15.000000 5 345.911676
2.540532 -2.191378 0.728452 16.000000 3 345.911678
2.488333 -2.147111 0.387430 18.000000 1 345.911681
2.587714 -2.236799 3.126532 12.000000 14 345.911689
2.833620 -2.449362 2.810807 11.000000 12 345.911691
2.747234 -2.375528 2.218976 13.000000 10 345.911694
2.678623 -2.316204 1.724457 14.000000 8 345.911696
2.611297 -2.258784 1.290145 16.000000 6 345.911699
2.554646 -2.210560 0.905514 18.000000 4 345.911701
2.504815 -2.168206 0.553687 18.000000 2 345.911704
2.462259 -2.132120 0.225064 22.000000 0 345.911707
0.019043 -0.021521 1.729208 6.000000 31 345.911717
0.200357 -0.182678 1.724225 7.000000 28 345.911720
1.122168 -1.027730 7.339206 94.000000 27 345.911722
0.319452 -0.280999 1.406494 62.000000 25 345.911725
0.423781 -0.368750 1.382977 35.000000 23 345.911727
0.493740 -0.429484 1.266042 36.000000 21 345.911730
0.601351 -0.523098 1.243230 34.000000 19 345.911733
0.630332 -0.548312 1.076528 37.000000 17 345.911735
0.076763 -0.076283 1.706559 7.000000 30 345.911743
0.135867 -0.129511 1.705007 7.000000 29 345.911745
0.302909 -0.270200 1.599263 11.000000 26 345.911748
1.227731 -1.072120 4.486700 93.000000 24 345.911751
0.526323 -0.459279 1.507532 38.000000 22 345.911753
0.565327 -0.493149 1.297263 35.000000 20 345.911756
0.542568 -0.473299 1.027813 39.000000 18 345.911758
2.389513 -2.073504 3.188784 2.000000 15 345.911718
2.860188 -2.481938 3.134776 10.000000 13 345.911721
2.761467 -2.397117 2.482087 11.000000 11 345.911724
2.694256 -2.338777 1.953327 14.000000 9 345.911726
2.618895 -2.274161 1.489679 15.000000 7 345.911729
2.557158 -2.221334 1.084935 15.000000 5 345.911731
2.510616 -2.180904 0.722856 17.000000 3 345.911734
2.458269 -2.136184 0.384753 19.000000 1 345.911736
2.579891 -2.245819 3.126532 12.000000 14 345.911744
2.794565 -2.432699 2.781376 11.000000 12 345.911747
2.709663 -2.359622 2.196184 13.000000 10 345.911749
2.643140 -2.301696 1.707672 15.000000 8 345.911752
2.578471 -2.246172 1.278646 17.000000 6 345.911754
2.521263 -2.197111 0.897307 18.000000 4 345.911757
2.474834 -2.157411 0.549548 18.000000 2 345.911759
2.432209 -2.121001 0.223854 23.000000 0 345.911762
0.018967 -0.021588 1.729208 6.000000 31 345.911773
0.199718 -0.183377 1.724225 7.000000 28 345.911775
1.119322 -1.032331 7.344101 94.000000 27 345.911778
0.318469 -0.282113 1.406494 67.000000 25 345.911780
0.422491 -0.370227 1.382977 36.000000 23 345.911783
0.492238 -0.431205 1.266042 36.000000 21 345.911785
0.599522 -0.525194 1.243230 34.000000 19 345.911788
0.628414 -0.550509 1.076528 36.000000 17 345.911791
0.076294 -0.076344 1.701568 7.000000 30 345.911798
0.135414 -0.129985 1.705007 7.000000 29 345.911801
0.298223 -0.267892 1.579906 11.000000 26 345.911803
1.223982 -1.076399 4.486700 91.000000 24 345.911806
0.529624 -0.465426 1.521034 40.000000 22 345.911809
0.565561 -0.496841 1.301529 38.000000 20 345.911811
0.543177 -0.477179 1.031802 40.000000 18 345.911814
2.384946 -2.084179 3.192289 2.000000 15 345.911774
2.819263 -2.463729 3.100261 9.000000 13 345.911777
2.724749 -2.381973 2.457414 11.000000 11 345.911779
2.656057 -2.321926 1.932465 14.000000 9 345.911782
2.586513 -2.261926 1.476568 15.000000 7 345.911784
2.524114 -2.208135 1.075070 16.000000 5 345.911787
2.477108 -2.167014 0.716328 17.000000 3 345.911789
2.432059 -2.128354 0.382522 21.000000 1 345.911792
2.572036 -2.254810 3.126532 13.000000 14 345.911800
2.758702 -2.418458 2.754887 11.000000 12 345.911802
2.675479 -2.346326 2.175925 13.000000 10 345.911805
2.611204 -2.289961 1.692986 15.000000 8 345.911807
2.545765 -2.233359 1.267147 16.000000 6 345.911810
2.491658 -2.186661 0.890274 19.000000 4 345.911812
2.444959 -2.146434 0.545410 18.000000 2 345.911815
2.402268 -2.109698 0.222645 23.000000 0 345.911818
0.018892 -0.021654 1.729208 6.000000 31 345.911828
0.199077 -0.184073 1.724225 7.000000 28 345.911831
1.116458 -1.036925 7.348997 87.000000 27 345.911833
0.318597 -0.284217 1.411266 73.000000 25 345.911836
0.421197 -0.371699 1.382977 37.000000 23 345.911838
0.490730 -0.432920 1.266042 36.000000 21 345.911841
0.595574 -0.525422 1.239097 35.000000 19 345.911844
0.628893 -0.554820 1.080365 33.000000 17 345.911846
0.076027 -0.076610 1.701568 7.000000 30 345.911854
0.134960 -0.130457 1.705007 8.000000 29 345.911856
0.282368 -0.255423 1.502479 12.000000 26 345.911859
1.220217 -1.080665 4.486700 91.000000 24 345.911862
0.532888 -0.471602 1.534537 40.000000 22 345.911864
0.563824 -0.498812 1.301529 39.000000 20 345.911867
0.546023 -0.483066 1.039781 40.000000 18 345.911869
2.380334 -2.094847 3.195793 2.000000 15 345.911829
2.784345 -2.450408 3.072021 9.000000 13 345.911832
2.688172 -2.366602 2.432740 11.000000 11 345.911835
2.621334 -2.307763 1.913921 14.000000 9 345.911837
2.557727 -2.252557 1.465330 17.000000 7 345.911840
2.494793 -2.197905 1.066615 16.000000 5 345.911842
2.447413 -2.156164 0.710732 18.000000 3 345.911845
2.402198 -2.117074 0.379844 22.000000 1 345.911847
2.564149 -2.263775 3.126532 15.000000 14 345.911855
2.722973 -2.403997 2.728399 11.000000 12 345.911858
2.641421 -2.332819 2.155665 13.000000 10 345.911860
2.579382 -2.278031 1.678300 16.000000 8 345.911863
2.516719 -2.223471 1.257291 16.000000 6 345.911865
2.462158 -2.176033 0.883240 21.000000 4 345.911868
2.415191 -2.135275 0.541271 19.000000 2 345.911871
2.372435 -2.098212 0.221436 23.000000 0 345.911873
0.018816 -0.021719 1.729208 6.000000 31 345.911884
0.198433 -0.184766 1.724225 7.000000 28 345.911886
1.112831 -1.040816 7.348997 87.000000 27 345.911889
0.317603 -0.285327 1.411266 75.000000 25 345.911891
0.418436 -0.371870 1.378374 37.000000 23 345.911894
0.489216 -0.434631 1.266042 37.000000 21 345.911897
0.593737 -0.527498 1.239097 37.000000 19 345.911899
0.622159 -0.552753 1.072691 25.000000 17 345.911902
0.075759 -0.076875 1.701568 7.000000 30 345.911909
0.134885 -0.131301 1.709979 8.000000 29 345.911912
0.268462 -0.244542 1.434730 16.000000 26 345.911915
1.216437 -1.084918 4.486700 91.000000 24 345.911917
0.532865 -0.474908 1.539038 40.000000 22 345.911920
0.564026 -0.502512 1.305795 47.000000 20 345.911922
0.551084 -0.490984 1.051750 40.000000 18 345.911925
2.375676 -2.105509 3.199298 3.000000 15 345.911885
2.746641 -2.434292 3.040643 10.000000 13 345.911888
2.651735 -2.351005 2.408067 12.000000 11 345.911890
2.586743 -2.293387 1.895377 15.000000 9 345.911893
2.525570 -2.239939 1.452219 17.000000 7 345.911895
2.465574 -2.187497 1.058160 16.000000 5 345.911898
2.417825 -2.145133 0.705136 20.000000 3 345.911900
2.376170 -2.108918 0.377613 22.000000 1 345.911903
2.556232 -2.272712 3.126532 15.000000 14 345.911911
2.687378 -2.389316 2.701910 12.000000 12 345.911913
2.607491 -2.319104 2.135406 14.000000 10 345.911916
2.547676 -2.265908 1.663613 17.000000 8 345.911918
2.487773 -2.213408 1.247435 18.000000 6 345.911921
2.436393 -2.168456 0.877378 22.000000 4 345.911923
2.385531 -2.123934 0.537132 20.000000 2 345.911926
2.346443 -2.089866 0.220428 24.000000 0 345.911929
0.018717 -0.021748 1.724208 6.000000 31 345.911939
0.197221 -0.184926 1.719286 7.000000 28 345.911942
1.109191 -1.044695 7.348997 93.000000 27 345.911944
0.316605 -0.286434 1.411266 75.000000 25 345.911947
0.417136 -0.373328 1.378374 37.000000 23 345.911949
0.487695 -0.436336 1.266042 37.000000 21 345.911952
0.589795 -0.527691 1.234964 39.000000 19 345.911954
0.627393 -0.561335 1.084202 13.000000 17 345.911957
0.075691 -0.077348 1.706559 7.000000 30 345.911965
0.134425 -0.131771 1.709979 8.000000 29 345.911967
0.262975 -0.241224 1.410534 22.000000 26 345.911970
1.212643 -1.089158 4.486700 91.000000 24 345.911972
0.532824 -0.478220 1.543539 40.000000 22 345.911975
0.562269 -0.504478 1.305795 49.000000 20 345.911977
0.553854 -0.496931 1.059729 39.000000 18 345.911980
2.370972 -2.116163 3.202802 2.000000 15 345.911940
2.709084 -2.417943 3.009265 10.000000 13 345.911943
2.618560 -2.337968 2.386136 12.000000 11 345.911945
2.555589 -2.281749 1.879151 15.000000 9 345.911948
2.496991 -2.230212 1.440981 18.000000 7 345.911951
2.436459 -2.176913 1.049705 17.000000 5 345.911953
2.388344 -2.133923 0.699540 21.000000 3 345.911956
2.350229 -2.100606 0.375382 23.000000 1 345.911958
2.559411 -2.291585 3.139831 12.000000 14 345.911966
2.651919 -2.374416 2.675422 12.000000 12 345.911969
2.573688 -2.305181 2.115146 14.000000 10 345.911971
2.516085 -2.253591 1.648927 17.000000 8 345.911974
2.458929 -2.203171 1.237579 20.000000 6 345.911976
2.407091 -2.157482 0.870344 22.000000 4 345.911979
2.359667 -2.115718 0.533683 21.000000 2 345.911981
2.316819 -2.078029 0.219219 26.000000 0 345.911984
0.018641 -0.021814 1.724208 6.000000 31 345.911995
0.196010 -0.185079 1.714347 7.000000 28 345.911997
1.105538 -1.048560 7.348997 93.000000 27 345.912000
0.315603 -0.287538 1.411266 73.000000 25 345.912002
0.415830 -0.374782 1.378374 37.000000 23 345.912005
0.486169 -0.438035 1.266042 37.000000 21 345.912007
0.587949 -0.529746 1.234964 39.000000 19 345.912010
2.047308 -1.844685 3.374858 6.000000 17 345.912012
0.075420 -0.077612 1.706559 7.000000 30 345.912020
0.133965 -0.132239 1.709979 8.000000 29 345.912023
0.263055 -0.242995 1.415373 31.000000 26 345.912025
1.208833 -1.093384 4.486700 91.000000 24 345.912028
0.531152 -0.480077 1.543539 40.000000 22 345.912030
0.560504 -0.506437 1.305795 45.000000 20 345.912033
0.576715 -0.521088 1.103613 39.000000 18 345.912036
2.366223 -2.126811 3.206307 2.000000 15 345.911996
2.674570 -2.403964 2.981025 10.000000 13 345.911998
2.585508 -2.324728 2.364204 12.000000 11 345.912001
2.521254 -2.266959 1.860606 15.000000 9 345.912003
2.468510 -2.220313 1.429742 18.000000 7 345.912006
2.411015 -2.169360 1.042659 17.000000 5 345.912009
2.362622 -2.125818 0.694877 18.000000 3 345.912011
2.324375 -2.092139 0.373151 24.000000 1 345.912014
2.565264 -2.313008 3.156455 9.000000 14 345.912021
2.616598 -2.359298 2.648933 12.000000 12 345.912024
2.540015 -2.291050 2.094887 14.000000 10 345.912027
2.487983 -2.244121 1.636339 18.000000 8 345.912029
2.433692 -2.195922 1.229365 21.000000 6 345.912032
2.381505 -2.149587 0.864483 24.000000 4 345.912034
2.330214 -2.104029 0.529544 22.000000 2 345.912037
2.291014 -2.069360 0.218212 25.000000 0 345.912039
0.018564 -0.021878 1.724208 6.000000 31 345.912050
0.195363 -0.185762 1.714347 7.000000 28 345.912053
1.101871 -1.052413 7.348997 93.000000 27 345.912055
0.314597 -0.288638 1.411266 73.000000 25 345.912058
0.414519 -0.376231 1.378374 34.000000 23 345.912060
0.486412 -0.441340 1.270431 38.000000 21 345.912063
0.584012 -0.529904 1.230831 42.000000 19 345.912065
2.059850 -1.869055 3.405554 5.000000 17 345.912068
0.075348 -0.078085 1.711551 7.000000 30 345.912076
0.133879 -0.133084 1.714950 8.000000 29 345.912078
0.262205 -0.243911 1.415373 36.000000 26 345.912081
1.205009 -1.097597 4.486700 90.000000 24 345.912083
0.531083 -0.483394 1.548039 40.000000 22 345.912086
0.560662 -0.510146 1.310061 39.000000 20 345.912089
0.612789 -0.557581 1.171435 42.000000 18 345.912091
2.358785 -2.135057 3.206307 3.000000 15 345.912051
2.640188 -2.389774 2.952785 10.000000 13 345.912054
2.552580 -2.311286 2.342272 12.000000 11 345.912056
2.490338 -2.254930 1.844380 15.000000 9 345.912059
2.440129 -2.210243 1.418504 18.000000 7 345.912062
2.382097 -2.158436 1.034204 18.000000 5 345.912064
2.336986 -2.117560 0.690214 18.000000 3 345.912067
2.294919 -2.080172 0.370474 25.000000 1 345.912069
2.568233 -2.331990 3.169755 7.000000 14 345.912077
2.584407 -2.346679 2.625388 12.000000 12 345.912080
2.509664 -2.279611 2.077160 15.000000 10 345.912082
2.459977 -2.234483 1.623750 18.000000 8 345.912085
2.405042 -2.185349 1.219509 21.000000 6 345.912087
2.356003 -2.141541 0.858621 25.000000 4 345.912090
2.304535 -2.095492 0.526095 22.000000 2 345.912092
2.265298 -2.060536 0.217204 25.000000 0 345.912095
0.018488 -0.021943 1.724208 6.000000 31 345.912106
0.194713 -0.186443 1.714347 8.000000 28 345.912108
1.098191 -1.056252 7.348997 92.000000 27 345.912111
0.313588 -0.289734 1.411266 73.000000 25 345.912113
0.411761 -0.376358 1.373772 34.000000 23 345.912116
0.484868 -0.443035 1.270431 38.000000 21 345.912118
0.582159 -0.531940 1.230831 51.000000 19 345.912121
2.055680 -1.878396 3.409390 5.000000 17 345.912123
0.074877 -0.078136 1.706559 8.000000 30 345.912131
0.133414 -0.133550 1.714950 8.000000 29 345.912134
0.261352 -0.244825 1.415373 37.000000 26 345.912136
1.201171 -1.101796 4.486700 90.000000 24 345.912139
0.529393 -0.485245 1.548039 40.000000 22 345.912141
0.558878 -0.512100 1.310061 38.000000 20 345.912144
0.639726 -0.586187 1.223298 50.000000 18 345.912147
2.351318 -2.143278 3.206307 2.000000 15 345.912107
2.605936 -2.375373 2.924545 10.000000 13 345.912109
2.522869 -2.300461 2.323082 12.000000 11 345.912112
2.462810 -2.245700 1.830472 17.000000 9 345.912115
2.411848 -2.200002 1.407266 19.000000 7 345.912117
2.356830 -2.150570 1.027158 18.000000 5 345.912120
2.311437 -2.109149 0.685551 23.000000 3 345.912122
2.269253 -2.071383 0.368243 25.000000 1 345.912125
2.576612 -2.356061 3.189704 7.000000 14 345.912133
2.549353 -2.331138 2.598900 12.000000 12 345.912135
2.476242 -2.265079 2.056901 16.000000 10 345.912138
2.435418 -2.227740 1.613260 19.000000 8 345.912140
2.379979 -2.177791 1.211296 21.000000 6 345.912143
2.327002 -2.130060 0.851587 26.000000 4 345.912145
2.278945 -2.086802 0.522646 21.000000 2 345.912148
2.239671 -2.051558 0.216196 26.000000 0 345.912150
0.018434 -0.022045 1.729208 6.000000 31 345.912161
0.194620 -0.187661 1.719286 7.000000 28 345.912164
1.094497 -1.060079 7.348997 91.000000 27 345.912166
0.312574 -0.290827 1.411266 69.000000 25 345.912169
0.411883 -0.379116 1.378374 34.000000 23 345.912171
0.483319 -0.444725 1.270431 38.000000 21 345.912174
0.580299 -0.533969 1.230831 55.000000 19 345.912176
2.044393 -1.881219 3.401716 4.000000 17 345.912179
0.074604 -0.078397 1.706559 7.000000 30 345.912187
0.132947 -0.134015 1.714950 8.000000 29 345.912189
0.260496 -0.245736 1.415373 37.000000 26 345.912192
1.197317 -1.105983 4.486700 91.000000 24 345.912194
0.529296 -0.488567 1.552540 40.000000 22 345.912197
0.557087 -0.514048 1.310061 36.000000 20 345.912200
0.675331 -0.623164 1.291119 40.000000 18 345.912202
2.338568 -2.146649 3.199298 2.000000 15 345.912162
2.571819 -2.360763 2.896305 10.000000 13 345.912165
2.490184 -2.286628 2.301150 12.000000 11 345.912167
2.432114 -2.233308 1.814246 17.000000 9 345.912170
2.383669 -2.189591 1.396028 21.000000 7 345.912173
2.328114 -2.139308 1.018702 19.000000 5 345.912175
2.285975 -2.100586 0.680888 24.000000 3 345.912178
2.243676 -2.062440 0.366012 27.000000 1 345.912180
2.568372 -2.365040 3.189704 7.000000 14 345.912188
2.517413 -2.318119 2.575354 13.000000 12 345.912191
2.446124 -2.253262 2.039174 16.000000 10 345.912193
2.407599 -2.217778 1.600672 21.000000 8 345.912196
2.351526 -2.166884 1.201440 24.000000 6 345.912198
2.298109 -2.118403 0.844553 26.000000 4 345.912201
2.253444 -2.077959 0.519197 21.000000 2 345.912203
2.214135 -2.042427 0.215189 27.000000 0 345.912206
0.018357 -0.022109 1.729208 6.000000 31 345.912217
0.194520 -0.188882 1.724225 7.000000 28 345.912219
1.090790 -1.063893 7.348997 85.000000 27 345.912222
0.311557 -0.291916 1.411266 69.000000 25 345.912224
0.410557 -0.380551 1.378374 30.000000 23 345.912227
0.481763 -0.446409 1.270431 38.000000 21 345.912229
0.578431 -0.535991 1.230831 53.000000 19 345.912232
0.074133 -0.078445 1.701568 7.000000 30 345.912242
0.132479 -0.134479 1.714950 8.000000 29 345.912245
0.259636 -0.246644 1.415373 39.000000 26 345.912247
1.193449 -1.110155 4.486700 91.000000 24 345.912250
0.527587 -0.490411 1.552540 40.000000 22 345.912253
0.555289 -0.515989 1.310061 33.000000 20 345.912255
0.684191 -0.635776 1.311067 39.000000 18 345.912258
2.173868 -2.020072 3.295338 3.000000 16 345.912260
2.331060 -2.154799 3.199298 3.000000 15 345.912218
2.540694 -2.348586 2.871203 10.000000 13 345.912220
2.460697 -2.275434 2.281960 13.000000 11 345.912223
2.404787 -2.223737 1.800338 17.000000 9 345.912226
2.355593 -2.179009 1.384790 21.000000 7 345.912228
2.303027 -2.131130 1.011656 19.000000 5 345.912231
2.260602 -2.091872 0.676225 26.000000 3 345.912233
2.218191 -2.053344 0.363781 29.000000 1 345.912236
2.562839 -2.376530 3.193029 8.000000 14 345.912244
2.485595 -2.304905 2.551809 13.000000 12 345.912246
2.416118 -2.241263 2.021446 17.000000 10 345.912249
2.379878 -2.207649 1.588083 21.000000 8 345.912251
2.323178 -2.155806 1.191584 25.000000 6 345.912254
2.269326 -2.106571 0.837519 27.000000 4 345.912256
2.231661 -2.072333 0.516437 26.000000 2 345.912259
2.188691 -2.033142 0.214181 27.000000 0 345.912261
0.018280 -0.022173 1.729208 6.000000 31 345.912272
0.193860 -0.189559 1.724225 7.000000 28 345.912275
1.087070 -1.067695 7.348997 79.000000 27 345.912277
0.309450 -0.291977 1.406494 67.000000 25 345.912280
0.406370 -0.379316 1.369169 18.000000 23 345.912282
0.480202 -0.448088 1.270431 38.000000 21 345.912285
0.576557 -0.538007 1.230831 51.000000 19 345.912287
0.073858 -0.078703 1.701568 7.000000 30 345.912298
0.132008 -0.134940 1.714950 8.000000 29 345.912300
0.257865 -0.246679 1.410534 40.000000 26 345.912303
1.189567 -1.114314 4.486700 90.000000 24 345.912305
0.527462 -0.493738 1.557041 40.000000 22 345.912308
0.551580 -0.516142 1.305795 26.000000 20 345.912311
0.686369 -0.642279 1.319046 39.000000 18 345.912313
2.161852 -2.023015 3.287988 3.000000 16 345.912316
2.313083 -2.153203 3.185280 3.000000 15 345.912273
2.506836 -2.333569 2.842963 11.000000 13 345.912276
2.431319 -2.264063 2.262770 13.000000 11 345.912279
2.380799 -2.217022 1.788748 18.000000 9 345.912281
2.327620 -2.168260 1.373551 22.000000 7 345.912284
2.278026 -2.122804 1.004610 20.000000 5 345.912286
2.235317 -2.083005 0.671562 26.000000 3 345.912289
2.189153 -2.040701 0.361104 29.000000 1 345.912291
2.557258 -2.388011 3.196353 10.000000 14 345.912299
2.453901 -2.291498 2.528264 14.000000 12 345.912302
2.386227 -2.229082 2.003720 17.000000 10 345.912304
2.355575 -2.200452 1.577593 22.000000 8 345.912307
2.294936 -2.144557 1.181727 25.000000 6 345.912309
2.240654 -2.094564 0.830485 28.000000 4 345.912312
2.206329 -2.063198 0.512988 28.000000 2 345.912314
2.166987 -2.027117 0.213375 29.000000 0 345.912317
0.018202 -0.022236 1.729208 6.000000 31 345.912328
0.193750 -0.190781 1.729164 7.000000 28 345.912330
1.083336 -1.071483 7.348997 64.000000 27 345.912333
0.308429 -0.293055 1.406494 64.000000 25 345.912335
0.476889 -0.448121 1.266042 38.000000 21 345.912340
0.574675 -0.540016 1.230831 51.000000 19 345.912343
0.073388 -0.078746 1.696576 7.000000 30 345.912353
0.131166 -0.135016 1.709979 8.000000 29 345.912356
0.257003 -0.247577 1.410534 47.000000 26 345.912358
1.185670 -1.118460 4.486700 90.000000 24 345.912361
0.525735 -0.495576 1.557041 40.000000 22 345.912364
0.545979 -0.514487 1.297263 23.000000 20 345.912366
0.695090 -0.655006 1.338993 39.000000 18 345.912369
2.172049 -2.046825 3.313714 3.000000 16 345.912371
2.305553 -2.161265 3.185280 3.000000 15 345.912329
2.475954 -2.321006 2.817861 11.000000 13 345.912331
2.402049 -2.252514 2.243579 14.000000 11 345.912334
2.353657 -2.207137 1.774839 18.000000 9 345.912337
2.299750 -2.157341 1.362313 22.000000 7 345.912339
2.249612 -2.111046 0.996155 22.000000 5 345.912342
2.210122 -2.073988 0.666899 26.000000 3 345.912344
2.163862 -2.031287 0.358872 29.000000 1 345.912347
2.527143 -2.376457 3.169755 11.000000 14 345.912355
2.425275 -2.280667 2.507662 14.000000 12 345.912357
2.359590 -2.219674 1.988525 17.000000 10 345.912360
2.328045 -2.190003 1.565005 23.000000 8 345.912362
2.266801 -2.133136 1.171871 26.000000 6 345.912365
2.212094 -2.082383 0.823451 28.000000 4 345.912367
2.181087 -2.053912 0.509539 28.000000 2 345.912370
2.141715 -2.017541 0.212367 30.000000 0 345.912373
0.018102 -0.022262 1.724208 6.000000 31 345.912383
0.193082 -0.191456 1.729164 7.000000 28 345.912386
1.078868 -1.074539 7.344101 52.000000 27 345.912388
0.307405 -0.294130 1.406494 62.000000 25 345.912391
1.337265 -1.265887 4.397630 91.000000 23 345.912393
0.475322 -0.449783 1.266042 37.000000 21 345.912396
0.570743 -0.540085 1.226698 49.000000 19 345.912399
0.073113 -0.079002 1.696576 7.000000 30 345.912409
0.130694 -0.135473 1.709979 8.000000 29 345.912411
0.256137 -0.248473 1.410534 44.000000 26 345.912414
1.181759 -1.122592 4.486700 90.000000 24 345.912417
0.524002 -0.497409 1.557041 40.000000 22 345.912419
0.540396 -0.512799 1.288732 23.000000 20 345.912422
0.701545 -0.665727 1.354951 39.000000 18 345.912424
2.142758 -2.033391 3.280638 3.000000 16 345.912427
2.303181 -2.174196 3.192289 3.000000 15 345.912384
2.445190 -2.308256 2.792758 11.000000 13 345.912387
2.372892 -2.240789 2.224389 14.000000 11 345.912390
2.326612 -2.197089 1.760931 19.000000 9 345.912392
2.271985 -2.146254 1.351075 24.000000 7 345.912395
2.224796 -2.102411 0.989109 23.000000 5 345.912397
2.181448 -2.061447 0.661303 27.000000 3 345.912400
2.138663 -2.021723 0.356641 29.000000 1 345.912402
2.494429 -2.362154 3.139831 10.000000 14 345.912410
2.393821 -2.266884 2.484116 15.000000 12 345.912413
2.329919 -2.207142 1.970798 17.000000 10 345.912415
2.300617 -2.179388 1.552416 24.000000 8 345.912418
2.238775 -2.121546 1.162015 26.000000 6 345.912420
2.183647 -2.070028 0.816418 28.000000 4 345.912423
2.155937 -2.044475 0.506090 28.000000 2 345.912425
2.120162 -2.011251 0.211561 31.000000 0 345.912428
0.018024 -0.022326 1.724208 6.000000 31 345.912439
0.192413 -0.192129 1.729164 7.000000 28 345.912441
1.074392 -1.077577 7.339206 34.000000 27 345.912444
0.306376 -0.295201 1.406494 62.000000 25 345.912446
1.335666 -1.273243 4.406836 95.000000 23 345.912449
0.473749 -0.451439 1.266042 37.000000 21 345.912451
0.566817 -0.540132 1.222565 51.000000 19 345.912454
1.974116 -1.881225 3.340325 3.000000 17 345.912457
0.072837 -0.079257 1.696576 7.000000 30 345.912464
0.130220 -0.135928 1.709979 8.000000 29 345.912467
0.255268 -0.249365 1.410534 40.000000 26 345.912469
1.177833 -1.126710 4.486700 90.000000 24 345.912472
0.522263 -0.499235 1.557041 40.000000 22 345.912475
0.536718 -0.512881 1.284466 29.000000 20 345.912477
0.707933 -0.676501 1.370909 39.000000 18 345.912480
2.143000 -2.047885 3.291663 3.000000 16 345.912482
2.373120 -2.255935 3.297425 4.000000 15 345.912440
2.414547 -2.295320 2.767656 11.000000 13 345.912443
2.343844 -2.228888 2.205199 14.000000 11 345.912445
2.299666 -2.186879 1.747023 20.000000 9 345.912448
2.244327 -2.135000 1.339837 25.000000 7 345.912450
2.196592 -2.090322 0.980654 24.000000 5 345.912453
2.156446 -2.052117 0.656640 28.000000 3 345.912455
2.113558 -2.012007 0.354410 27.000000 1 345.912458
2.461845 -2.347652 3.109907 10.000000 14 345.912466
2.365417 -2.255700 2.463514 15.000000 12 345.912468
2.303483 -2.197407 1.955603 18.000000 10 345.912471
2.270008 -2.165477 1.537730 25.000000 8 345.912473
2.210857 -2.109786 1.152159 27.000000 6 345.912476
2.155313 -2.057500 0.809384 29.000000 4 345.912478
2.130881 -2.034888 0.502641 29.000000 2 345.912481
2.098678 -2.004836 0.210755 30.000000 0 345.912484
0.017946 -0.022388 1.724208 6.000000 31 345.912494
0.191194 -0.192248 1.724225 7.000000 28 345.912497
1.069908 -1.080597 7.334311 27.000000 27 345.912499
0.305344 -0.296269 1.406494 62.000000 25 345.912502
1.332623 -1.279251 4.411438 95.000000 23 345.912504
0.470442 -0.451431 1.261654 36.000000 21 345.912507
0.560867 -0.538211 1.214299 44.000000 19 345.912510
1.972163 -1.892544 3.347999 3.000000 17 345.912512
0.072559 -0.079510 1.696576 7.000000 30 345.912520
0.129745 -0.136382 1.709979 8.000000 29 345.912522
0.254396 -0.250255 1.410534 40.000000 26 345.912525
1.173893 -1.130815 4.486700 90.000000 24 345.912528
0.520429 -0.501145 1.557041 40.000000 22 345.912530
0.534834 -0.514844 1.284466 29.000000 20 345.912533
0.716305 -0.689542 1.390857 42.000000 18 345.912535
2.133038 -2.053374 3.287988 3.000000 16 345.912538
2.465700 -2.360383 3.434103 15.000000 15 345.912495
2.384023 -2.282199 2.742554 11.000000 13 345.912498
2.317930 -2.219703 2.188750 14.000000 11 345.912501
2.272820 -2.176509 1.733115 21.000000 9 345.912503
2.216774 -2.123579 1.328599 25.000000 7 345.912506
2.171964 -2.081380 0.973608 24.000000 5 345.912508
2.127634 -2.039611 0.651044 28.000000 3 345.912511
2.088197 -2.002506 0.352179 27.000000 1 345.912513
2.426294 -2.330789 3.076659 10.000000 14 345.912521
2.336729 -2.244753 2.442912 15.000000 12 345.912524
2.276762 -2.187911 1.940409 19.000000 10 345.912526
2.242422 -2.154914 1.525142 25.000000 8 345.912529
2.182682 -2.098238 1.142303 28.000000 6 345.912531
2.130239 -2.048540 0.803522 29.000000 4 345.912534
2.105563 -2.025518 0.499192 29.000000 2 345.912537
2.077266 -1.998295 0.209949 31.000000 0 345.912539
0.017886 -0.022491 1.729208 6.000000 31 345.912550
0.190488 -0.192947 1.724225 7.000000 28 345.912552
1.067367 -1.085964 7.344101 18.000000 27 345.912555
0.305324 -0.298430 1.411266 67.000000 25 345.912557
1.327925 -1.284127 4.411438 95.000000 23 345.912560
0.468784 -0.453153 1.261654 36.000000 21 345.912563
0.552821 -0.534395 1.201900 39.000000 19 345.912565
1.960604 -1.895304 3.340325 3.000000 17 345.912568
0.072268 -0.079776 1.696576 7.000000 30 345.912575
0.129244 -0.136857 1.709979 8.000000 29 345.912578
0.254370 -0.252071 1.415373 42.000000 26 345.912581
1.169740 -1.135110 4.486700 90.000000 24 345.912583
0.520240 -0.504475 1.561542 40.000000 22 345.912586
0.534906 -0.518524 1.288732 31.000000 20 345.912588
0.713894 -0.692038 1.390857 42.000000 18 345.912591
2.125857 -2.060807 3.287988 3.000000 16 345.912593
2.444196 -2.357027 3.416580 11.000000 15 345.912551
2.353225 -2.269303 2.717452 11.000000 13 345.912554
2.288713 -2.207863 2.169560 16.000000 11 345.912556
2.245697 -2.166370 1.719207 22.000000 9 345.912559
2.188961 -2.112375 1.317360 26.000000 7 345.912561
2.143612 -2.069335 0.965153 25.000000 5 345.912564
2.102830 -2.029967 0.646381 29.000000 3 345.912566
2.063283 -1.992486 0.349948 31.000000 1 345.912569
2.391303 -2.313280 3.043411 10.000000 14 345.912577
2.308543 -2.233224 2.422310 15.000000 12 345.912579
2.250523 -2.177856 1.925214 20.000000 10 345.912582
2.212056 -2.140635 1.510455 25.000000 8 345.912584
2.154986 -2.086136 1.132447 28.000000 6 345.912587
2.102125 -2.035675 0.796488 30.000000 4 345.912589
2.077139 -2.012181 0.495053 30.000000 2 345.912592
2.055577 -1.991989 0.209143 32.000000 0 345.912595
0.017808 -0.022554 1.729208 6.000000 31 345.912606
0.189270 -0.193055 1.719286 7.000000 28 345.912609
1.062859 -1.088954 7.339206 10.000000 27 345.912611
0.304280 -0.299494 1.411266 67.000000 25 345.912614
1.323434 -1.288754 4.411438 96.000000 23 345.912616
0.467199 -0.454786 1.261654 36.000000 21 345.912619
0.542887 -0.528470 1.185368 38.000000 19 345.912621
1.951679 -1.899900 3.336488 3.000000 17 345.912624
0.072180 -0.080245 1.701568 7.000000 30 345.912632
0.128766 -0.137307 1.709979 8.000000 29 345.912634
0.253488 -0.252958 1.415373 45.000000 26 345.912637
1.165771 -1.139186 4.486700 91.000000 24 345.912639
0.518476 -0.506288 1.561542 40.000000 22 345.912642
0.534959 -0.522209 1.292997 33.000000 20 345.912644
0.711474 -0.694526 1.390857 46.000000 18 345.912647
2.118650 -2.068216 3.287988 3.000000 16 345.912650
2.428279 -2.358091 3.406066 11.000000 15 345.912607
2.325741 -2.258520 2.695487 11.000000 13 345.912610
2.262997 -2.198357 2.153111 16.000000 11 345.912612
2.219055 -2.155674 1.705299 22.000000 9 345.912615
2.161625 -2.100618 1.306122 26.000000 7 345.912618
2.119176 -2.060086 0.958107 26.000000 5 345.912620
2.074598 -2.016751 0.640785 29.000000 3 345.912623
2.042035 -1.985788 0.348163 31.000000 1 345.912625
2.359139 -2.298161 3.013487 10.000000 14 345.912633
2.283362 -2.224346 2.404651 15.000000 12 345.912636
2.224381 -2.167646 1.910020 20.000000 10 345.912638
2.185068 -2.129339 1.497867 26.000000 8 345.912641
2.130783 -2.077164 1.124233 28.000000 6 345.912643
2.077607 -2.026033 0.790627 30.000000 4 345.912646
2.052378 -2.002129 0.491604 30.000000 2 345.912648
2.034309 -1.985195 0.208337 33.000000 0 345.912651
0.017729 -0.022616 1.729208 6.000000 31 345.912662
0.188054 -0.193157 1.714347 6.000000 28 345.912664
0.303233 -0.300554 1.411266 71.000000 25 345.912669
1.318928 -1.293366 4.411438 95.000000 23 345.912672
0.465609 -0.456414 1.261654 36.000000 21 345.912674
0.533001 -0.522482 1.168837 37.000000 19 345.912677
1.947324 -1.908945 3.340325 3.000000 17 345.912679
0.072090 -0.080714 1.706559 7.000000 30 345.912687
0.128286 -0.137756 1.709979 8.000000 29 345.912690
0.254377 -0.255625 1.425051 45.000000 26 345.912692
1.161787 -1.143248 4.486700 90.000000 24 345.912695
0.518258 -0.509622 1.566043 40.000000 22 345.912697
0.536853 -0.527730 1.301529 34.000000 20 345.912700
0.709045 -0.697005 1.390857 46.000000 18 345.912703
2.113836 -2.077975 3.291663 3.000000 16 345.912705
2.366488 -2.314192 3.332471 9.000000 15 345.912663
2.295577 -2.244851 2.670385 11.000000 13 345.912665
2.234386 -2.185774 2.133921 16.000000 11 345.912668
2.192516 -2.144819 1.691390 24.000000 9 345.912670
2.134399 -2.088696 1.294884 27.000000 7 345.912673
2.091404 -2.047335 0.949652 26.000000 5 345.912676
2.049994 -2.006799 0.636122 30.000000 3 345.912678
2.017300 -1.975482 0.345932 31.000000 1 345.912681
2.327111 -2.282846 2.983563 11.000000 14 345.912688
2.255386 -2.212489 2.384049 16.000000 12 345.912691
2.198338 -2.157279 1.894825 21.000000 10 345.912694
2.158186 -2.117880 1.485279 26.000000 8 345.912696
2.103299 -2.064739 1.114377 29.000000 6 345.912699
2.056650 -2.019650 0.785937 30.000000 4 345.912701
2.027713 -1.991929 0.488155 30.000000 2 345.912704
2.013113 -1.978277 0.207530 33.000000 0 345.912706
0.017650 -0.022678 1.729208 6.000000 31 345.912717
0.186839 -0.193253 1.709407 8.000000 28 345.912720
0.302182 -0.301611 1.411266 75.000000 25 345.912725
1.314405 -1.297962 4.411438 95.000000 23 345.912727
0.465718 -0.459720 1.266042 36.000000 21 345.912730
0.521161 -0.514455 1.148172 35.000000 19 345.912732
