# .PCD v.7 - Point Cloud Data file format
VERSION .7
FIELDS x y z intensity ring timestamp
SIZE 4 4 4 4 2 8
TYPE F F F F U D
COUNT 1 1 1 1 1 1
WIDTH 927
HEIGHT 1
VIEWPOINT 0 0 0 1 0 0 0
POINTS 927
DATA ascii
-1.005722 1.853809 5.028176 12.000000 23 345.567010
-1.112117 2.049085 4.338106 8.000000 21 345.567013
-1.146654 2.112727 3.603143 10.000000 19 345.567015
-1.224307 2.255810 3.148478 13.000000 17 345.567018
-0.255939 0.569652 10.606597 41.000000 30 345.567026
-0.477297 0.991845 10.206120 9.000000 29 345.567028
-0.858568 1.631466 7.130475 11.000000 26 345.567031
-1.075796 1.991256 6.208945 6.000000 24 345.567033
-1.045909 1.934330 4.608607 7.000000 22 345.567036
-1.115090 2.061430 3.903749 10.000000 20 345.567039
-1.178571 2.178792 3.353690 9.000000 18 345.567041
-1.415130 2.616121 3.302689 10.000000 16 345.567044
-1.532979 2.816342 3.230839 10.000000 15 345.567001
-1.730419 3.179081 2.999852 9.000000 13 345.567004
-1.713688 3.149653 2.435482 9.000000 11 345.567006
-1.671247 3.071654 1.916239 8.000000 9 345.567009
-1.694804 3.116245 1.521521 13.000000 7 345.567012
-1.679676 3.089713 1.122983 13.000000 5 345.567014
-1.670482 3.072802 0.755498 14.000000 3 345.567017
-1.390916 2.559612 0.353964 13.000000 1 345.567019
-1.689280 3.115139 3.236252 10.000000 14 345.567027
-1.028240 1.896138 1.654145 35.000000 12 345.567030
-1.710206 3.155047 2.193651 10.000000 10 345.567032
-1.696177 3.129171 1.732849 13.000000 8 345.567035
-1.685324 3.110446 1.319713 14.000000 6 345.567037
-1.673684 3.090250 0.938339 14.000000 4 345.567040
-1.374458 2.538823 0.494363 14.000000 2 345.567042
-1.395602 2.578955 0.211964 11.000000 0 345.567045
-0.037555 0.145396 15.668676 31.000000 31 345.567056
-0.730081 1.440074 10.264202 6.000000 28 345.567058
-0.699085 1.382459 7.471377 10.000000 27 345.567061
-1.344482 2.532643 9.208261 6.000000 25 345.567063
-1.008501 1.874514 5.074202 6.000000 23 345.567066
-1.097010 2.038188 4.307384 8.000000 21 345.567068
-1.135272 2.109283 3.590745 10.000000 19 345.567071
-1.214906 2.257247 3.144641 11.000000 17 345.567074
-0.253949 0.570542 10.606597 39.000000 30 345.567081
-0.472455 0.990612 10.176291 10.000000 29 345.567084
-0.851704 1.632223 7.120796 11.000000 26 345.567086
-1.068839 1.994999 6.208945 6.000000 24 345.567089
-1.037092 1.934130 4.599605 7.000000 22 345.567092
-1.106655 2.063011 3.899483 9.000000 20 345.567094
-1.163835 2.169613 3.333743 9.000000 18 345.567097
-1.405989 2.621044 3.302689 10.000000 16 345.567099
-1.523139 2.821676 3.230839 10.000000 15 345.567057
-1.723010 3.191953 3.006127 8.000000 13 345.567059
-1.708640 3.166655 2.443707 10.000000 11 345.567062
-1.694175 3.139851 1.953327 10.000000 9 345.567065
-1.688317 3.130302 1.525267 13.000000 7 345.567067
-1.673433 3.104003 1.125801 13.000000 5 345.567070
-1.664408 3.087262 0.757363 13.000000 3 345.567072
-1.377248 2.555684 0.353072 14.000000 1 345.567075
-1.678396 3.121017 3.236252 10.000000 14 345.567083
-1.019700 1.896156 1.651202 35.000000 12 345.567085
-1.703265 3.168593 2.198716 9.000000 10 345.567088
-1.689541 3.143067 1.737045 13.000000 8 345.567090
-1.678927 3.124630 1.322998 14.000000 6 345.567093
-1.667487 3.104638 0.940683 14.000000 4 345.567095
-1.360903 2.534879 0.492984 14.000000 2 345.567098
-1.381867 2.575007 0.211561 11.000000 0 345.567100
-0.037038 0.145484 15.663676 31.000000 31 345.567111
-0.724701 1.441919 10.259263 6.000000 28 345.567114
-0.694255 1.384891 7.471377 9.000000 27 345.567116
-1.330764 2.528069 9.174858 6.000000 25 345.567119
-1.001952 1.878022 5.074202 5.000000 23 345.567121
-1.087632 2.037777 4.298607 8.000000 21 345.567124
-1.123927 2.105785 3.578346 9.000000 19 345.567126
-1.207019 2.261474 3.144641 11.000000 17 345.567129
-0.251956 0.571425 10.606597 38.000000 30 345.567137
-0.468310 0.990807 10.161377 9.000000 29 345.567139
-0.845424 1.634069 7.115957 11.000000 26 345.567142
-1.061869 1.998718 6.208945 4.000000 24 345.567144
-1.027267 1.931970 4.586102 8.000000 22 345.567147
-1.096998 2.062257 3.890951 10.000000 20 345.567150
-1.147762 2.157696 3.309805 10.000000 18 345.567152
-1.390463 2.613964 3.287988 10.000000 16 345.567155
-1.514963 2.830120 3.234344 10.000000 15 345.567112
-1.717369 3.208245 3.015541 8.000000 13 345.567115
-1.703494 3.183661 2.451931 10.000000 11 345.567118
-1.691565 3.161371 1.962599 11.000000 9 345.567120
-1.683939 3.148440 1.530886 13.000000 7 345.567123
-1.667112 3.118286 1.128620 13.000000 5 345.567125
-1.658253 3.101717 0.759228 13.000000 3 345.567128
-1.361277 2.547299 0.351733 14.000000 1 345.567130
-1.667491 3.126856 3.236252 10.000000 14 345.567138
-1.009271 1.892571 1.645316 35.000000 12 345.567141
-1.698278 3.185933 2.206314 9.000000 10 345.567143
-1.684964 3.160961 1.743339 13.000000 8 345.567146
-1.672451 3.138807 1.326284 14.000000 6 345.567148
-1.661209 3.119020 0.943028 14.000000 4 345.567151
-1.347392 2.530872 0.491604 14.000000 2 345.567153
-1.365829 2.566584 0.210956 11.000000 0 345.567156
-0.036549 0.145697 15.673676 31.000000 31 345.567167
-0.719664 1.444440 10.259263 5.000000 28 345.567169
-0.689870 1.388218 7.476273 9.000000 27 345.567172
-1.317785 2.524755 9.146228 6.000000 25 345.567174
-1.068185 2.018269 4.250332 8.000000 21 345.567179
-1.113937 2.104722 3.570080 9.000000 19 345.567182
-1.199118 2.265674 3.144641 9.000000 17 345.567185
-0.250075 0.572566 10.611588 41.000000 30 345.567192
-0.461683 0.985664 10.091777 9.000000 29 345.567195
-0.839141 1.635891 7.111118 11.000000 26 345.567197
-1.054081 2.000886 6.204252 5.000000 24 345.567200
-1.018486 1.931692 4.577101 8.000000 22 345.567203
-1.088576 2.063766 3.886685 9.000000 20 345.567205
-1.134599 2.151026 3.293848 11.000000 18 345.567208
-1.375004 2.606807 3.273287 10.000000 16 345.567210
-1.505075 2.835391 3.234344 10.000000 15 345.567168
-1.709810 3.221097 3.021816 9.000000 13 345.567170
-1.698251 3.200669 2.460155 9.000000 11 345.567173
-1.688825 3.182910 1.971871 11.000000 9 345.567176
-1.677283 3.162491 1.534632 12.000000 7 345.567178
-1.660711 3.132564 1.131438 13.000000 5 345.567181
-1.652018 3.116167 0.761093 13.000000 3 345.567183
-1.347713 2.543235 0.350841 14.000000 1 345.567186
-1.658312 3.135959 3.239577 10.000000 14 345.567194
-0.998880 1.888936 1.639429 35.000000 12 345.567196
-1.691176 3.199464 2.211378 9.000000 10 345.567199
-1.678162 3.174848 1.747535 12.000000 8 345.567201
-1.668103 3.157152 1.331212 13.000000 6 345.567204
-1.654852 3.133395 0.945372 14.000000 4 345.567206
-1.331613 2.522421 0.489534 14.000000 2 345.567209
-1.352199 2.562499 0.210553 11.000000 0 345.567212
-0.036058 0.145909 15.683675 31.000000 31 345.567222
-0.714273 1.446247 10.254324 5.000000 28 345.567225
-0.685020 1.390617 7.476273 10.000000 27 345.567227
-1.304846 2.521380 9.117599 6.000000 25 345.567230
-1.128577 2.151402 5.782990 9.000000 23 345.567232
-1.053340 2.007136 4.219612 8.000000 21 345.567235
-1.102660 2.101122 3.557681 9.000000 19 345.567238
-1.191202 2.269845 3.144641 9.000000 17 345.567240
-0.248304 0.573968 10.621572 40.000000 30 345.567248
-0.456444 0.983394 10.052005 9.000000 29 345.567250
-0.832855 1.637689 7.106278 11.000000 26 345.567253
-1.039101 1.989257 6.157324 5.000000 24 345.567256
-1.008710 1.929445 4.563598 8.000000 22 345.567258
-1.078948 2.062932 3.878154 9.000000 20 345.567261
-1.121496 2.144291 3.277890 12.000000 18 345.567263
-1.361182 2.602579 3.262262 10.000000 16 345.567266
-1.495168 2.840627 3.234344 10.000000 15 345.567223
-1.703995 3.237380 3.031229 9.000000 13 345.567226
-1.692909 3.217679 2.468380 9.000000 11 345.567229
-1.690081 3.212310 1.985780 11.000000 9 345.567231
-1.670550 3.176532 1.538378 12.000000 7 345.567234
-1.654230 3.146834 1.134256 13.000000 5 345.567236
-1.645702 3.130611 0.762959 12.000000 3 345.567239
-1.331878 2.534698 0.349502 14.000000 1 345.567241
-1.647355 3.141728 3.239577 10.000000 14 345.567249
-0.988526 1.885252 1.633543 36.000000 12 345.567252
-1.684000 3.212985 2.216443 10.000000 10 345.567254
-1.671283 3.188727 1.751731 12.000000 8 345.567257
-1.661455 3.171322 1.334497 13.000000 6 345.567259
-1.648414 3.147765 0.947717 14.000000 4 345.567262
-1.318207 2.518280 0.488155 15.000000 2 345.567264
-1.336297 2.553924 0.209949 11.000000 0 345.567267
-0.035567 0.146119 15.693675 30.000000 31 345.567278
-0.709562 1.449429 10.259263 5.000000 28 345.567280
-0.680161 1.393000 7.476273 10.000000 27 345.567283
-1.291946 2.517947 9.088968 6.000000 25 345.567285
-1.141795 2.195193 5.888848 10.000000 23 345.567288
-1.035269 1.989548 4.175725 9.000000 21 345.567290
-1.092721 2.099965 3.549415 9.000000 19 345.567293
-1.184751 2.276834 3.148478 9.000000 17 345.567296
-0.246640 0.575630 10.636546 39.000000 30 345.567303
-0.450112 0.978673 9.987377 9.000000 29 345.567306
-0.827133 1.640586 7.106278 11.000000 26 345.567308
-1.026595 1.982146 6.124475 7.000000 24 345.567311
-0.998962 1.927154 4.550096 8.000000 22 345.567314
-1.069339 2.062055 3.869622 9.000000 20 345.567316
-1.108455 2.137490 3.261932 12.000000 18 345.567319
-1.347408 2.598286 3.251236 11.000000 16 345.567321
-1.486893 2.848991 3.237848 10.000000 15 345.567279
-1.698088 3.253662 3.040643 10.000000 13 345.567282
-1.685534 3.230983 2.473862 10.000000 11 345.567284
-1.678857 3.218189 1.985780 11.000000 9 345.567287
-1.665882 3.194676 1.543997 12.000000 7 345.567289
-1.647671 3.161098 1.137075 13.000000 5 345.567292
-1.639305 3.145048 0.764824 12.000000 3 345.567294
-1.316119 2.526082 0.348163 14.000000 1 345.567297
-1.638101 3.150773 3.242901 10.000000 14 345.567305
-0.978210 1.881518 1.627657 36.000000 12 345.567307
-1.678739 3.230320 2.224041 9.000000 10 345.567310
-1.664328 3.202595 1.755927 12.000000 8 345.567312
-1.654729 3.185483 1.337782 13.000000 6 345.567315
-1.641896 3.162127 0.950062 14.000000 4 345.567317
-1.304846 2.514075 0.486775 14.000000 2 345.567320
-1.320472 2.545269 0.209344 11.000000 0 345.567323
-0.035102 0.146456 15.718675 30.000000 31 345.567333
-0.703142 1.449100 10.239506 5.000000 28 345.567336
-0.675295 1.395366 7.476273 10.000000 27 345.567338
-1.281118 2.518448 9.074653 6.000000 25 345.567341
-1.021727 1.980375 4.149393 9.000000 21 345.567346
-1.082804 2.098765 3.541149 9.000000 19 345.567349
-1.176796 2.280956 3.148478 9.000000 17 345.567351
-0.244629 0.576487 10.636546 38.000000 30 345.567359
-0.445588 0.977809 9.962521 10.000000 29 345.567361
-0.821402 1.643463 7.106278 11.000000 26 345.567364
-1.014152 1.974971 6.091626 8.000000 24 345.567367
-0.989243 1.924819 4.536593 8.000000 22 345.567369
-1.059749 2.061136 3.861090 9.000000 20 345.567372
-1.096852 2.133305 3.249963 12.000000 18 345.567374
-1.335229 2.596943 3.243886 10.000000 16 345.567377
-1.476939 2.854164 3.237848 10.000000 15 345.567334
-1.692087 3.269942 3.050056 9.000000 13 345.567337
-1.680009 3.247989 2.482087 10.000000 11 345.567340
-1.673720 3.235835 1.992734 11.000000 9 345.567342
-1.658978 3.208708 1.547743 12.000000 7 345.567345
-1.641031 3.175354 1.139893 12.000000 5 345.567347
-1.632827 3.159479 0.766689 12.000000 3 345.567350
-1.302722 2.521812 0.347271 14.000000 1 345.567352
-1.628804 3.159791 3.246226 10.000000 14 345.567360
-0.967933 1.877736 1.621770 36.000000 12 345.567363
-1.671402 3.243825 2.229105 9.000000 10 345.567365
-1.659375 3.220489 1.762222 12.000000 8 345.567368
-1.647924 3.199637 1.341068 12.000000 6 345.567370
-1.635297 3.176482 0.952406 14.000000 4 345.567373
-1.289264 2.505404 0.484706 14.000000 2 345.567376
-1.307009 2.540977 0.208941 11.000000 0 345.567378
-0.034582 0.146535 15.713675 30.000000 31 345.567389
-0.695050 1.445243 10.195052 5.000000 28 345.567391
-0.670420 1.397714 7.476273 11.000000 27 345.567394
-1.266266 2.510902 9.031707 6.000000 25 345.567396
-1.012626 1.979663 4.140616 8.000000 21 345.567402
-1.072909 2.097522 3.532883 9.000000 19 345.567404
-1.170287 2.287904 3.152315 10.000000 17 345.567407
-0.241945 0.575735 10.606597 37.000000 30 345.567414
-0.441294 0.977411 9.942635 9.000000 29 345.567417
-0.815660 1.646320 7.106278 11.000000 26 345.567420
-1.007252 1.978499 6.091626 11.000000 24 345.567422
-0.980541 1.924379 4.527592 8.000000 22 345.567425
-1.051364 2.062499 3.856824 9.000000 20 345.567427
-1.086661 2.131751 3.241984 12.000000 18 345.567430
-1.323077 2.595547 3.236536 10.000000 16 345.567432
-1.466968 2.859302 3.237848 10.000000 15 345.567390
-1.689548 3.293146 3.065745 9.000000 13 345.567393
-1.672477 3.261275 2.487570 10.000000 11 345.567395
-1.666458 3.249542 1.997370 10.000000 9 345.567398
-1.651997 3.222730 1.551490 12.000000 7 345.567400
-1.634313 3.189602 1.142712 13.000000 5 345.567403
-1.626269 3.173903 0.768554 12.000000 3 345.567405
-1.287101 2.513046 0.345932 13.000000 1 345.567408
-1.617764 3.165457 3.246226 10.000000 14 345.567416
-0.957694 1.873905 1.615884 35.000000 12 345.567418
-1.663991 3.257319 2.234170 10.000000 10 345.567421
-1.652252 3.234345 1.766418 12.000000 8 345.567423
-1.641041 3.213781 1.344353 12.000000 6 345.567426
-1.628619 3.190830 0.954751 14.000000 4 345.567428
-1.276010 2.501067 0.483326 14.000000 2 345.567431
-1.291323 2.532172 0.208337 11.000000 0 345.567434
-0.034044 0.146527 15.698675 29.000000 31 345.567444
-0.690670 1.449064 10.204930 6.000000 28 345.567447
-0.665537 1.400046 7.476273 11.000000 27 345.567449
-1.253487 2.507291 9.003077 5.000000 25 345.567452
-0.956219 1.886396 5.041984 14.000000 23 345.567454
-1.003543 1.978913 4.131838 7.000000 21 345.567457
-1.063035 2.096234 3.524618 9.000000 19 345.567459
-1.160844 2.289115 3.148478 10.000000 17 345.567462
-0.239601 0.575773 10.591621 36.000000 30 345.567470
-0.437009 0.976995 9.922750 9.000000 29 345.567472
-0.809908 1.649157 7.106278 11.000000 26 345.567475
-1.001117 1.983544 6.096318 13.000000 24 345.567477
-0.970872 1.921959 4.514089 7.000000 22 345.567480
-1.035924 2.049863 3.826962 9.000000 20 345.567482
-1.075135 2.127461 3.230016 12.000000 18 345.567485
-1.312480 2.597124 3.232861 10.000000 16 345.567488
-1.456978 2.864405 3.237848 10.000000 15 345.567445
-1.676277 3.295554 3.062608 9.000000 13 345.567448
-1.666769 3.278275 2.495794 10.000000 11 345.567450
-1.659120 3.263237 2.002006 10.000000 9 345.567453
-1.644938 3.236742 1.555236 12.000000 7 345.567456
-1.627514 3.203841 1.145530 12.000000 5 345.567458
-1.619630 3.188320 0.770420 12.000000 3 345.567461
-1.273811 2.508642 0.345040 13.000000 1 345.567463
-1.608393 3.174416 3.249551 10.000000 14 345.567471
-0.949320 1.873631 1.612941 30.000000 12 345.567474
-1.656507 3.270799 2.239235 10.000000 10 345.567476
-1.645054 3.248190 1.770614 12.000000 8 345.567479
-1.634078 3.227917 1.347638 12.000000 6 345.567481
-1.621860 3.205169 0.957096 14.000000 4 345.567484
-1.260566 2.492248 0.481257 13.000000 2 345.567486
-1.277967 2.527747 0.207933 11.000000 0 345.567489
-0.033515 0.146559 15.688675 29.000000 31 345.567500
-0.679969 1.439521 10.120963 6.000000 28 345.567502
-0.660646 1.402361 7.476273 10.000000 27 345.567505
-1.227486 2.476857 8.879012 4.000000 25 345.567507
-0.949628 1.889722 5.041984 14.000000 23 345.567510
-0.993401 1.975982 4.118672 7.000000 21 345.567512
-1.054447 2.097418 3.520484 9.000000 19 345.567515
-1.152846 2.293154 3.148478 9.000000 17 345.567517
-0.237041 0.575267 10.566664 35.000000 30 345.567525
-0.432516 0.976073 9.897892 10.000000 29 345.567528
-0.804147 1.651974 7.106278 11.000000 26 345.567530
-0.994187 1.987026 6.096318 13.000000 24 345.567533
-0.962207 1.921442 4.505088 7.000000 22 345.567535
-1.021753 2.039476 3.801367 9.000000 20 345.567538
-1.065003 2.125811 3.222037 12.000000 18 345.567541
-1.303406 2.601690 3.232861 10.000000 16 345.567543
-1.446970 2.869473 3.237848 10.000000 15 345.567501
-1.657752 3.287481 3.050056 9.000000 13 345.567503
-1.660961 3.295275 2.504019 10.000000 11 345.567506
-1.653701 3.280877 2.008960 10.000000 9 345.567508
-1.637802 3.250745 1.558982 12.000000 7 345.567511
-1.620636 3.218072 1.148348 11.000000 5 345.567514
-1.612909 3.202729 0.772285 12.000000 3 345.567516
-1.260568 2.504177 0.344148 13.000000 1 345.567519
-1.597302 3.180011 3.249551 10.000000 14 345.567526
-0.940960 1.873321 1.609998 17.000000 12 345.567529
-1.650883 3.288120 2.246832 10.000000 10 345.567532
-1.639814 3.266081 1.776908 11.000000 8 345.567534
-1.627037 3.242043 1.350924 13.000000 6 345.567537
-1.615021 3.219500 0.959440 13.000000 4 345.567539
-1.247420 2.487779 0.479877 13.000000 2 345.567542
-1.264659 2.523260 0.207530 11.000000 0 345.567544
-0.032986 0.146590 15.678677 29.000000 31 345.567555
-0.674281 1.440478 10.111085 7.000000 28 345.567558
-0.655747 1.404658 7.476273 10.000000 27 345.567560
-0.944768 1.896523 5.051189 29.000000 23 345.567565
-0.984360 1.975149 4.109895 9.000000 21 345.567568
-1.044609 2.096049 3.512218 9.000000 19 345.567570
-1.143405 2.294294 3.144641 9.000000 17 345.567573
-0.235140 0.576359 10.571655 33.000000 30 345.567581
-0.428035 0.975132 9.873035 10.000000 29 345.567583
-0.798375 1.654771 7.106278 10.000000 26 345.567586
-0.987245 1.990485 6.096318 12.000000 24 345.567588
-0.953557 1.920888 4.496086 8.000000 22 345.567591
-1.007668 2.029015 3.775771 9.000000 20 345.567594
-1.054895 2.124117 3.214057 11.000000 18 345.567596
-1.294316 2.606224 3.232861 9.000000 16 345.567599
-1.438540 2.877697 3.241352 10.000000 15 345.567556
-1.641045 3.282802 3.040643 8.000000 13 345.567559
-1.655055 3.312274 2.512243 10.000000 11 345.567561
-1.646199 3.294556 2.013596 10.000000 9 345.567564
-1.632659 3.268884 1.564601 12.000000 7 345.567567
-1.613679 3.232294 1.151167 11.000000 5 345.567569
-1.606108 3.217129 0.774150 13.000000 3 345.567572
-1.247372 2.499650 0.343255 13.000000 1 345.567574
-1.586192 3.185568 3.249551 10.000000 14 345.567582
-0.930811 1.869358 1.604111 4.000000 12 345.567585
-1.643237 3.301582 2.251897 10.000000 10 345.567587
-1.634470 3.283974 1.783202 11.000000 8 345.567590
-1.622021 3.260387 1.355852 12.000000 6 345.567592
-1.608101 3.233822 0.961785 13.000000 4 345.567595
-1.234320 2.483249 0.478497 13.000000 2 345.567597
-1.251398 2.518711 0.207127 11.000000 0 345.567600
-0.032458 0.146618 15.668676 28.000000 31 345.567611
-0.665981 1.435773 10.061693 6.000000 28 345.567613
-0.650840 1.406939 7.476273 10.000000 27 345.567616
-0.689750 1.416465 5.080721 8.000000 25 345.567618
-0.927762 1.878788 4.995958 15.000000 23 345.567621
-0.974276 1.972129 4.096729 9.000000 21 345.567623
-1.036040 2.097160 3.508086 9.000000 19 345.567626
-1.132549 2.292523 3.136967 9.000000 17 345.567628
-0.233127 0.577176 10.571655 30.000000 30 345.567636
-0.424629 0.976620 9.873035 10.000000 29 345.567639
-0.792594 1.657548 7.106278 11.000000 26 345.567641
-0.980291 1.993919 6.096318 12.000000 24 345.567644
-0.943962 1.918343 4.482584 8.000000 22 345.567646
-0.993668 2.018481 3.750175 9.000000 20 345.567649
-1.044811 2.122378 3.206079 12.000000 18 345.567652
-1.285211 2.610726 3.232861 9.000000 16 345.567654
-1.428486 2.882700 3.241352 10.000000 15 345.567612
-1.622662 3.274558 3.028092 9.000000 13 345.567614
-1.647195 3.325526 2.517726 10.000000 11 345.567617
-1.640588 3.312192 2.020550 11.000000 9 345.567620
-1.625352 3.282873 1.568347 12.000000 7 345.567622
-1.606642 3.246506 1.153985 11.000000 5 345.567625
-1.601405 3.235924 0.776948 13.000000 3 345.567627
-1.234223 2.495061 0.342363 12.000000 1 345.567630
-1.576715 3.194434 3.252876 10.000000 14 345.567638
-0.922491 1.868971 1.601168 2.000000 12 345.567640
-1.635517 3.315031 2.256962 11.000000 10 345.567643
-1.627013 3.297800 1.787398 11.000000 8 345.567645
-1.614807 3.274500 1.359137 12.000000 6 345.567648
-1.603250 3.252496 0.965302 13.000000 4 345.567650
-1.221267 2.478658 0.477118 14.000000 2 345.567653
-1.240391 2.518582 0.206926 11.000000 0 345.567655
-0.031946 0.146731 15.668676 29.000000 31 345.567666
-0.645924 1.409202 7.476273 10.000000 27 345.567671
-0.686099 1.421555 5.090264 10.000000 25 345.567674
-0.921198 1.882015 4.995958 15.000000 23 345.567676
-0.964225 1.969063 4.083563 9.000000 21 345.567679
-1.027475 2.098236 3.503953 9.000000 19 345.567681
-1.123130 2.293583 3.133130 9.000000 17 345.567684
-0.231111 0.577986 10.571655 28.000000 30 345.567692
-0.421217 0.978096 9.873035 11.000000 29 345.567694
-0.786803 1.660305 7.106278 11.000000 26 345.567697
-0.972569 1.995777 6.091626 12.000000 24 345.567699
-0.935350 1.917711 4.473581 8.000000 22 345.567702
-0.982041 2.012562 3.733112 9.000000 20 345.567705
-1.034753 2.120595 3.198100 12.000000 18 345.567707
-1.277577 2.618243 3.236536 9.000000 16 345.567710
-1.418415 2.887669 3.241352 10.000000 15 345.567667
-1.604357 3.266226 3.015541 9.000000 13 345.567670
-1.628206 3.316242 2.506760 9.000000 11 345.567672
-1.632921 3.325852 2.025186 11.000000 9 345.567675
-1.617968 3.296850 1.572093 11.000000 7 345.567678
-1.601638 3.265016 1.158213 12.000000 5 345.567680
-1.594426 3.250314 0.778813 13.000000 3 345.567683
-1.221121 2.490412 0.341470 12.000000 1 345.567685
-1.563914 3.196563 3.249551 10.000000 14 345.567693
-0.912409 1.864918 1.595282 2.000000 12 345.567696
-1.627724 3.328465 2.262027 10.000000 10 345.567698
-1.621473 3.315690 1.793692 11.000000 8 345.567701
-1.609589 3.292845 1.364065 13.000000 6 345.567703
-1.596155 3.266807 0.967646 13.000000 4 345.567706
-1.210434 2.478456 0.476428 13.000000 2 345.567708
-1.227208 2.513917 0.206523 11.000000 0 345.567711
-0.031433 0.146841 15.668676 28.000000 31 345.567722
-0.641422 1.412375 7.481168 10.000000 27 345.567727
-0.681133 1.423941 5.090264 10.000000 25 345.567729
-0.916329 1.888735 5.005164 35.000000 23 345.567732
-0.954208 1.965951 4.070397 8.000000 21 345.567734
-1.011544 2.084088 3.475022 8.000000 19 345.567737
-1.115117 2.297490 3.133130 9.000000 17 345.567740
-0.229092 0.578789 10.571655 29.000000 30 345.567747
-0.417801 0.979561 9.873035 11.000000 29 345.567750
-0.781538 1.664180 7.111118 11.000000 26 345.567752
-0.964846 1.997606 6.086933 12.000000 24 345.567755
-0.926755 1.917043 4.464580 8.000000 22 345.567758
-0.972739 2.011282 3.724580 9.000000 20 345.567760
-1.026032 2.121481 3.194110 12.000000 18 345.567763
-1.268430 2.622687 3.236536 8.000000 16 345.567765
-1.409887 2.895809 3.244857 10.000000 15 345.567723
-1.587833 3.261306 3.006127 10.000000 13 345.567725
-1.612960 3.314385 2.501277 8.000000 11 345.567728
-1.625179 3.339498 2.029822 11.000000 9 345.567731
-1.610506 3.310815 1.575839 11.000000 7 345.567733
-1.594427 3.279215 1.161031 11.000000 5 345.567736
-1.587367 3.264696 0.780678 12.000000 3 345.567738
-1.208067 2.485701 0.340578 11.000000 1 345.567741
-1.552747 3.202003 3.249551 10.000000 14 345.567749
-0.905894 1.868092 1.595282 2.000000 12 345.567751
-1.614215 3.330248 2.259495 10.000000 10 345.567754
-1.613849 3.329499 1.797889 11.000000 8 345.567756
-1.602203 3.306943 1.367351 12.000000 6 345.567759
-1.591098 3.285482 0.971163 13.000000 4 345.567761
-1.197460 2.473752 0.475048 13.000000 2 345.567764
-1.214074 2.509191 0.206120 10.000000 0 345.567766
-0.030929 0.146993 15.673676 27.000000 31 345.567777
-0.576814 1.278337 8.915784 5.000000 28 345.567780
-0.636071 1.413677 7.476273 10.000000 27 345.567782
-0.678077 1.430359 5.104579 16.000000 25 345.567785
-0.910577 1.893683 5.009766 59.000000 23 345.567787
-0.945262 1.964952 4.061620 8.000000 21 345.567790
-0.996943 2.072392 3.450224 8.000000 19 345.567792
-1.105701 2.298479 3.129293 10.000000 17 345.567795
-0.227070 0.579586 10.571655 29.000000 30 345.567803
-0.414379 0.981013 9.873035 11.000000 29 345.567805
-0.775724 1.666898 7.111118 12.000000 26 345.567808
-0.957867 2.000962 6.086933 11.000000 24 345.567810
-0.917235 1.914375 4.451077 8.000000 22 345.567813
-0.962330 2.007609 3.711782 9.000000 20 345.567816
-1.016015 2.119614 3.186131 12.000000 18 345.567818
-1.259267 2.627098 3.236536 9.000000 16 345.567821
-1.399770 2.900713 3.244857 11.000000 15 345.567778
-1.569672 3.252805 2.993576 10.000000 13 345.567781
-1.595931 3.308697 2.493053 9.000000 11 345.567784
-1.617362 3.353132 2.034458 11.000000 9 345.567786
-1.602966 3.324768 1.579585 11.000000 7 345.567789
-1.589218 3.297726 1.165259 11.000000 5 345.567791
-1.580226 3.279067 0.782544 12.000000 3 345.567794
-1.197221 2.485416 0.340132 11.000000 1 345.567796
-1.539942 3.204038 3.246226 10.000000 14 345.567804
-0.888862 1.849384 1.577623 3.000000 12 345.567807
-1.598846 3.328089 2.254430 10.000000 10 345.567809
-1.606147 3.343293 1.802085 11.000000 8 345.567812
-1.596783 3.325287 1.372279 11.000000 6 345.567814
-1.583826 3.299780 0.973508 12.000000 4 345.567817
-1.184533 2.468987 0.473669 13.000000 2 345.567819
-1.200987 2.504404 0.205717 10.000000 0 345.567822
-0.030415 0.147100 15.673676 27.000000 31 345.567833
-0.570764 1.276795 8.891088 5.000000 28 345.567835
-0.631132 1.415889 7.476273 10.000000 27 345.567838
-0.669271 1.424606 5.075949 17.000000 25 345.567840
-0.904802 1.898613 5.014369 80.000000 23 345.567843
-0.935305 1.961752 4.048454 8.000000 21 345.567845
-0.983648 2.063158 3.429559 8.000000 19 345.567848
-1.097671 2.302325 3.129293 10.000000 17 345.567851
-0.224941 0.580105 10.566664 29.000000 30 345.567858
-0.411157 0.982947 9.878007 11.000000 29 345.567861
-0.770427 1.670737 7.115957 12.000000 26 345.567863
-0.950137 2.002734 6.082240 11.000000 24 345.567866
-0.909613 1.915598 4.446577 8.000000 22 345.567869
-0.951959 2.003889 3.698984 10.000000 20 345.567871
-1.006024 2.117703 3.178152 12.000000 18 345.567874
-1.250089 2.631478 3.236536 8.000000 16 345.567876
-1.389637 2.905581 3.244857 10.000000 15 345.567834
-1.553269 3.247728 2.984163 7.000000 13 345.567836
-1.578962 3.302929 2.484828 9.000000 11 345.567839
-1.609469 3.366751 2.039094 10.000000 9 345.567842
-1.595348 3.338709 1.583331 11.000000 7 345.567844
-1.583900 3.316240 1.169486 11.000000 5 345.567847
-1.573005 3.293428 0.784409 12.000000 3 345.567849
-1.184247 2.480592 0.339239 12.000000 1 345.567852
-1.525537 3.202651 3.239577 11.000000 14 345.567860
-0.892830 1.874370 1.595282 4.000000 12 345.567862
-1.581660 3.321973 2.246832 10.000000 10 345.567865
-1.598369 3.357075 1.806281 11.000000 8 345.567867
-1.589224 3.339369 1.375564 11.000000 6 345.567870
-1.578562 3.318456 0.977025 12.000000 4 345.567872
-1.173781 2.468634 0.472979 13.000000 2 345.567875
-1.190094 2.504069 0.205515 10.000000 0 345.567878
-0.029909 0.147248 15.678677 27.000000 31 345.567888
-0.558443 1.261016 8.767607 5.000000 28 345.567891
-0.626186 1.418083 7.476273 10.000000 27 345.567893
-0.663033 1.424225 5.066406 15.000000 25 345.567896
-0.899003 1.903527 5.018971 34.000000 23 345.567898
-0.926404 1.960672 4.039676 9.000000 21 345.567901
-0.964419 2.041136 3.388230 9.000000 19 345.567904
-1.089628 2.306142 3.129293 10.000000 17 345.567906
-0.222915 0.580886 10.566664 30.000000 30 345.567914
-0.407928 0.984869 9.882977 11.000000 29 345.567916
-0.765113 1.674561 7.120796 12.000000 26 345.567919
-0.943140 2.006038 6.082240 10.000000 24 345.567922
-0.896430 1.904968 4.415071 8.000000 22 345.567924
-0.942737 2.002481 3.690452 10.000000 20 345.567927
-0.996058 2.115748 3.170173 12.000000 18 345.567929
-1.240896 2.635826 3.236536 8.000000 16 345.567932
-1.379486 2.910414 3.244857 10.000000 15 345.567889
-1.531919 3.232024 2.965336 4.000000 13 345.567892
-1.562052 3.297084 2.476604 10.000000 11 345.567895
-1.597707 3.372348 2.039094 10.000000 9 345.567897
-1.589636 3.356827 1.588950 11.000000 7 345.567900
-1.578472 3.334757 1.173714 11.000000 5 345.567902
-1.567804 3.312219 0.787207 12.000000 3 345.567905
-1.173452 2.480209 0.338793 12.000000 1 345.567907
-1.511160 3.201202 3.232927 10.000000 14 345.567915
-0.879380 1.862855 1.583509 6.000000 12 345.567918
-1.566374 3.319675 2.241767 10.000000 10 345.567920
-1.588578 3.366739 1.808379 11.000000 8 345.567923
-1.583601 3.357710 1.380492 12.000000 6 345.567925
-1.571114 3.332739 0.979370 12.000000 4 345.567928
-1.160935 2.463757 0.471599 13.000000 2 345.567930
-1.177088 2.499168 0.205112 10.000000 0 345.567933
-0.029395 0.147352 15.678677 27.000000 31 345.567944
-0.521284 1.188236 8.248985 4.000000 28 345.567946
-0.621232 1.420260 7.476273 10.000000 27 345.567949
-0.656181 1.422462 5.052090 14.000000 25 345.567951
-0.892353 1.906653 5.018971 19.000000 23 345.567954
-0.916507 1.957385 4.026510 9.000000 21 345.567956
-0.958481 2.047039 3.392363 10.000000 19 345.567959
-1.080211 2.307028 3.125456 10.000000 17 345.567962
-0.220784 0.581390 10.561672 31.000000 30 345.567969
-0.404892 0.987275 9.892920 12.000000 29 345.567972
-0.759782 1.678367 7.125635 12.000000 26 345.567974
-0.936132 2.009318 6.082240 10.000000 24 345.567977
-0.887934 1.904138 4.406069 8.000000 22 345.567980
-0.932433 1.998669 3.677655 10.000000 20 345.567982
-0.986118 2.113749 3.162194 12.000000 18 345.567985
-1.233121 2.643213 3.240211 9.000000 16 345.567987
-1.370834 2.918440 3.248362 10.000000 15 345.567945
-0.845372 1.799755 1.685123 2.000000 13 345.567948
-1.545202 3.291162 2.468380 9.000000 11 345.567950
-1.576511 3.357854 2.027504 10.000000 9 345.567953
-1.581848 3.370749 1.592696 11.000000 7 345.567955
-1.572934 3.353276 1.177941 11.000000 5 345.567958
-1.560405 3.326566 0.789072 12.000000 3 345.567960
-1.160558 2.475271 0.337901 12.000000 1 345.567963
-1.495229 3.196311 3.222952 10.000000 14 345.567971
-0.874585 1.869574 1.586452 5.000000 12 345.567973
-1.549299 3.313407 2.234170 10.000000 10 345.567976
-1.572971 3.364040 1.804183 11.000000 8 345.567978
-1.575870 3.371773 1.383778 12.000000 6 345.567981
-1.563585 3.347011 0.981714 12.000000 4 345.567983
-1.150233 2.463307 0.470909 13.000000 2 345.567986
-1.164131 2.494208 0.204709 10.000000 0 345.567989
-0.028873 0.147410 15.673676 27.000000 31 345.567999
-0.615866 1.421486 7.471377 10.000000 27 345.568004
-0.649970 1.422027 5.042547 12.000000 25 345.568007
-0.884870 1.907984 5.014369 14.000000 23 345.568009
-0.906644 1.954053 4.013344 9.000000 21 345.568012
-0.947777 2.042714 3.379964 10.000000 19 345.568015
-1.072152 2.310785 3.125456 10.000000 17 345.568017
-0.218652 0.581886 10.556681 31.000000 30 345.568025
-0.401844 0.989672 9.902864 12.000000 29 345.568027
-0.753919 1.681009 7.125635 12.000000 26 345.568030
-0.929836 2.014140 6.086933 10.000000 24 345.568033
-0.872147 1.887457 4.361061 9.000000 22 345.568035
-0.922168 1.994809 3.664857 10.000000 20 345.568038
-0.974939 2.108971 3.150226 11.000000 18 345.568040
-1.223887 2.647501 3.240211 9.000000 16 345.568043
-1.360639 2.923207 3.248362 10.000000 15 345.568000
-0.842370 1.809754 1.691399 12.000000 13 345.568003
-1.526649 3.281371 2.457414 9.000000 11 345.568006
-1.559174 3.351286 2.020550 10.000000 9 345.568008
-1.575937 3.388861 1.598315 12.000000 7 345.568011
-1.567285 3.371797 1.182169 10.000000 5 345.568013
-1.554995 3.345356 0.791870 11.000000 3 345.568016
-1.147714 2.470275 0.337008 12.000000 1 345.568018
-1.480922 3.194734 3.216302 10.000000 14 345.568026
-1.491920 3.218466 2.666592 7.000000 12 345.568029
-1.532286 3.307059 2.226573 11.000000 10 345.568031
-1.555495 3.357157 1.797889 11.000000 8 345.568034
-1.570045 3.390109 1.388706 12.000000 6 345.568036
-1.558018 3.365681 0.985231 12.000000 4 345.568039
-1.137468 2.458318 0.469530 13.000000 2 345.568042
-1.149126 2.484653 0.204104 10.000000 0 345.568044
-0.028351 0.147467 15.668676 27.000000 31 345.568055
-0.487191 1.131888 7.834088 4.000000 28 345.568057
-0.610499 1.422691 7.466482 10.000000 27 345.568060
-0.643154 1.420206 5.028232 10.000000 25 345.568062
-0.881468 1.918162 5.032779 14.000000 23 345.568065
-0.896815 1.950675 4.000178 9.000000 21 345.568068
-0.938290 2.040896 3.371698 9.000000 19 345.568070
-1.064079 2.314513 3.125456 11.000000 17 345.568073
-0.216418 0.582102 10.546697 30.000000 30 345.568080
-0.398984 0.992555 9.917778 12.000000 29 345.568083
-0.749578 1.687079 7.140152 11.000000 26 345.568086
-0.922800 2.017374 6.086933 10.000000 24 345.568088
-0.852862 1.862769 4.298049 12.000000 22 345.568091
-0.913027 1.993274 3.656325 10.000000 20 345.568093
-0.965062 2.106881 3.142247 10.000000 18 345.568096
-1.214638 2.651758 3.240211 9.000000 16 345.568098
-1.350427 2.927939 3.248362 10.000000 15 345.568056
-0.831156 1.802078 1.681985 28.000000 13 345.568059
-1.509934 3.275288 2.449189 10.000000 11 345.568061
-1.541902 3.344638 2.013596 11.000000 9 345.568064
-1.564098 3.394342 1.598315 11.000000 7 345.568066
-1.563534 3.394677 1.187806 10.000000 5 345.568069
-1.547418 3.359688 0.793735 11.000000 3 345.568071
-1.134920 2.465219 0.336116 12.000000 1 345.568074
-1.465085 3.189704 3.206328 10.000000 14 345.568082
-1.489112 3.242019 2.681308 12.000000 12 345.568084
-1.515337 3.300634 2.218976 11.000000 10 345.568087
-1.539980 3.354317 1.793692 11.000000 8 345.568089
-1.562141 3.404153 1.391991 12.000000 6 345.568092
-1.550313 3.379936 0.987576 12.000000 4 345.568094
-1.126816 2.457772 0.468840 13.000000 2 345.568097
-1.136284 2.479565 0.203701 10.000000 0 345.568100
-0.027836 0.147565 15.668676 27.000000 31 345.568111
-0.485064 1.137871 7.863723 5.000000 28 345.568114
-0.605529 1.424813 7.466482 10.000000 27 345.568116
-0.636970 1.419717 5.018688 7.000000 25 345.568119
-0.874767 1.921227 5.032779 13.000000 23 345.568121
-0.887021 1.947254 3.987012 9.000000 21 345.568124
-0.927661 2.036476 3.359299 10.000000 19 345.568126
-1.054665 2.315296 3.121619 11.000000 17 345.568129
-0.214286 0.582582 10.541706 30.000000 30 345.568137
-0.396108 0.995431 9.932692 12.000000 29 345.568139
-0.745204 1.693139 7.154670 9.000000 26 345.568142
-0.910053 2.008008 6.049390 10.000000 24 345.568144
-0.828362 1.826070 4.208032 32.000000 22 345.568147
-0.902830 1.989324 3.643527 9.000000 20 345.568149
-0.953965 2.102003 3.130278 10.000000 18 345.568152
-1.206775 2.659068 3.243886 9.000000 16 345.568155
-1.341680 2.935879 3.251866 10.000000 15 345.568112
-0.824861 1.804968 1.681985 31.000000 13 345.568115
-1.493280 3.269128 2.440965 9.000000 11 345.568117
-1.524696 3.337911 2.006642 11.000000 9 345.568120
-1.546463 3.387130 1.592696 11.000000 7 345.568123
-1.555658 3.408842 1.190624 10.000000 5 345.568125
-1.541799 3.378475 0.796533 11.000000 3 345.568128
-1.122174 2.460103 0.335223 12.000000 1 345.568130
-1.449302 3.184602 3.196353 10.000000 14 345.568138
-1.477786 3.247198 2.681308 12.000000 12 345.568141
-1.498451 3.294130 2.211378 12.000000 10 345.568143
-1.522624 3.347278 1.787398 11.000000 8 345.568146
-1.552203 3.413884 1.393634 12.000000 6 345.568148
-1.542528 3.394177 0.989921 12.000000 4 345.568151
-1.114133 2.452673 0.467460 14.000000 2 345.568153
-1.125556 2.478968 0.203500 11.000000 0 345.568156
-0.027321 0.147662 15.668676 27.000000 31 345.568167
-0.476559 1.128818 7.789634 5.000000 28 345.568169
-0.600157 1.425980 7.461587 10.000000 27 345.568172
-0.630191 1.417837 5.004374 6.000000 25 345.568174
-0.873678 1.936735 5.064997 9.000000 23 345.568177
-0.877262 1.943787 3.973846 9.000000 21 345.568179
-0.917074 2.032007 3.346901 10.000000 19 345.568182
-1.050533 2.327730 3.133130 13.000000 17 345.568184
-0.212054 0.582782 10.531723 30.000000 30 345.568192
-0.393412 0.998795 9.952578 11.000000 29 345.568195
-0.741802 1.701495 7.178866 7.000000 26 345.568197
-0.903039 2.011173 6.049390 10.000000 24 345.568200
-0.821983 1.828950 4.208032 33.000000 22 345.568202
-0.893742 1.987706 3.634995 9.000000 20 345.568205
-0.944149 2.099823 3.122299 10.000000 18 345.568208
-1.194705 2.657081 3.236536 9.000000 16 345.568210
-1.331424 2.940544 3.251866 10.000000 15 345.568168
-0.815344 1.800744 1.675710 35.000000 13 345.568170
-1.478411 3.266702 2.435482 9.000000 11 345.568173
-1.507555 3.331105 1.999688 11.000000 9 345.568175
-1.526988 3.375612 1.585204 11.000000 7 345.568178
-1.543749 3.414252 1.190624 10.000000 5 345.568181
-1.536068 3.397264 0.799331 11.000000 3 345.568183
-1.109478 2.454929 0.334331 12.000000 1 345.568186
-1.433572 3.179428 3.186379 10.000000 14 345.568193
-1.454812 3.226543 2.660706 12.000000 12 345.568196
-1.481629 3.287549 2.203781 12.000000 10 345.568199
-1.505336 3.340160 1.781104 11.000000 8 345.568201
-1.532519 3.402059 1.387063 12.000000 6 345.568204
-1.538653 3.417269 0.994610 12.000000 4 345.568206
-1.101501 2.447515 0.466081 14.000000 2 345.568209
-1.112797 2.473769 0.203097 10.000000 0 345.568211
-0.026806 0.147756 15.668676 26.000000 31 345.568222
-0.476809 1.140512 7.858784 5.000000 28 345.568225
-0.595176 1.428066 7.461587 10.000000 27 345.568227
-0.623433 1.415927 4.990058 6.000000 25 345.568230
-0.867538 1.940276 3.960680 9.000000 21 345.568235
-0.907678 2.030059 3.338635 10.000000 19 345.568237
-1.041092 2.328456 3.129293 13.000000 17 345.568240
-0.209920 0.583246 10.526731 30.000000 30 345.568248
-0.390698 1.002153 9.972463 11.000000 29 345.568250
-0.879181 1.976472 5.936764 8.000000 24 345.568255
-0.812936 1.825840 4.194530 33.000000 22 345.568258
-0.884676 1.986049 3.626463 9.000000 20 345.568261
-0.933135 2.094846 3.110331 11.000000 18 345.568263
-1.179905 2.648848 3.221835 9.000000 16 345.568266
-1.321151 2.945174 3.251866 10.000000 15 345.568223
-0.807460 1.800027 1.672572 35.000000 13 345.568226
-1.461867 3.260396 2.427258 9.000000 11 345.568228
-1.488668 3.320177 1.990416 11.000000 9 345.568231
-1.509508 3.368230 1.579585 12.000000 7 345.568234
-1.529861 3.415241 1.189215 11.000000 5 345.568236
-1.528217 3.411572 0.801196 10.000000 3 345.568239
-1.096831 2.449697 0.333438 12.000000 1 345.568241
-1.417895 3.174184 3.176404 10.000000 14 345.568249
-1.441892 3.227911 2.657763 11.000000 12 345.568252
-1.464871 3.280891 2.196184 12.000000 10 345.568254
-1.488117 3.332961 1.774810 12.000000 8 345.568257
-1.514860 3.394450 1.382135 12.000000 6 345.568259
-1.526715 3.422619 0.994610 12.000000 4 345.568262
-1.088917 2.442299 0.464701 16.000000 2 345.568264
-1.098054 2.463949 0.202492 11.000000 0 345.568267
-0.026290 0.147849 15.668676 26.000000 31 345.568278
-0.470152 1.135708 7.814331 6.000000 28 345.568280
-0.590188 1.430135 7.461587 10.000000 27 345.568283
-0.616099 1.412619 4.970971 10.000000 25 345.568285
-0.858819 1.938911 3.951903 9.000000 21 345.568290
-0.897167 2.025496 3.326236 10.000000 19 345.568293
-1.039450 2.346732 3.148478 14.000000 17 345.568295
-0.207690 0.583429 10.516747 30.000000 30 345.568303
-0.388156 1.006002 9.997320 11.000000 29 345.568306
-0.850009 1.928995 5.786596 7.000000 24 345.568311
-0.806558 1.828667 4.194530 33.000000 22 345.568313
-0.874579 1.981967 3.613666 9.000000 20 345.568316
-0.924600 2.095333 3.106341 12.000000 18 345.568319
-1.166546 2.643645 3.210809 9.000000 16 345.568321
-1.312311 2.953026 3.255371 9.000000 15 345.568279
-0.799591 1.799278 1.669434 35.000000 13 345.568281
-1.447083 3.257837 2.421775 9.000000 11 345.568284
-1.471674 3.313207 1.983462 11.000000 9 345.568287
-1.492098 3.360767 1.573966 12.000000 7 345.568289
-1.510147 3.403021 1.183578 11.000000 5 345.568292
-1.524269 3.434845 0.804927 11.000000 3 345.568294
-1.084235 2.444405 0.332546 13.000000 1 345.568297
-1.402273 3.168869 3.166430 10.000000 14 345.568305
-1.425709 3.221836 2.648933 11.000000 12 345.568307
-1.448178 3.274156 2.188586 12.000000 10 345.568310
-1.470966 3.325684 1.768516 12.000000 8 345.568312
-1.497274 3.386760 1.377207 12.000000 6 345.568315
-1.510829 3.419035 0.992265 12.000000 4 345.568317
-1.076384 2.437026 0.463321 16.000000 2 345.568320
-1.083394 2.454055 0.201888 11.000000 0 345.568322
-0.025780 0.147983 15.673676 26.000000 31 345.568333
-0.466185 1.137342 7.814331 6.000000 28 345.568336
-0.585192 1.432186 7.461587 10.000000 27 345.568338
-0.609388 1.410647 4.956656 20.000000 25 345.568341
-0.847233 1.930928 3.929960 8.000000 21 345.568346
-0.887830 2.023461 3.317970 10.000000 19 345.568348
-1.049285 2.391447 3.202195 13.000000 17 345.568351
-0.205557 0.583878 10.511756 29.000000 30 345.568359
-0.385593 1.009845 10.022177 10.000000 29 345.568361
-0.767336 1.757976 5.270391 8.000000 24 345.568366
-0.797554 1.825484 4.181027 34.000000 22 345.568369
-0.865566 1.980228 3.605134 9.000000 20 345.568372
-0.918488 2.101309 3.110331 13.000000 18 345.568374
-1.149164 2.629063 3.188759 10.000000 16 345.568377
-1.301995 2.957589 3.255371 9.000000 15 345.568334
-0.791737 1.798495 1.666296 35.000000 13 345.568337
-1.430650 3.251386 2.413550 10.000000 11 345.568339
-1.454747 3.306159 1.976508 11.000000 9 345.568342
-1.474758 3.353224 1.568347 11.000000 7 345.568345
-1.492467 3.395097 1.179351 11.000000 5 345.568347
-1.512270 3.440145 0.804927 11.000000 3 345.568350
-1.069686 2.434497 0.331207 12.000000 1 345.568352
-1.386706 3.163484 3.156455 11.000000 14 345.568360
-1.409586 3.215687 2.640104 11.000000 12 345.568363
-1.431550 3.267344 2.180989 12.000000 10 345.568365
-1.453884 3.318327 1.762222 12.000000 8 345.568368
-1.479759 3.378988 1.372279 12.000000 6 345.568370
-1.494987 3.415383 0.989921 12.000000 4 345.568373
-1.063900 2.431694 0.461942 15.000000 2 345.568375
-1.068816 2.444090 0.201283 11.000000 0 345.568378
-0.025257 0.148029 15.668676 25.000000 31 345.568389
-0.461336 1.136802 7.799512 7.000000 28 345.568391
-0.579808 1.433276 7.456692 10.000000 27 345.568394
-0.602697 1.408646 4.942341 18.000000 25 345.568396
-0.774161 1.782099 4.636962 3.000000 23 345.568399
-0.838578 1.929479 3.921183 8.000000 21 345.568401
-0.878518 2.021386 3.309704 10.000000 19 345.568404
-1.054987 2.427438 3.244402 11.000000 17 345.568407
-0.203328 0.584044 10.501773 30.000000 30 345.568414
-0.382819 1.013183 10.042063 10.000000 29 345.568417
-0.973825 2.321824 9.724288 5.000000 26 345.568419
-0.748868 1.732132 5.185922 12.000000 24 345.568422
-0.792042 1.830256 4.185528 35.000000 22 345.568425
-0.856576 1.978451 3.596602 9.000000 20 345.568427
-0.915937 2.115566 3.126289 13.000000 18 345.568430
-1.139980 2.633058 3.188759 10.000000 16 345.568432
-1.293089 2.965385 3.258875 9.000000 15 345.568390
-0.783898 1.797679 1.663159 36.000000 13 345.568392
-1.414279 3.244860 2.405326 10.000000 11 345.568395
-1.439658 3.303094 1.971871 11.000000 9 345.568398
-1.457490 3.345601 1.562728 11.000000 7 345.568400
-1.474861 3.387091 1.175123 11.000000 5 345.568403
-1.496330 3.436395 0.803061 11.000000 3 345.568405
-1.057207 2.429084 0.330315 12.000000 1 345.568408
-1.371193 3.158029 3.146481 10.000000 14 345.568416
-1.393523 3.209465 2.631274 11.000000 12 345.568418
-1.413271 3.256502 2.170860 11.000000 10 345.568421
-1.438679 3.315055 1.758026 12.000000 8 345.568423
-1.462317 3.371135 1.367351 12.000000 6 345.568426
-1.479189 3.411661 0.987576 13.000000 4 345.568428
-1.049498 2.421761 0.459872 15.000000 2 345.568431
-1.048363 2.420300 0.200074 12.000000 0 345.568433
-0.024740 0.148116 15.668676 26.000000 31 345.568444
-0.457075 1.137684 7.794573 7.000000 28 345.568447
-0.574801 1.435292 7.456692 10.000000 27 345.568449
-0.596029 1.406616 4.928026 18.000000 25 345.568452
-0.769480 1.788380 4.646166 7.000000 23 345.568454
-0.818576 1.901587 3.859741 16.000000 21 345.568457
-0.869232 2.019271 3.301438 10.000000 19 345.568459
-1.061718 2.466441 3.290445 10.000000 17 345.568462
-0.201100 0.584202 10.491790 29.000000 30 345.568470
-0.380213 1.017015 10.066920 9.000000 29 345.568472
-0.965714 2.325209 9.724288 5.000000 26 345.568475
-0.740780 1.729977 5.171844 13.000000 24 345.568477
-0.785648 1.833010 4.185528 27.000000 22 345.568480
-0.846581 1.974238 3.583804 9.000000 20 345.568483
-0.910922 2.124291 3.134268 13.000000 18 345.568485
-1.136126 2.649484 3.203459 10.000000 16 345.568488
-1.282730 2.969881 3.258875 9.000000 15 345.568445
-0.776075 1.796831 1.660021 36.000000 13 345.568448
-1.397972 3.238261 2.397101 10.000000 11 345.568451
-1.422851 3.295897 1.964918 11.000000 9 345.568453
-1.440292 3.337898 1.557109 11.000000 7 345.568456
-1.457329 3.379003 1.170895 11.000000 5 345.568458
-1.482380 3.437087 0.802129 11.000000 3 345.568461
-1.044779 2.423613 0.329423 13.000000 1 345.568463
-1.355735 3.152505 3.136506 10.000000 14 345.568471
-1.377521 3.203170 2.622445 11.000000 12 345.568474
-1.398489 3.253494 2.165795 11.000000 10 345.568476
-1.421721 3.307548 1.751731 12.000000 8 345.568479
-1.444949 3.363203 1.362423 12.000000 6 345.568481
-1.461517 3.403405 0.984059 13.000000 4 345.568484
-1.037132 2.416308 0.458493 15.000000 2 345.568486
-1.041878 2.428536 0.200275 11.000000 0 345.568489
-0.024217 0.148158 15.663676 26.000000 31 345.568500
-0.452528 1.137829 7.784695 7.000000 28 345.568502
-0.569787 1.437289 7.456692 10.000000 27 345.568505
-0.589382 1.404556 4.913710 18.000000 25 345.568507
-0.761701 1.787460 4.636962 13.000000 23 345.568510
-0.800659 1.877987 3.807077 29.000000 21 345.568512
-0.859971 2.017116 3.293172 11.000000 19 345.568515
-1.054360 2.473082 3.294282 9.000000 17 345.568518
-0.198874 0.584352 10.481807 29.000000 30 345.568525
-0.377401 1.020339 10.086806 9.000000 29 345.568528
-0.953766 2.319259 9.685575 6.000000 26 345.568530
-0.733389 1.729375 5.162458 12.000000 24 345.568533
-0.780096 1.837745 4.190029 18.000000 22 345.568536
-0.837646 1.972380 3.575272 9.000000 20 345.568538
-0.907036 2.135780 3.146236 13.000000 18 345.568541
-1.133497 2.669036 3.221835 10.000000 16 345.568543
-1.273758 2.977619 3.262380 9.000000 15 345.568501
-0.766736 1.792370 1.653745 36.000000 13 345.568503
-1.381729 3.231586 2.388877 11.000000 11 345.568506
-1.407855 3.292697 1.960281 11.000000 9 345.568509
-1.424989 3.334380 1.553363 11.000000 7 345.568511
-1.439872 3.370834 1.166668 11.000000 5 345.568514
-1.466514 3.433206 0.800263 11.000000 3 345.568516
-1.032401 2.418085 0.328530 13.000000 1 345.568519
-1.340333 3.146911 3.126532 10.000000 14 345.568527
-1.361579 3.196802 2.613615 10.000000 12 345.568529
-1.378681 3.238522 2.153133 11.000000 10 345.568532
-1.404834 3.299963 1.745437 12.000000 8 345.568534
-1.429502 3.359535 1.359137 12.000000 6 345.568537
-1.445824 3.399540 0.981714 13.000000 4 345.568539
-1.024816 2.410799 0.457113 11.000000 2 345.568542
-1.033395 2.432158 0.200275 10.000000 0 345.568545
-0.023700 0.148242 15.663676 25.000000 31 345.568555
-0.447984 1.137955 7.774816 7.000000 28 345.568558
-0.564767 1.439269 7.456692 10.000000 27 345.568560
-0.583329 1.403846 4.904167 18.000000 25 345.568563
-0.750140 1.777508 4.604744 16.000000 23 345.568565
-0.787575 1.865321 3.776356 36.000000 21 345.568568
-0.850735 2.014921 3.284906 11.000000 19 345.568571
-1.044474 2.473794 3.290445 9.000000 17 345.568573
-0.196558 0.584219 10.466831 30.000000 30 345.568581
-0.375119 1.025161 10.121606 9.000000 29 345.568583
-0.942819 2.315584 9.656539 6.000000 26 345.568586
-0.725343 1.727151 5.148379 12.000000 24 345.568589
-0.774520 1.842465 4.194530 18.000000 22 345.568591
-0.828734 1.970484 3.566740 9.000000 20 345.568594
-0.900743 2.141711 3.150226 13.000000 18 345.568596
-1.130745 2.688602 3.240211 11.000000 16 345.568599
-1.263356 2.982047 3.262380 9.000000 15 345.568556
-0.758956 1.791452 1.650608 36.000000 13 345.568559
-1.365548 3.224839 2.380653 10.000000 11 345.568562
-1.391170 3.285352 1.953327 11.000000 9 345.568564
-1.407920 3.326526 1.547743 11.000000 7 345.568567
-1.422490 3.362585 1.162440 11.000000 5 345.568569
-1.452607 3.433780 0.799331 11.000000 3 345.568572
-1.020075 2.412500 0.327638 11.000000 1 345.568574
-1.326437 3.144689 3.119882 10.000000 14 345.568582
-1.347270 3.194088 2.607729 10.000000 12 345.568585
-1.364018 3.235369 2.148068 10.000000 10 345.568587
-1.388017 3.292300 1.739143 12.000000 8 345.568590
-1.412265 3.351449 1.354209 12.000000 6 345.568592
-1.428288 3.391128 0.978197 13.000000 4 345.568595
-1.012552 2.405233 0.455733 11.000000 2 345.568597
-1.024899 2.435750 0.200275 10.000000 0 345.568600
-0.023176 0.148280 15.658676 25.000000 31 345.568611
-0.443727 1.138788 7.769877 8.000000 28 345.568613
-0.559739 1.441232 7.456692 10.000000 27 345.568616
-0.576721 1.401730 4.889852 20.000000 25 345.568618
-0.740918 1.772906 4.586334 24.000000 23 345.568621
-0.781059 1.868058 3.776356 37.000000 21 345.568623
-0.841526 2.012686 3.276640 11.000000 19 345.568626
-1.032122 2.468551 3.278934 9.000000 17 345.568629
-0.194245 0.584077 10.451857 32.000000 30 345.568636
-0.371175 1.025460 10.111663 9.000000 29 345.568639
-0.934260 2.317695 9.651700 6.000000 26 345.568641
-0.721298 1.734453 5.162458 12.000000 24 345.568644
-0.766410 1.841136 4.185528 27.000000 22 345.568647
-0.819845 1.968550 3.558208 9.000000 20 345.568649
-0.894421 2.147624 3.154215 13.000000 18 345.568652
-1.123960 2.698792 3.247561 11.000000 16 345.568654
