# .PCD v.7 - Point Cloud Data file format
VERSION .7
FIELDS x y z intensity ring timestamp
SIZE 4 4 4 4 2 8
TYPE F F F F U D
COUNT 1 1 1 1 1 1
WIDTH 927
HEIGHT 1
VIEWPOINT 0 0 0 1 0 0 0
POINTS 927
DATA ascii
-3.673333 4.071064 1.996499 9.000000 6 345.863834
-3.747232 4.154422 1.440090 10.000000 4 345.863836
-2.646267 2.934851 0.642674 12.000000 2 345.863839
-2.692456 2.987124 0.255898 11.000000 0 345.863842
-0.071749 0.134544 15.933665 16.000000 31 345.863852
-1.055509 1.236114 10.333351 10.000000 28 345.863855
-1.394277 1.636489 10.359561 5.000000 27 345.863857
-1.555835 1.754069 7.538158 9.000000 25 345.863860
-2.737478 3.052011 9.718148 5.000000 23 345.863862
-2.227400 2.482455 6.176954 11.000000 21 345.863865
-2.110901 2.352618 4.714907 10.000000 19 345.863868
-2.242919 2.499758 4.096204 6.000000 17 345.863870
-0.501469 0.651666 14.015865 195.000000 30 345.863878
-0.721904 0.888100 10.613775 18.000000 29 345.863880
-1.921120 2.149376 7.893648 6.000000 24 345.863886
-1.603919 1.793229 5.036186 19.000000 22 345.863888
-2.496620 2.790338 6.194556 10.000000 20 345.863891
-2.162197 2.416573 4.367023 9.000000 18 345.863893
-2.270359 2.537464 3.769435 8.000000 16 345.863896
-2.318440 2.577590 3.486670 8.000000 15 345.863853
-2.024071 2.251114 1.670528 63.000000 9 345.863861
-3.604721 4.010477 2.266988 8.000000 7 345.863864
-3.693875 4.111109 1.713436 11.000000 5 345.863866
-3.755879 4.180118 1.158390 10.000000 3 345.863869
-2.648774 2.948995 0.448114 9.000000 1 345.863871
-2.400579 2.677357 3.282800 10.000000 14 345.863879
-0.239195 0.266767 0.344439 8.000000 12 345.863882
-2.009703 2.242204 1.854306 12.000000 10 345.863884
-3.554001 3.965169 2.548991 8.000000 8 345.863887
-3.640192 4.062759 1.986643 8.000000 6 345.863889
-3.710007 4.142133 1.431884 10.000000 4 345.863892
-2.619490 2.925623 0.639224 12.000000 2 345.863895
-2.662021 2.974169 0.254689 11.000000 0 345.863897
-0.071182 0.134598 15.908667 15.000000 31 345.863908
-1.051188 1.239791 10.333351 10.000000 28 345.863910
-1.109126 1.310920 8.279089 5.000000 27 345.863913
-1.549702 1.759489 7.538158 9.000000 25 345.863915
-2.713815 3.046959 9.672123 5.000000 23 345.863918
-2.218721 2.490215 6.176954 11.000000 21 345.863921
-2.093316 2.349467 4.694242 9.000000 19 345.863923
-2.217118 2.488423 4.065508 6.000000 17 345.863926
-0.499191 0.653413 14.015865 195.000000 30 345.863933
-0.718130 0.889783 10.603832 17.000000 29 345.863936
-1.757818 1.980540 7.255431 7.000000 24 345.863941
-1.590419 1.790676 5.013681 20.000000 22 345.863944
-2.486865 2.799035 6.194556 11.000000 20 345.863946
-2.135732 2.403827 4.331118 9.000000 18 345.863949
-2.252481 2.535236 3.754734 8.000000 16 345.863951
-2.297550 2.572368 3.469148 8.000000 15 345.863909
-2.004399 2.244946 1.661256 63.000000 9 345.863917
-3.575265 4.005742 2.257623 9.000000 7 345.863919
-3.653951 4.095341 1.702162 11.000000 5 345.863922
-3.715103 4.163879 1.150929 10.000000 3 345.863924
-2.621890 2.939641 0.445883 10.000000 1 345.863927
-2.391219 2.685721 3.282800 10.000000 14 345.863935
-0.238263 0.267601 0.344439 8.000000 12 345.863937
-2.001864 2.249205 1.854306 8.000000 10 345.863940
-3.519017 3.953820 2.534305 9.000000 8 345.863942
-3.604015 4.050744 1.975144 9.000000 6 345.863945
-3.672914 4.129634 1.423678 10.000000 4 345.863947
-2.592809 2.916244 0.635775 13.000000 2 345.863950
-2.631710 2.961038 0.253479 11.000000 0 345.863953
-0.070712 0.134846 15.908667 16.000000 31 345.863963
-1.046853 1.243453 10.333351 11.000000 28 345.863966
-1.107162 1.317902 8.298671 8.000000 27 345.863968
-1.543551 1.764888 7.538158 9.000000 25 345.863971
-2.688925 3.040315 9.621494 5.000000 23 345.863973
-2.210015 2.497944 6.176954 11.000000 21 345.863976
-2.079508 2.350437 4.681843 9.000000 19 345.863978
-2.189300 2.474537 4.030976 7.000000 17 345.863981
-0.496907 0.655151 14.015865 194.000000 30 345.863989
-0.714352 0.891451 10.593889 19.000000 29 345.863991
-1.329453 1.542074 7.870873 4.000000 26 345.863994
-1.746330 1.981485 7.236660 12.000000 24 345.863996
-1.578397 1.789683 4.995678 22.000000 22 345.863999
-2.477079 2.807699 6.194556 11.000000 20 345.864001
-2.111377 2.393187 4.299201 9.000000 18 345.864004
-2.225675 2.522746 3.725333 8.000000 16 345.864007
-2.274359 2.564364 3.448121 8.000000 15 345.863964
-1.984794 2.238669 1.651984 66.000000 9 345.863972
-3.542811 3.997381 2.246385 10.000000 7 345.863975
-3.617364 4.082936 1.692298 11.000000 5 345.863977
-3.677742 4.151084 1.144400 10.000000 3 345.863980
-2.591801 2.926406 0.443206 10.000000 1 345.863982
-2.381830 2.694051 3.282800 10.000000 14 345.863990
-0.237327 0.268431 0.344439 7.000000 12 345.863993
-1.985436 2.246488 1.846709 8.000000 10 345.863995
-3.484155 3.942274 2.519619 11.000000 8 345.863998
-3.571093 4.042065 1.965288 9.000000 6 345.864000
-3.635953 4.116927 1.415472 11.000000 4 345.864003
-2.566226 2.906715 0.632326 13.000000 2 345.864005
-2.601523 2.947731 0.252270 11.000000 0 345.864008
-0.070279 0.135170 15.918667 16.000000 31 345.864019
-1.042507 1.247099 10.333351 11.000000 28 345.864021
-1.101903 1.320977 8.293776 12.000000 27 345.864024
-1.538361 1.771393 7.542930 9.000000 25 345.864026
-2.664115 3.033535 9.570868 5.000000 23 345.864029
-2.201282 2.505644 6.176954 11.000000 21 345.864031
-2.065719 2.351340 4.669445 9.000000 19 345.864034
-2.163721 2.462897 4.000280 8.000000 17 345.864036
-0.494791 0.657113 14.020857 188.000000 30 345.864044
-0.710904 0.893521 10.588918 19.000000 29 345.864047
-1.324880 1.547661 7.875712 5.000000 26 345.864049
-1.732584 1.979777 7.208504 12.000000 24 345.864052
-1.564967 1.786991 4.973175 28.000000 22 345.864054
-2.467263 2.816329 6.194556 11.000000 20 345.864057
-2.095066 2.391474 4.283244 9.000000 18 345.864060
-2.198984 2.510099 3.695931 8.000000 16 345.864062
-2.251252 2.556229 3.427094 9.000000 15 345.864020
-1.965258 2.232283 1.642712 58.000000 9 345.864027
-3.510459 3.988842 2.235147 11.000000 7 345.864030
-3.580909 4.070325 1.682433 10.000000 5 345.864033
-3.640517 4.138080 1.137872 10.000000 3 345.864035
-2.565127 2.916737 0.440975 10.000000 1 345.864038
-2.374874 2.705155 3.286124 10.000000 14 345.864045
-0.236389 0.269257 0.344439 7.000000 12 345.864048
-1.971894 2.246924 1.841644 9.000000 10 345.864051
-3.452411 3.933945 2.507030 11.000000 8 345.864053
-3.535161 4.029656 1.953789 10.000000 6 345.864056
-3.595922 4.100359 1.406093 10.000000 4 345.864058
-2.543006 2.900759 0.629567 13.000000 2 345.864061
-2.574754 2.938008 0.251263 11.000000 0 345.864063
-0.069826 0.135454 15.923667 18.000000 31 345.864074
-1.038147 1.250731 10.333351 11.000000 28 345.864077
-1.099234 1.327168 8.308460 15.000000 27 345.864079
-1.532168 1.776752 7.542930 10.000000 25 345.864082
-2.639386 3.026620 9.520240 5.000000 23 345.864084
-2.194097 2.515118 6.181343 10.000000 21 345.864087
-2.051950 2.352174 4.657046 9.000000 19 345.864089
-2.136144 2.448692 3.965748 8.000000 17 345.864092
-0.492667 0.659069 14.025848 186.000000 30 345.864100
-0.707119 0.895158 10.578976 22.000000 29 345.864102
-1.318655 1.551318 7.870873 6.000000 26 345.864105
-1.726795 1.987116 7.213197 12.000000 24 345.864107
-1.548717 1.780939 4.941669 49.000000 22 345.864110
-2.459129 2.826891 6.198822 10.000000 20 345.864113
-2.078793 2.389677 4.267285 9.000000 18 345.864115
-2.172408 2.497297 3.666530 8.000000 16 345.864118
-2.228229 2.547965 3.406066 9.000000 15 345.864075
-1.948706 2.229123 1.635758 57.000000 9 345.864083
-3.478211 3.980127 2.223908 11.000000 7 345.864086
-3.544586 4.057510 1.672569 10.000000 5 345.864088
-3.603428 4.124867 1.131344 10.000000 3 345.864091
-2.538551 2.906918 0.438744 10.000000 1 345.864093
-2.365417 2.713428 3.286124 10.000000 14 345.864101
-0.232791 0.267034 0.341495 7.000000 12 345.864104
-1.955542 2.244043 1.834047 12.000000 10 345.864106
-3.417785 3.922021 2.492344 11.000000 8 345.864109
-3.502462 4.020606 1.943933 10.000000 6 345.864111
-3.562435 4.090893 1.399059 11.000000 4 345.864114
-2.516607 2.890943 0.626118 12.000000 2 345.864116
-2.548084 2.928134 0.250255 11.000000 0 345.864119
-0.069390 0.135776 15.933665 18.000000 31 345.864130
-1.033775 1.254347 10.333351 11.000000 28 345.864132
-1.092655 1.328637 8.293776 16.000000 27 345.864135
-1.526928 1.783224 7.547702 10.000000 25 345.864137
-2.614737 3.019568 9.469611 5.000000 23 345.864140
-2.185305 2.522761 6.181343 10.000000 21 345.864142
-2.036356 2.350815 4.640514 10.000000 19 345.864145
-2.114989 2.441594 3.942726 9.000000 17 345.864147
-0.490364 0.660784 14.025848 176.000000 30 345.864155
-0.703332 0.896781 10.569033 24.000000 29 345.864158
-1.305120 1.546298 7.822481 6.000000 26 345.864160
-1.718721 1.991824 7.208504 12.000000 24 345.864163
-1.548184 1.792928 4.959671 31.000000 22 345.864165
-2.449247 2.835458 6.198822 10.000000 20 345.864168
-2.062558 2.387795 4.251328 10.000000 18 345.864171
-2.148165 2.486906 3.640804 9.000000 16 345.864173
-2.202954 2.536879 3.381534 9.000000 15 345.864131
-1.920585 2.212493 1.619532 65.000000 9 345.864139
-3.443028 3.967735 2.210797 11.000000 7 345.864141
-3.508397 4.044491 1.662705 11.000000 5 345.864144
-3.566476 4.111445 1.124815 10.000000 3 345.864146
-2.512075 2.896949 0.436513 10.000000 1 345.864149
-2.355931 2.721669 3.286124 10.000000 14 345.864157
-0.231858 0.267845 0.341495 7.000000 12 345.864159
-1.942055 2.244335 1.828982 12.000000 10 345.864162
-3.386256 3.913335 2.479756 11.000000 8 345.864164
-3.463690 4.004235 1.930792 11.000000 6 345.864167
-3.525878 4.077566 1.390853 11.000000 4 345.864169
-2.490308 2.880977 0.622669 13.000000 2 345.864172
-2.521516 2.918110 0.249247 12.000000 0 345.864174
-0.068953 0.136096 15.943666 18.000000 31 345.864185
-1.029390 1.257948 10.333351 11.000000 28 345.864188
-1.082860 1.326133 8.254614 13.000000 27 345.864190
-1.520694 1.788543 7.547702 10.000000 25 345.864193
-2.591444 3.013864 9.423587 5.000000 23 345.864195
-2.176485 2.530374 6.181343 10.000000 21 345.864198
-2.022633 2.351508 4.628115 10.000000 19 345.864200
-2.096000 2.436809 3.923541 9.000000 17 345.864203
-0.488226 0.662725 14.030840 172.000000 30 345.864211
-0.699214 0.897966 10.554118 26.000000 29 345.864213
-1.294867 1.545060 7.793446 7.000000 26 345.864216
-1.711757 1.997812 7.208504 11.000000 24 345.864218
-2.440535 2.846396 6.203088 11.000000 20 345.864224
-2.047907 2.388475 4.239359 10.000000 18 345.864226
-2.121382 2.474173 3.611402 9.000000 16 345.864229
-2.177783 2.525646 3.357002 10.000000 15 345.864186
-1.901280 2.205761 1.610259 40.000000 9 345.864194
-3.411000 3.958656 2.199559 11.000000 7 345.864197
-3.472341 4.031269 1.652840 10.000000 5 345.864199
-3.532151 4.102154 1.119220 10.000000 3 345.864202
-2.485197 2.887265 0.434282 10.000000 1 345.864204
-2.348374 2.733118 3.289449 10.000000 14 345.864212
-0.230875 0.268693 0.341495 7.000000 12 345.864215
-1.925389 2.241627 1.821385 12.000000 10 345.864217
-3.357104 3.908505 2.469265 10.000000 8 345.864220
-3.427456 3.991822 1.919293 12.000000 6 345.864222
-3.488749 4.064643 1.382647 11.000000 4 345.864225
-2.466833 2.875052 0.619910 13.000000 2 345.864227
-2.495048 2.907936 0.248240 11.000000 0 345.864230
-0.068510 0.136466 15.958665 18.000000 31 345.864241
-1.024773 1.261712 10.333351 10.000000 28 345.864243
-1.074146 1.325346 8.225242 10.000000 27 345.864246
-1.514128 1.794105 7.547702 10.000000 25 345.864248
-2.565161 3.005509 9.368356 5.000000 23 345.864251
-2.167196 2.538334 6.181343 10.000000 21 345.864253
-2.008519 2.352485 4.615716 8.000000 19 345.864256
-2.076647 2.432284 3.904356 9.000000 17 345.864259
-0.485909 0.664425 14.030840 154.000000 30 345.864266
-0.695096 0.899133 10.539205 28.000000 29 345.864269
-1.283834 1.542802 7.759571 7.000000 26 345.864271
-1.704773 2.003774 7.208504 11.000000 24 345.864274
-2.430584 2.854898 6.203088 11.000000 20 345.864279
-2.033696 2.388724 4.227390 10.000000 18 345.864282
-2.102175 2.468290 3.593026 9.000000 16 345.864284
-2.149960 2.511936 3.328966 10.000000 15 345.864242
-1.896063 2.216081 1.612577 15.000000 9 345.864250
-3.379078 3.949404 2.188321 12.000000 7 345.864252
-3.436421 4.017845 1.642976 9.000000 5 345.864255
-3.495465 4.088323 1.112691 10.000000 3 345.864257
-2.462161 2.880779 0.432497 10.000000 1 345.864260
-2.338819 2.741298 3.289449 10.000000 14 345.864268
-0.227312 0.266422 0.338552 7.000000 12 345.864270
-1.906752 2.234880 1.811255 12.000000 10 345.864273
-3.326450 3.898900 2.456677 11.000000 8 345.864275
-3.392748 3.978014 1.907794 11.000000 6 345.864278
-3.453177 4.050299 1.374441 11.000000 4 345.864280
-2.441224 2.864371 0.616461 13.000000 2 345.864283
-2.468683 2.897613 0.247232 11.000000 0 345.864285
-0.068112 0.136811 15.973665 19.000000 31 345.864296
-1.020583 1.265104 10.333351 10.000000 28 345.864299
-1.065916 1.324141 8.195870 9.000000 27 345.864301
-1.508171 1.799116 7.547702 11.000000 25 345.864304
-2.545073 3.002077 9.331536 5.000000 23 345.864306
-2.158767 2.545507 6.181343 11.000000 21 345.864309
-1.993427 2.350548 4.599185 7.000000 19 345.864311
-2.060275 2.429377 3.889008 9.000000 17 345.864314
-0.483587 0.666118 14.030840 145.000000 30 345.864322
-0.690979 0.900283 10.524290 29.000000 29 345.864324
-1.273635 1.541456 7.730536 7.000000 26 345.864327
-1.697768 2.009713 7.208504 11.000000 24 345.864329
-2.421104 2.862942 6.203088 11.000000 20 345.864335
-2.019925 2.388551 4.215422 10.000000 18 345.864337
-2.080412 2.460081 3.570976 9.000000 16 345.864340
-2.125449 2.500033 3.304434 11.000000 15 345.864297
-3.344260 3.936443 2.175210 12.000000 7 345.864308
-3.403743 4.007876 1.634521 9.000000 5 345.864310
-3.462810 4.077427 1.107095 10.000000 3 345.864313
-2.436479 2.869946 0.430266 10.000000 1 345.864315
-2.329716 2.749039 3.289449 10.000000 14 345.864323
-0.229040 0.270258 0.341495 6.000000 12 345.864326
-1.887792 2.228364 1.801125 12.000000 10 345.864328
-3.298152 3.893174 2.446187 11.000000 8 345.864331
-3.357478 3.964606 1.896295 11.000000 6 345.864333
-3.417034 4.036359 1.366234 11.000000 4 345.864336
-2.418415 2.857754 0.613701 12.000000 2 345.864338
-2.442420 2.887141 0.246224 11.000000 0 345.864341
-0.067726 0.137246 15.998664 19.000000 31 345.864352
-1.016646 1.269265 10.338291 10.000000 28 345.864354
-1.058109 1.323876 8.171394 9.000000 27 345.864357
-1.502837 1.805518 7.552474 10.000000 25 345.864359
-2.516965 2.990019 9.267101 5.000000 23 345.864362
-2.149868 2.553027 6.181343 11.000000 21 345.864364
-1.977959 2.348882 4.582653 7.000000 19 345.864367
-2.043522 2.426745 3.873661 9.000000 17 345.864370
-0.481259 0.667802 14.030840 130.000000 30 345.864377
-0.686862 0.901415 10.509375 30.000000 29 345.864380
-1.263460 1.540057 7.701500 7.000000 26 345.864382
-1.690743 2.015627 7.208504 11.000000 24 345.864385
-1.936031 2.306426 6.287417 4.000000 22 345.864388
-2.411096 2.871376 6.203088 10.000000 20 345.864390
-2.005761 2.388663 4.203454 9.000000 18 345.864393
-2.063092 2.456943 3.556275 9.000000 16 345.864395
-2.107507 2.496537 3.290416 11.000000 15 345.864353
-3.255223 3.857492 2.727548 8.000000 9 345.864361
-3.312564 3.926832 2.163971 11.000000 7 345.864363
-3.368084 3.994062 1.624656 10.000000 5 345.864366
-3.426389 4.063203 1.100567 10.000000 3 345.864368
-2.410398 2.859395 0.428035 10.000000 1 345.864371
-2.317701 2.754297 3.286124 11.000000 14 345.864379
-0.222891 0.264871 0.335609 5.000000 12 345.864381
-1.866126 2.218444 1.788463 12.000000 10 345.864384
-3.269934 3.887297 2.435697 11.000000 8 345.864386
-3.325383 3.954615 1.886439 11.000000 6 345.864389
-3.384158 4.025938 1.359201 11.000000 4 345.864391
-2.392495 2.847222 0.610252 12.000000 2 345.864394
-2.419473 2.880348 0.245418 11.000000 0 345.864397
-0.067101 0.137164 15.958665 20.000000 31 345.864407
-1.012210 1.272806 10.338291 10.000000 28 345.864410
-1.050318 1.323572 8.146918 10.000000 27 345.864412
-1.496525 1.810753 7.552474 10.000000 25 345.864415
-2.492730 2.982297 9.216473 5.000000 23 345.864417
-2.140944 2.560516 6.181343 11.000000 21 345.864420
-1.960723 2.344978 4.561988 8.000000 19 345.864423
-2.026813 2.424025 3.858313 10.000000 17 345.864425
-0.478925 0.669477 14.030840 124.000000 30 345.864433
-0.682746 0.902529 10.494461 30.000000 29 345.864435
-1.254105 1.539582 7.677305 8.000000 26 345.864438
-1.683697 2.021517 7.208504 12.000000 24 345.864441
-1.926574 2.311497 6.282917 6.000000 22 345.864443
-2.402728 2.881778 6.207354 10.000000 20 345.864446
-1.991620 2.388705 4.191485 8.000000 18 345.864448
-2.047990 2.456318 3.545249 10.000000 16 345.864451
-2.091908 2.495679 3.279903 11.000000 15 345.864408
-0.199521 0.238025 0.332741 4.000000 13 345.864411
-3.244584 3.872227 2.729866 8.000000 9 345.864416
-3.283953 3.920602 2.154606 11.000000 7 345.864419
-3.335643 3.983725 1.616201 10.000000 5 345.864421
-3.393263 4.052540 1.094971 10.000000 3 345.864424
-2.387616 2.852516 0.426250 10.000000 1 345.864426
-2.312862 2.768102 3.292774 12.000000 14 345.864434
-0.227148 0.271851 0.341495 5.000000 12 345.864437
-1.844552 2.208400 1.775801 12.000000 10 345.864439
-3.238889 3.877788 2.423108 11.000000 8 345.864442
-3.290372 3.940824 1.874941 12.000000 6 345.864444
-3.351396 4.015337 1.352167 11.000000 4 345.864447
-2.369852 2.840346 0.607493 12.000000 2 345.864449
-2.396604 2.873430 0.244612 11.000000 0 345.864452
-0.066532 0.137199 15.933665 20.000000 31 345.864463
-1.007760 1.276332 10.338291 10.000000 28 345.864465
-1.043172 1.324031 8.127337 12.000000 27 345.864468
-1.492090 1.818274 7.562017 10.000000 25 345.864470
-2.130462 2.566130 6.176954 10.000000 21 345.864475
-1.945336 2.343148 4.545456 8.000000 19 345.864478
-2.012196 2.423686 3.846802 9.000000 17 345.864481
-0.476418 0.670909 14.025848 111.000000 30 345.864488
-0.678310 0.903198 10.474575 31.000000 29 345.864491
-1.243978 1.538082 7.648269 8.000000 26 345.864493
-1.677730 2.028712 7.213197 12.000000 24 345.864496
-1.908775 2.306464 6.251411 7.000000 22 345.864499
-2.392655 2.890147 6.207354 10.000000 20 345.864501
-1.975582 2.386356 4.175527 8.000000 18 345.864504
-2.032918 2.455618 3.534224 10.000000 16 345.864506
-2.078620 2.497483 3.272893 12.000000 15 345.864464
-0.206160 0.247696 0.342154 4.000000 13 345.864467
-1.763786 2.119961 1.892672 11.000000 11 345.864469
-3.205546 3.852879 2.709004 7.000000 9 345.864472
-3.252460 3.910655 2.143368 11.000000 7 345.864474
-3.300248 3.969522 1.606337 10.000000 5 345.864477
-3.357114 4.037920 1.088443 11.000000 3 345.864479
-2.361729 2.841683 0.424019 10.000000 1 345.864482
-2.324645 2.802026 3.322698 11.000000 14 345.864490
-0.215874 0.260199 0.329723 4.000000 12 345.864492
-1.823071 2.198233 1.763139 11.000000 10 345.864495
-3.210847 3.871603 2.412618 10.000000 8 345.864497
-3.258512 3.930472 1.865084 12.000000 6 345.864500
-3.318751 4.004556 1.345133 11.000000 4 345.864502
-2.347286 2.833347 0.604734 11.000000 2 345.864505
-2.370627 2.862539 0.243604 11.000000 0 345.864508
-0.065945 0.137192 15.903667 19.000000 31 345.864518
-1.002820 1.279230 10.333351 10.000000 28 345.864521
-1.036035 1.324455 8.107757 14.000000 27 345.864523
-1.484791 1.822314 7.557245 10.000000 25 345.864526
-2.014640 2.444792 7.522744 5.000000 23 345.864528
-2.121492 2.573551 6.176954 10.000000 21 345.864531
-1.926405 2.336896 4.520658 8.000000 19 345.864534
-1.997606 2.423274 3.835291 8.000000 17 345.864536
-0.473906 0.672331 14.020857 104.000000 30 345.864544
-0.673878 0.903847 10.454690 32.000000 29 345.864546
-1.235452 1.538491 7.628912 9.000000 26 345.864549
-1.670638 2.034555 7.213197 12.000000 24 345.864552
-1.900712 2.313113 6.251411 9.000000 22 345.864554
-2.382551 2.898482 6.207354 10.000000 20 345.864557
-1.961498 2.386252 4.163558 8.000000 18 345.864559
-2.020029 2.457461 3.526874 11.000000 16 345.864562
-2.063074 2.496477 3.262380 12.000000 15 345.864519
-0.205294 0.248414 0.342154 5.000000 13 345.864522
-1.756375 2.126105 1.892672 11.000000 11 345.864525
-3.183614 3.853798 2.702050 7.000000 9 345.864527
-3.218127 3.896962 2.130257 10.000000 7 345.864530
-3.268048 3.958820 1.597882 11.000000 5 345.864532
-3.321108 4.023096 1.081915 11.000000 3 345.864535
-2.339116 2.834546 0.422234 10.000000 1 345.864537
-2.359962 2.864887 3.385870 10.000000 14 345.864545
-1.798944 2.184614 1.747944 11.000000 10 345.864550
-3.180003 3.861766 2.400030 11.000000 8 345.864553
-3.226763 3.919946 1.855228 12.000000 6 345.864555
-3.286221 3.993596 1.338099 11.000000 4 345.864558
-2.324797 2.826225 0.601974 11.000000 2 345.864561
-2.347928 2.855361 0.242798 10.000000 0 345.864563
-0.065466 0.137421 15.903667 20.000000 31 345.864574
-0.998348 1.282722 10.333351 10.000000 28 345.864576
-1.029532 1.325651 8.093071 17.000000 27 345.864579
-1.477481 1.826325 7.552474 10.000000 25 345.864581
-1.999909 2.444249 7.499732 8.000000 23 345.864584
-2.112496 2.580940 6.176954 11.000000 21 345.864587
-1.909324 2.332718 4.499994 8.000000 19 345.864589
-1.981013 2.420308 3.819944 7.000000 17 345.864592
-0.471391 0.673743 14.015865 96.000000 30 345.864599
-0.669449 0.904476 10.434804 34.000000 29 345.864602
-1.226938 1.538860 7.609556 9.000000 26 345.864605
-1.663526 2.040375 7.213197 12.000000 24 345.864607
-1.882989 2.307922 6.219905 9.000000 22 345.864610
-2.372419 2.906781 6.207354 10.000000 20 345.864612
-1.943628 2.381410 4.143611 8.000000 18 345.864615
-2.005007 2.456618 3.515848 10.000000 16 345.864617
-2.052085 2.500906 3.258875 11.000000 15 345.864575
-0.204426 0.249129 0.342154 5.000000 13 345.864578
-1.746291 2.128990 1.889930 20.000000 11 345.864580
-3.147665 3.837485 2.683506 7.000000 9 345.864583
-3.186867 3.886662 2.119019 10.000000 7 345.864585
-3.235962 3.947942 1.589427 10.000000 5 345.864588
-3.285246 4.008070 1.075386 11.000000 3 345.864590
-2.313426 2.823433 0.420003 10.000000 1 345.864593
-2.397232 2.930920 3.452367 8.000000 14 345.864601
-1.774933 2.170855 1.732750 11.000000 10 345.864606
-3.149266 3.851761 2.387441 11.000000 8 345.864608
-3.198118 3.912903 1.847015 12.000000 6 345.864611
-3.250733 3.978695 1.329893 12.000000 4 345.864613
-2.302387 2.818981 0.599215 11.000000 2 345.864616
-2.322149 2.844189 0.241791 11.000000 0 345.864619
-0.065003 0.137689 15.908667 21.000000 31 345.864630
-0.993865 1.286200 10.333351 10.000000 28 345.864633
-1.022413 1.326010 8.073490 20.000000 27 345.864635
-1.484191 1.847773 7.619277 10.000000 25 345.864638
-1.977814 2.434535 7.449104 7.000000 23 345.864640
-2.104985 2.590158 6.181343 10.000000 21 345.864643
-1.892296 2.328449 4.479329 8.000000 19 345.864645
-1.966487 2.419745 3.808433 7.000000 17 345.864648
-0.468212 0.674195 13.990908 84.000000 30 345.864656
-0.665340 0.905516 10.419890 39.000000 29 345.864658
-1.218436 1.539188 7.590199 10.000000 26 345.864661
-1.661822 2.052875 7.236660 10.000000 24 345.864663
-1.869439 2.307712 6.201902 10.000000 22 345.864666
-2.363900 2.917071 6.211620 10.000000 20 345.864668
-1.927714 2.378813 4.127653 8.000000 18 345.864671
-1.992151 2.458334 3.508498 8.000000 16 345.864674
-2.038838 2.502524 3.251866 11.000000 15 345.864631
-0.203555 0.249842 0.342154 6.000000 13 345.864634
-1.717725 2.109135 1.867999 26.000000 11 345.864636
-3.117465 3.827838 2.669598 8.000000 9 345.864639
-3.152793 3.872597 2.105907 10.000000 7 345.864642
-3.203992 3.936889 1.580971 11.000000 5 345.864644
-3.252631 3.996654 1.069791 11.000000 3 345.864647
-2.290985 2.816039 0.418218 10.000000 1 345.864649
-2.386987 2.939270 3.452367 8.000000 14 345.864657
-1.751042 2.156955 1.717555 12.000000 10 345.864662
-3.118640 3.841589 2.374853 12.000000 8 345.864665
-3.166585 3.902041 1.837159 11.000000 6 345.864667
-3.218452 3.967369 1.322859 12.000000 4 345.864670
-2.276937 2.807769 0.595766 12.000000 2 345.864672
-2.299622 2.836755 0.240984 10.000000 0 345.864675
-0.064540 0.137955 15.913667 21.000000 31 345.864686
-0.989369 1.289661 10.333351 10.000000 28 345.864688
-1.016540 1.327954 8.063700 27.000000 27 345.864691
-1.511254 1.894981 7.791059 8.000000 25 345.864693
-1.955812 2.424697 7.398476 7.000000 23 345.864696
-2.095930 2.597490 6.181343 10.000000 21 345.864698
-1.875321 2.324090 4.458664 8.000000 19 345.864701
-1.949975 2.416615 3.793085 8.000000 17 345.864703
-0.466676 0.677018 14.015865 62.000000 30 345.864711
-0.660918 0.906107 10.400004 41.000000 29 345.864714
-1.210725 1.540465 7.575681 12.000000 26 345.864716
-1.652484 2.055974 7.227275 6.000000 24 345.864719
-1.854548 2.305739 6.179398 11.000000 22 345.864721
-2.345529 2.915145 6.190290 8.000000 20 345.864724
-1.909951 2.373787 4.107705 9.000000 18 345.864727
-1.977182 2.457349 3.497473 8.000000 16 345.864729
-2.030090 2.509626 3.251866 11.000000 15 345.864687
-0.205130 0.253577 0.345292 7.000000 13 345.864689
-1.707723 2.111867 1.865257 33.000000 11 345.864692
-3.084585 3.814583 2.653372 9.000000 9 345.864694
-3.121770 3.861946 2.094669 10.000000 7 345.864697
-3.175155 3.929392 1.573925 11.000000 5 345.864700
-3.220136 3.985059 1.064195 11.000000 3 345.864702
-2.268624 2.808522 0.416434 10.000000 1 345.864705
-2.376712 2.947584 3.452367 8.000000 14 345.864712
-1.727268 2.142914 1.702361 15.000000 10 345.864718
-3.088122 3.831250 2.362265 12.000000 8 345.864720
-3.138131 3.894684 1.828945 11.000000 6 345.864723
-3.186290 3.955868 1.315825 12.000000 4 345.864725
-2.254699 2.800271 0.593007 12.000000 2 345.864728
-2.274044 2.825305 0.239977 10.000000 0 345.864730
-0.064075 0.138219 15.918667 21.000000 31 345.864741
-0.985332 1.293725 10.338291 10.000000 28 345.864744
-1.010667 1.329873 8.053909 30.000000 27 345.864746
-1.552839 1.961134 8.039188 7.000000 25 345.864749
-1.907035 2.381187 7.246593 7.000000 23 345.864751
-2.089846 2.608530 6.190120 10.000000 21 345.864754
-1.858400 2.319642 4.438000 8.000000 19 345.864756
-1.931506 2.410897 3.773900 8.000000 17 345.864759
-0.465126 0.679839 14.040823 46.000000 30 345.864767
-0.657438 0.907976 10.395033 50.000000 29 345.864769
-1.203793 1.542699 7.566003 14.000000 26 345.864772
-1.840649 2.305713 6.161394 14.000000 22 345.864777
-1.891834 2.368995 4.087758 9.000000 18 345.864782
-1.961815 2.456632 3.486447 8.000000 16 345.864785
-2.019084 2.513916 3.248362 11.000000 15 345.864742
-0.204243 0.254292 0.345292 8.000000 13 345.864745
-1.689869 2.104773 1.854291 37.000000 11 345.864747
-3.054609 3.804599 2.639463 10.000000 9 345.864750
-3.087958 3.847512 2.081558 10.000000 7 345.864753
-3.143407 3.918000 1.565470 11.000000 5 345.864755
-3.187068 3.973842 1.058599 11.000000 3 345.864758
-2.245855 2.801276 0.414649 10.000000 1 345.864760
-2.354226 2.941698 3.435743 8.000000 14 345.864768
-1.705937 2.132398 1.689699 31.000000 10 345.864773
-3.057048 3.821279 2.349676 11.000000 8 345.864776
-3.106138 3.884032 1.819089 11.000000 6 345.864778
-3.153559 3.944739 1.308791 11.000000 4 345.864781
-2.228962 2.789172 0.589558 12.000000 2 345.864783
-2.251692 2.817614 0.239171 10.000000 0 345.864786
-0.063568 0.138453 15.918667 21.000000 31 345.864797
-0.980584 1.297328 10.338291 10.000000 28 345.864799
-1.004560 1.331942 8.044119 35.000000 27 345.864802
-1.555792 1.979731 8.091678 7.000000 25 345.864804
-1.797396 2.261223 6.864583 8.000000 23 345.864807
-2.080271 2.616172 6.190120 10.000000 21 345.864809
-1.841129 2.315425 4.417335 9.000000 19 345.864812
-1.912680 2.405413 3.754715 8.000000 17 345.864814
-0.463074 0.681938 14.050806 39.000000 30 345.864822
-0.653642 0.909398 10.385090 59.000000 29 345.864825
-1.196860 1.544902 7.556324 16.000000 26 345.864827
-1.844921 2.328509 8.132978 5.000000 24 345.864830
-1.832590 2.312124 6.161394 12.000000 22 345.864832
-1.874191 2.363776 4.067811 9.000000 18 345.864838
-1.945231 2.452500 3.471746 8.000000 16 345.864840
-2.012080 2.524089 3.251866 11.000000 15 345.864798
-0.205736 0.258083 0.348430 9.000000 13 345.864800
-1.676932 2.104412 1.848808 46.000000 11 345.864803
-3.021318 3.791517 2.623237 10.000000 9 345.864806
-3.057175 3.836514 2.070320 10.000000 7 345.864808
-3.114766 3.910187 1.558424 10.000000 5 345.864811
-3.157878 3.965729 1.053936 11.000000 3 345.864813
-2.223657 2.793514 0.412864 10.000000 1 345.864816
-2.332328 2.935279 3.419118 8.000000 14 345.864824
-1.685446 2.121166 1.677037 49.000000 10 345.864829
-3.027418 3.810076 2.337088 11.000000 8 345.864831
-3.078555 3.875821 1.810876 11.000000 6 345.864834
-3.125348 3.936142 1.302929 11.000000 4 345.864836
-2.204307 2.777154 0.586109 12.000000 2 345.864839
-2.229422 2.809802 0.238365 11.000000 0 345.864841
-0.063108 0.138663 15.918667 21.000000 31 345.864852
-0.976276 1.300572 10.338291 10.000000 28 345.864855
-1.000748 1.336081 8.049014 30.000000 27 345.864857
-1.563002 2.002540 8.163254 8.000000 25 345.864860
-1.758413 2.227303 6.744918 10.000000 23 345.864862
-2.071584 2.623056 6.190120 10.000000 21 345.864865
-1.824720 2.310476 4.396670 8.000000 19 345.864867
-1.896745 2.401679 3.739368 8.000000 17 345.864870
-0.462468 0.686194 14.105714 32.000000 30 345.864878
-0.650154 0.911239 10.380118 65.000000 29 345.864880
-1.189927 1.547077 7.546646 10.000000 26 345.864883
-1.843184 2.343073 8.161136 7.000000 24 345.864885
-1.826260 2.319900 6.165895 12.000000 22 345.864888
-1.777564 2.257239 4.769734 10.000000 20 345.864891
-1.858883 2.360507 4.051853 9.000000 18 345.864893
-1.926171 2.445957 3.453370 9.000000 16 345.864896
-2.003699 2.530747 3.251866 11.000000 15 345.864853
-0.207296 0.261815 0.351568 10.000000 13 345.864856
-1.662159 2.100125 1.840584 48.000000 11 345.864858
-2.992231 3.780671 2.609329 10.000000 9 345.864861
-3.023629 3.821712 2.057209 10.000000 7 345.864864
-3.083243 3.898460 1.549969 11.000000 5 345.864866
-3.126426 3.953061 1.048340 11.000000 3 345.864869
-2.198938 2.781339 0.410633 10.000000 1 345.864871
-2.311014 2.928340 3.402494 9.000000 14 345.864879
-1.667350 2.113497 1.666907 60.000000 10 345.864884
-2.997234 3.799241 2.324500 11.000000 8 345.864887
-3.047461 3.864295 1.801020 11.000000 6 345.864889
-3.093534 3.924125 1.295895 12.000000 4 345.864892
-2.179274 2.765384 0.582660 12.000000 2 345.864894
-2.204142 2.797945 0.237357 11.000000 0 345.864897
-0.062624 0.138883 15.918667 21.000000 31 345.864908
-0.972194 1.304595 10.343230 10.000000 28 345.864910
-0.996078 1.339566 8.049014 24.000000 27 345.864913
-1.555087 2.006803 8.158482 9.000000 25 345.864915
-1.731344 2.208826 6.671278 10.000000 23 345.864918
-2.056503 2.622730 6.172565 9.000000 21 345.864920
-1.807962 2.305758 4.376005 8.000000 19 345.864923
-1.878459 2.395671 3.720183 8.000000 17 345.864926
-0.458463 0.685395 14.055798 29.000000 30 345.864933
-0.646661 0.913067 10.375148 74.000000 29 345.864936
-1.183756 1.550221 7.541807 8.000000 26 345.864938
-1.824372 2.335892 8.114207 7.000000 24 345.864941
-1.817745 2.326578 6.165895 11.000000 22 345.864944
-1.756431 2.247300 4.735607 11.000000 20 345.864946
-1.840939 2.355431 4.031905 9.000000 18 345.864949
-1.906755 2.439645 3.434995 9.000000 16 345.864951
-1.997056 2.540529 3.255371 12.000000 15 345.864909
-0.206381 0.262537 0.351568 12.000000 13 345.864911
-1.647068 2.096051 1.832359 50.000000 11 345.864914
-2.962593 3.770193 2.595421 10.000000 9 345.864917
-2.995952 3.814015 2.047843 10.000000 7 345.864919
-3.051839 3.886559 1.541514 11.000000 5 345.864922
-3.096751 3.945173 1.043677 11.000000 3 345.864924
-2.173358 2.769790 0.408402 10.000000 1 345.864927
-2.291055 2.925030 3.389195 9.000000 14 345.864935
-1.648961 2.106016 1.656777 60.000000 10 345.864940
-2.969299 3.792333 2.314009 11.000000 8 345.864942
-3.015814 3.853126 1.791164 11.000000 6 345.864945
-3.061160 3.912468 1.288862 12.000000 4 345.864947
-2.150818 2.749948 0.578521 11.000000 2 345.864950
-2.178973 2.785946 0.236349 10.000000 0 345.864952
-0.062098 0.139071 15.913667 21.000000 31 345.864963
-0.967406 1.308150 10.343230 10.000000 28 345.864966
-0.991162 1.343208 8.049014 16.000000 27 345.864968
-1.546811 2.011305 8.153709 9.000000 25 345.864971
-1.694447 2.178148 6.560817 9.000000 23 345.864973
-2.024806 2.601889 6.106736 8.000000 21 345.864976
-1.790858 2.301265 4.355340 8.000000 19 345.864978
-1.861790 2.392419 3.704835 8.000000 17 345.864981
-0.456108 0.687312 14.060789 27.000000 30 345.864989
-0.643003 0.914994 10.370176 81.000000 29 345.864991
-1.178066 1.554549 7.541807 9.000000 26 345.864994
-1.807341 2.331652 8.076666 7.000000 24 345.864996
-1.809612 2.332908 6.165895 11.000000 22 345.864999
-1.743779 2.247236 4.722809 10.000000 20 345.865002
-1.825315 2.352317 4.015947 9.000000 18 345.865004
-1.887836 2.432894 3.416619 9.000000 16 345.865007
-1.989925 2.550644 3.258875 12.000000 15 345.864964
-0.207812 0.266361 0.354706 13.000000 13 345.864967
-1.629088 2.088884 1.821394 51.000000 11 345.864970
-2.935132 3.763558 2.583831 10.000000 9 345.864972
-2.964850 3.803034 2.036605 11.000000 7 345.864975
-3.019881 3.875016 1.533059 11.000000 5 345.864977
-3.064844 3.932712 1.038082 11.000000 3 345.864980
-2.145313 2.753788 0.405724 10.000000 1 345.864982
-2.269368 2.918271 3.372571 10.000000 14 345.864990
-1.633662 2.101548 1.649180 58.000000 10 345.864995
-2.939331 3.781176 2.301421 11.000000 8 345.864998
-2.984959 3.841255 1.781307 11.000000 6 345.865000
-3.032575 3.903937 1.283000 11.000000 4 345.865003
-2.126019 2.737882 0.575072 11.000000 2 345.865005
-2.153430 2.774181 0.235342 9.000000 0 345.865008
-0.061612 0.139287 15.913667 21.000000 31 345.865019
-0.962834 1.311519 10.343230 10.000000 28 345.865021
-0.988271 1.349124 8.063700 9.000000 27 345.865024
-1.541593 2.019067 8.163254 10.000000 25 345.865026
-1.631902 2.112925 6.349101 6.000000 23 345.865029
-2.006923 2.597566 6.080404 7.000000 21 345.865031
-1.772491 2.294142 4.330543 8.000000 19 345.865034
-1.845588 2.388756 3.689487 8.000000 17 345.865037
-0.452593 0.687206 14.025848 24.000000 30 345.865044
-0.639500 0.916795 10.365205 89.000000 29 345.865047
-1.172632 1.558652 7.541807 10.000000 26 345.865049
-1.799191 2.337946 8.076666 8.000000 24 345.865052
-1.800129 2.337485 6.161394 11.000000 22 345.865055
-1.731149 2.247111 4.710011 9.000000 20 345.865057
-1.807896 2.346737 3.995999 9.000000 18 345.865060
-1.871057 2.428727 3.401918 9.000000 16 345.865062
-1.981009 2.557575 3.258875 12.000000 15 345.865020
-0.206881 0.267085 0.354706 10.000000 13 345.865022
-1.614107 2.084640 1.813169 52.000000 11 345.865025
-2.905704 3.752764 2.569922 10.000000 9 345.865028
-2.940207 3.798695 2.029113 11.000000 7 345.865030
-2.988722 3.862768 1.524603 11.000000 5 345.865033
-3.036067 3.923960 1.033419 11.000000 3 345.865035
-2.120453 2.741564 0.403493 8.000000 1 345.865038
-2.250039 2.914351 3.359271 11.000000 14 345.865046
-1.618414 2.096999 1.641582 58.000000 10 345.865051
-2.909477 3.769855 2.288833 12.000000 8 345.865053
-2.954225 3.829217 1.771451 11.000000 6 345.865056
-3.001119 3.891405 1.275966 11.000000 4 345.865058
-2.101332 2.725677 0.571623 11.000000 2 345.865061
-2.128485 2.761895 0.234334 8.000000 0 345.865064
-0.061109 0.139461 15.908667 21.000000 31 345.865074
-0.958250 1.314872 10.343230 10.000000 28 345.865077
-0.981760 1.350095 8.049014 5.000000 27 345.865079
-1.535438 2.025626 8.168025 10.000000 25 345.865082
-1.297605 1.692261 5.083406 16.000000 23 345.865084
-1.984720 2.587447 6.040905 8.000000 21 345.865087
-1.755909 2.289151 4.309878 8.000000 19 345.865090
-1.829433 2.385009 3.674140 8.000000 17 345.865092
-0.451614 0.690965 14.070773 22.000000 30 345.865100
-0.636296 0.919021 10.365205 95.000000 29 345.865102
-1.167937 1.563744 7.546646 10.000000 26 345.865105
-1.795209 2.349697 8.095436 9.000000 24 345.865108
-1.791959 2.343755 6.161394 11.000000 22 345.865110
-1.715373 2.242782 4.688681 9.000000 20 345.865113
-1.792370 2.343457 3.980041 9.000000 18 345.865115
-1.854329 2.424472 3.387218 9.000000 16 345.865118
-1.974244 2.567301 3.262380 11.000000 15 345.865075
-0.205947 0.267806 0.354706 9.000000 13 345.865078
-1.599175 2.080316 1.804945 53.000000 11 345.865081
-2.876386 3.741810 2.556014 10.000000 9 345.865083
-2.912806 3.790556 2.019748 11.000000 7 345.865086
-2.957686 3.850351 1.516148 11.000000 5 345.865088
-3.004397 3.911161 1.027823 11.000000 3 345.865091
-2.095706 2.729199 0.401262 8.000000 1 345.865093
-2.230766 2.910332 3.345972 11.000000 14 345.865101
-1.603218 2.092369 1.633985 60.000000 10 345.865106
-2.879737 3.758373 2.276244 11.000000 8 345.865109
-2.923610 3.817012 1.761595 11.000000 6 345.865111
-2.969788 3.878701 1.268932 11.000000 4 345.865114
-2.076755 2.713332 0.568173 12.000000 2 345.865116
-2.103652 2.749469 0.233326 9.000000 0 345.865119
-0.060638 0.139714 15.913667 22.000000 31 345.865130
-0.954110 1.318838 10.348169 10.000000 28 345.865132
-0.976446 1.352688 8.044119 4.000000 27 345.865135
-1.528358 2.030973 8.168025 11.000000 25 345.865137
-1.286957 1.690562 5.064997 16.000000 23 345.865140
-1.962613 2.577206 6.001408 8.000000 21 345.865142
-1.739383 2.284072 4.289213 8.000000 19 345.865145
-1.813328 2.381178 3.658792 8.000000 17 345.865148
-0.446369 0.688160 13.980924 18.000000 30 345.865155
-0.632782 0.920797 10.360233 98.000000 29 345.865158
-1.163220 1.568821 7.551485 11.000000 26 345.865160
-1.791168 2.361449 8.114207 8.000000 24 345.865163
-1.782450 2.348261 6.156893 10.000000 22 345.865166
-1.701225 2.240448 4.671618 8.000000 20 345.865168
-1.776888 2.340098 3.964083 9.000000 18 345.865171
-1.837654 2.420130 3.372517 9.000000 16 345.865173
-1.967434 2.577011 3.265884 9.000000 15 345.865131
-0.205011 0.268523 0.354706 9.000000 13 345.865134
-1.584293 2.075913 1.796721 54.000000 11 345.865136
-2.849869 3.734218 2.544424 10.000000 9 345.865139
-2.888309 3.785957 2.012256 11.000000 7 345.865141
-2.926773 3.837764 1.507693 10.000000 5 345.865144
-2.975833 3.902094 1.023160 11.000000 3 345.865146
-2.071070 2.716696 0.399031 10.000000 1 345.865149
-2.218332 2.915129 3.342647 11.000000 14 345.865157
-1.588074 2.087658 1.626388 59.000000 10 345.865162
-2.850114 3.746729 2.263656 11.000000 8 345.865164
-2.895976 3.808398 1.753382 11.000000 6 345.865167
-2.941523 3.869697 1.263070 11.000000 4 345.865169
-2.055286 2.704793 0.565414 12.000000 2 345.865172
-2.078932 2.736904 0.232319 9.000000 0 345.865175
-0.060150 0.139924 15.913667 22.000000 31 345.865185
-0.949500 1.322161 10.348169 10.000000 28 345.865188
-0.975275 1.361055 8.073490 3.000000 27 345.865190
-1.523047 2.038689 8.177569 11.000000 25 345.865193
-1.277514 1.690368 5.051189 16.000000 23 345.865195
-1.940602 2.566841 5.961910 9.000000 21 345.865198
-1.724611 2.281151 4.272681 9.000000 19 345.865201
-1.795338 2.374707 3.639607 8.000000 17 345.865203
-0.444434 0.690445 13.995898 15.000000 30 345.865211
-0.629564 0.923000 10.360233 101.000000 29 345.865213
-1.159228 1.574898 7.561163 12.000000 26 345.865216
-1.786028 2.371823 8.128285 8.000000 24 345.865219
-1.774242 2.354469 6.156893 10.000000 22 345.865221
-1.687114 2.238042 4.654554 8.000000 20 345.865224
-1.761451 2.336659 3.948125 9.000000 18 345.865226
-1.821032 2.415701 3.357816 9.000000 16 345.865229
-1.960581 2.586705 3.269389 9.000000 15 345.865186
-0.204072 0.269237 0.354706 8.000000 13 345.865189
-1.569462 2.071432 1.788496 54.000000 11 345.865192
-2.820764 3.722957 2.530516 10.000000 9 345.865194
-2.861080 3.777538 2.002891 11.000000 7 345.865197
-2.895984 3.825008 1.499238 10.000000 5 345.865199
-2.947368 3.892876 1.018497 10.000000 3 345.865202
-2.049552 2.708025 0.397246 11.000000 1 345.865204
-2.210393 2.925834 3.345972 11.000000 14 345.865212
-2.723124 3.604528 3.372951 2.000000 12 345.865215
-1.570384 2.079427 1.616258 60.000000 10 345.865217
-2.823343 3.738546 2.253166 11.000000 8 345.865220
-2.865593 3.795870 1.743526 12.000000 6 345.865222
-2.913358 3.860542 1.257209 11.000000 4 345.865225
-2.033903 2.696137 0.562655 12.000000 2 345.865228
-2.057334 2.728188 0.231513 11.000000 0 345.865230
-0.059661 0.140133 15.913667 22.000000 31 345.865241
-0.944879 1.325467 10.348169 10.000000 28 345.865243
-1.514142 2.041594 8.168025 11.000000 25 345.865248
-1.264571 1.685441 5.023574 16.000000 23 345.865251
-1.920125 2.558271 5.926801 9.000000 21 345.865254
-1.709881 2.278155 4.256150 8.000000 19 345.865256
-1.779340 2.370703 3.624259 8.000000 17 345.865259
-0.626039 0.924749 10.355262 104.000000 29 345.865269
-1.154466 1.579951 7.566003 11.000000 26 345.865272
-1.781871 2.383571 8.147057 8.000000 24 345.865274
-1.766013 2.360648 6.156893 10.000000 22 345.865277
-1.671479 2.233477 4.633224 9.000000 20 345.865279
-1.744255 2.330729 3.928178 9.000000 18 345.865282
-1.802433 2.408472 3.339440 8.000000 16 345.865284
-1.953684 2.596383 3.272893 9.000000 15 345.865242
-0.203131 0.269948 0.354706 8.000000 13 345.865245
-1.554681 2.066873 1.780272 53.000000 11 345.865247
-2.794436 3.715078 2.518926 10.000000 9 345.865250
-2.833947 3.768975 1.993525 11.000000 7 345.865252
-2.868203 3.815920 1.492192 11.000000 5 345.865255
-2.916052 3.879580 1.012901 10.000000 3 345.865257
-2.028121 2.699237 0.395462 10.000000 1 345.865260
-2.204648 2.939507 3.352622 10.000000 14 345.865268
-2.695974 3.594610 3.355292 4.000000 12 345.865270
-1.555358 2.074548 1.608661 59.000000 10 345.865273
-2.793941 3.726591 2.240578 11.000000 8 345.865275
-2.838165 3.786955 1.735312 12.000000 6 345.865278
-2.885293 3.851238 1.251347 11.000000 4 345.865280
-2.018542 2.695293 0.561275 12.000000 2 345.865283
-2.035822 2.719356 0.230706 12.000000 0 345.865286
-0.059172 0.140341 15.913667 22.000000 31 345.865296
-0.939798 1.328123 10.343230 10.000000 28 345.865299
-1.168290 1.654843 9.762343 6.000000 27 345.865301
-1.503465 2.042055 8.148938 11.000000 25 345.865304
-1.255179 1.685144 5.009766 15.000000 23 345.865306
-1.895437 2.543825 5.878525 9.000000 21 345.865309
-1.695193 2.275084 4.239618 8.000000 19 345.865311
-1.763392 2.366616 3.608912 9.000000 17 345.865314
-0.438365 0.691573 13.955965 6.000000 30 345.865322
-0.622807 0.926929 10.355262 104.000000 29 345.865324
-1.149682 1.584989 7.570842 11.000000 26 345.865327
-1.776625 2.393934 8.161136 8.000000 24 345.865329
-1.757762 2.366798 6.156893 11.000000 22 345.865332
-1.655895 2.228831 4.611895 9.000000 20 345.865334
-1.728919 2.327126 3.912220 9.000000 18 345.865337
-1.783905 2.401142 3.321064 9.000000 16 345.865340
-1.944609 2.603187 3.272893 9.000000 15 345.865297
-0.202188 0.270655 0.354706 8.000000 13 345.865300
-1.539951 2.062236 1.772047 54.000000 11 345.865302
-2.768197 3.707061 2.507336 10.000000 9 345.865305
-2.806908 3.760270 1.984160 11.000000 7 345.865308
-2.840520 3.806684 1.485146 11.000000 5 345.865310
-2.887804 3.870051 1.008238 10.000000 3 345.865313
-2.009754 2.694324 0.394123 10.000000 1 345.865315
-2.196604 2.950180 3.355946 10.000000 14 345.865323
-2.676168 3.594272 3.346462 7.000000 12 345.865326
-1.540384 2.069590 1.601064 38.000000 10 345.865328
-2.761947 3.710835 2.225891 11.000000 8 345.865331
-2.810834 3.777894 1.727099 12.000000 6 345.865333
-2.857328 3.841785 1.245486 11.000000 4 345.865336
-2.000257 2.690400 0.559206 16.000000 2 345.865338
-2.017377 2.714416 0.230102 11.000000 0 345.865341
-0.058666 0.140506 15.908667 22.000000 31 345.865352
-0.935157 1.331395 10.343230 10.000000 28 345.865354
-1.159001 1.653907 9.732971 6.000000 27 345.865357
-1.486634 2.034027 8.096450 10.000000 25 345.865359
-1.243481 1.681661 4.986753 15.000000 23 345.865362
-1.882272 2.544648 5.865359 9.000000 21 345.865364
-1.680548 2.271937 4.223086 8.000000 19 345.865367
-1.745587 2.359870 3.589727 8.000000 17 345.865369
-0.619568 0.929097 10.355262 105.000000 29 345.865380
-1.144142 1.588993 7.570842 11.000000 26 345.865382
-1.772352 2.405678 8.179906 8.000000 24 345.865385
-1.749489 2.372919 6.156893 10.000000 22 345.865387
-1.640365 2.224103 4.590565 9.000000 20 345.865390
-1.711841 2.321018 3.892272 9.000000 18 345.865393
-1.765452 2.393713 3.302689 9.000000 16 345.865395
-1.939759 2.615688 3.279903 10.000000 15 345.865353
-0.201242 0.271359 0.354706 8.000000 13 345.865355
-1.530253 2.064240 1.769306 57.000000 11 345.865358
-2.742049 3.698907 2.495746 10.000000 9 345.865360
-2.777204 3.747697 1.972922 11.000000 7 345.865363
-2.812937 3.797302 1.478100 11.000000 5 345.865366
-2.859657 3.860371 1.003575 10.000000 3 345.865368
-1.991446 2.689317 0.392784 12.000000 1 345.865371
-2.188512 2.960833 3.359271 10.000000 14 345.865378
-2.646787 3.580839 3.325860 11.000000 12 345.865381
-1.540837 2.085356 1.608661 17.000000 10 345.865384
-2.732794 3.698552 2.213303 11.000000 8 345.865386
-2.783601 3.768690 1.718885 12.000000 6 345.865389
-2.826578 3.828274 1.238452 11.000000 4 345.865391
-1.984972 2.689397 0.557826 21.000000 2 345.865394
-2.001957 2.713401 0.229699 11.000000 0 345.865396
-0.058175 0.140710 15.908667 22.000000 31 345.865407
-0.930503 1.334651 10.343230 11.000000 28 345.865410
-1.153221 1.657943 9.732971 6.000000 27 345.865412
-1.457599 2.008981 7.977157 8.000000 25 345.865415
-1.232979 1.679692 4.968344 16.000000 23 345.865417
-1.869125 2.545410 5.852193 8.000000 21 345.865420
-1.664279 2.266448 4.202421 8.000000 19 345.865422
-1.729749 2.355613 3.574379 8.000000 17 345.865425
-0.616321 0.931254 10.355262 105.000000 29 345.865435
-1.139320 1.594000 7.575681 10.000000 26 345.865438
-1.768018 2.417422 8.198677 8.000000 24 345.865440
-1.741195 2.379011 6.156893 10.000000 22 345.865443
-1.624888 2.219294 4.569235 9.000000 20 345.865446
-1.696606 2.317252 3.876314 9.000000 18 345.865448
-1.743066 2.380713 3.276963 9.000000 16 345.865451
-1.928502 2.619571 3.276398 10.000000 15 345.865408
-0.195677 0.265790 0.348430 8.000000 13 345.865411
-1.513125 2.056098 1.758340 58.000000 11 345.865413
-2.715991 3.690615 2.484155 10.000000 9 345.865416
-2.750369 3.738697 1.963557 11.000000 7 345.865419
-2.788296 3.791638 1.472463 10.000000 5 345.865421
-2.831613 3.850543 0.998912 10.000000 3 345.865424
-1.976147 2.688227 0.391892 15.000000 1 345.865426
-2.180373 2.971465 3.362596 10.000000 14 345.865434
-2.622315 3.573762 3.311144 15.000000 12 345.865437
-2.701077 3.682452 2.198617 11.000000 8 345.865442
-2.756467 3.759342 1.710672 11.000000 6 345.865444
-2.798830 3.818516 1.232590 11.000000 4 345.865447
-1.969719 2.688320 0.556447 16.000000 2 345.865449
-1.986570 2.712312 0.229296 13.000000 0 345.865452
-0.057683 0.140912 15.908667 22.000000 31 345.865463
-0.925839 1.337891 10.343230 11.000000 28 345.865465
-1.140487 1.651902 9.674230 5.000000 27 345.865468
-1.221356 1.676091 4.945331 17.000000 23 345.865473
-1.854583 2.544175 5.834639 7.000000 21 345.865475
-1.649727 2.263149 4.185889 9.000000 19 345.865478
-1.715851 2.353864 3.562868 8.000000 17 345.865480
-0.371623 0.599787 12.004247 3.000000 30 345.865488
-0.613067 0.933400 10.355262 104.000000 29 345.865491
-1.133749 1.597968 7.575681 10.000000 26 345.865493
-1.763625 2.429164 8.217448 8.000000 24 345.865496
-1.732880 2.385075 6.156893 10.000000 22 345.865498
-1.610998 2.216514 4.552171 9.000000 20 345.865501
-1.679647 2.310970 3.856367 9.000000 18 345.865504
-1.730759 2.381298 3.269612 10.000000 16 345.865506
-1.925659 2.634925 3.286911 10.000000 15 345.865464
-0.199342 0.272757 0.354706 8.000000 13 345.865466
-1.501005 2.054614 1.752857 29.000000 11 345.865469
-2.690025 3.682187 2.472565 10.000000 9 345.865472
-2.723632 3.729555 1.954192 11.000000 7 345.865474
-2.763730 3.785850 1.466827 10.000000 5 345.865477
-2.800777 3.836598 0.993316 10.000000 3 345.865479
-1.960880 2.687062 0.391000 12.000000 1 345.865482
-2.172186 2.982076 3.365921 10.000000 14 345.865490
-2.595546 3.563291 3.293485 10.000000 12 345.865492
-2.630156 3.612130 2.710266 6.000000 10 345.865495
-2.669506 3.666176 2.183930 10.000000 8 345.865497
-2.732211 3.753668 1.704101 11.000000 6 345.865500
-2.771185 3.808610 1.226729 12.000000 4 345.865502
-1.954497 2.687170 0.555067 13.000000 2 345.865505
-1.971214 2.711149 0.228893 13.000000 0 345.865507
-0.057191 0.141113 15.908667 23.000000 31 345.865518
-0.921163 1.341115 10.343230 10.000000 28 345.865521
-1.131261 1.650833 9.644858 4.000000 27 345.865523
-1.314120 1.838072 7.266170 7.000000 25 345.865526
-1.209773 1.672429 4.922318 19.000000 23 345.865528
-1.840073 2.542869 5.817084 7.000000 21 345.865531
-1.635219 2.259774 4.169358 8.000000 19 345.865533
-1.700107 2.349451 3.547520 9.000000 17 345.865536
-0.609805 0.935534 10.355262 104.000000 29 345.865546
-1.128164 1.601915 7.575681 10.000000 26 345.865549
-1.759171 2.440906 8.236219 8.000000 24 345.865551
-1.724545 2.391109 6.156893 11.000000 22 345.865554
