# .PCD v.7 - Point Cloud Data file format
VERSION .7
FIELDS x y z intensity ring timestamp
SIZE 4 4 4 4 2 8
TYPE F F F F U D
COUNT 1 1 1 1 1 1
WIDTH 924
HEIGHT 1
VIEWPOINT 0 0 0 1 0 0 0
POINTS 924
DATA ascii
-1.372448 0.080334 0.567363 50.000000 6 345.051128
-2.508771 0.147288 0.696841 94.000000 4 345.051130
-1.952605 0.114978 0.364678 46.000000 2 345.051133
-1.944769 0.114857 0.172262 38.000000 0 345.051135
-0.120562 0.036934 12.908781 105.000000 31 345.051146
-0.258554 0.021910 1.650136 8.000000 28 345.051149
-0.329152 0.028334 1.611790 29.000000 27 345.051151
-0.403642 0.026987 1.339690 35.000000 25 345.051154
-0.529496 0.032550 1.309336 32.000000 23 345.051156
-0.679475 0.041662 1.314318 34.000000 21 345.051159
-0.829239 0.050851 1.292825 56.000000 19 345.051161
-1.006670 0.061737 1.283723 63.000000 17 345.051164
-1.681628 0.232501 29.105497 24.000000 30 345.051172
-0.401043 0.029614 1.584745 37.000000 26 345.051177
-0.467648 0.029563 1.328467 36.000000 24 345.051179
-0.601528 0.037827 1.309495 33.000000 22 345.051182
-0.748722 0.046962 1.297263 56.000000 20 345.051185
-0.911097 0.057151 1.283141 60.000000 18 345.051187
-1.094039 0.068632 1.266647 62.000000 16 345.051190
-1.207246 0.072562 1.268293 62.000000 15 345.051147
-1.246517 0.074925 1.088945 74.000000 13 345.051150
-1.329467 0.080144 0.957832 32.000000 11 345.051152
-1.292714 0.077931 0.764180 32.000000 9 345.051155
-1.250237 0.075589 0.594370 30.000000 7 345.051158
-2.523884 0.153038 0.832689 80.000000 5 345.051160
-1.961292 0.118924 0.464520 49.000000 3 345.051163
-1.953341 0.118784 0.268292 35.000000 1 345.051165
-1.319246 0.081374 1.257967 56.000000 14 345.051173
-1.301656 0.080292 1.033138 80.000000 12 345.051176
-1.318516 0.081563 0.861595 34.000000 10 345.051178
-1.296653 0.080213 0.688019 33.000000 8 345.051181
-1.367446 0.084832 0.565721 36.000000 6 345.051183
-2.508242 0.156045 0.696841 94.000000 4 345.051186
-1.967019 0.122718 0.366747 48.000000 2 345.051188
-1.959314 0.122580 0.172867 38.000000 0 345.051191
-0.120432 0.037354 12.908781 106.000000 31 345.051202
-0.258475 0.022812 1.650136 9.000000 28 345.051204
-0.329051 0.029483 1.611790 29.000000 27 345.051207
-0.403545 0.028396 1.339690 36.000000 25 345.051209
-0.529379 0.034398 1.309336 32.000000 23 345.051212
-0.679325 0.044034 1.314318 31.000000 21 345.051214
-0.829057 0.053745 1.292825 56.000000 19 345.051217
-1.006449 0.065250 1.283723 63.000000 17 345.051219
-1.682239 0.238574 29.130455 22.000000 30 345.051227
-0.400938 0.031014 1.584745 36.000000 26 345.051232
-0.467542 0.031195 1.328467 35.000000 24 345.051235
-0.601392 0.039926 1.309495 33.000000 22 345.051237
-0.748554 0.049575 1.297263 56.000000 20 345.051240
-0.910892 0.060331 1.283141 60.000000 18 345.051243
-1.093793 0.072450 1.266647 62.000000 16 345.051245
-1.210544 0.077002 1.271798 55.000000 15 345.051203
-1.246247 0.079276 1.088945 74.000000 13 345.051205
-1.345871 0.085849 0.968798 33.000000 11 345.051208
-1.305697 0.083289 0.771134 32.000000 9 345.051211
-1.259219 0.080545 0.598116 30.000000 7 345.051213
-2.518547 0.161540 0.831279 79.000000 5 345.051216
-1.970669 0.126399 0.466385 47.000000 3 345.051218
-1.972794 0.126881 0.270077 36.000000 1 345.051221
-1.318954 0.085979 1.257967 48.000000 14 345.051229
-1.305401 0.085098 1.036081 78.000000 12 345.051231
-1.335432 0.087290 0.871725 34.000000 10 345.051234
-1.314480 0.085923 0.696411 33.000000 8 345.051236
-1.362429 0.089296 0.564078 22.000000 6 345.051239
-2.502832 0.164480 0.695669 94.000000 4 345.051241
-1.981404 0.130560 0.368817 48.000000 2 345.051244
-1.978815 0.130736 0.173673 38.000000 0 345.051246
-0.120342 0.037789 12.913781 105.000000 31 345.051257
-0.258394 0.023715 1.650136 9.000000 28 345.051260
-0.328946 0.030631 1.611790 29.000000 27 345.051262
-0.403444 0.029805 1.339690 36.000000 25 345.051265
-0.529255 0.036246 1.309336 32.000000 23 345.051267
-0.679167 0.046405 1.314318 31.000000 21 345.051270
-0.828864 0.056639 1.292825 58.000000 19 345.051272
-1.006215 0.068763 1.283723 63.000000 17 345.051275
-1.681110 0.244402 29.125463 21.000000 30 345.051283
-0.400827 0.032414 1.584745 37.000000 26 345.051288
-0.467430 0.032827 1.328467 35.000000 24 345.051290
-0.601249 0.042025 1.309495 33.000000 22 345.051293
-0.748376 0.052187 1.297263 55.000000 20 345.051296
-0.910676 0.063511 1.283141 62.000000 18 345.051298
-1.093534 0.076268 1.266647 64.000000 16 345.051301
-1.210268 0.081227 1.271798 55.000000 15 345.051258
-1.245963 0.083625 1.088945 74.000000 13 345.051261
-1.358079 0.091389 0.977022 34.000000 11 345.051263
-1.318659 0.088739 0.778088 32.000000 9 345.051266
-1.272806 0.085876 0.603735 30.000000 7 345.051269
-2.513181 0.170007 0.829870 81.000000 5 345.051271
-1.992213 0.135114 0.271862 37.000000 1 345.051276
-1.322371 0.090838 1.261292 40.000000 14 345.051284
-1.305096 0.089654 1.036081 80.000000 12 345.051287
-1.348022 0.092839 0.879322 34.000000 10 345.051289
-1.327756 0.091446 0.702705 32.000000 8 345.051292
-1.357398 0.093726 0.562435 22.000000 6 345.051294
-2.497393 0.172880 0.694497 94.000000 4 345.051297
-1.995757 0.138504 0.370886 48.000000 2 345.051299
-1.998282 0.139030 0.174479 39.000000 0 345.051302
-0.120210 0.038209 12.913781 105.000000 31 345.051313
-0.258310 0.024616 1.650136 9.000000 28 345.051315
-0.329851 0.031879 1.616686 29.000000 27 345.051318
-0.403337 0.031213 1.339690 36.000000 25 345.051320
-0.529126 0.038093 1.309336 32.000000 23 345.051323
-0.681391 0.048947 1.318706 31.000000 21 345.051325
-0.828661 0.059532 1.292825 58.000000 19 345.051328
-1.005969 0.072275 1.283723 63.000000 17 345.051331
-1.680246 0.250269 29.125463 19.000000 30 345.051338
-0.400711 0.033812 1.584745 36.000000 26 345.051343
-0.467313 0.034458 1.328467 35.000000 24 345.051346
-0.603271 0.044283 1.313996 33.000000 22 345.051349
-0.748189 0.054799 1.297263 55.000000 20 345.051351
-0.910448 0.066689 1.283141 62.000000 18 345.051354
-1.096642 0.080332 1.270323 64.000000 16 345.051356
-1.209977 0.085451 1.271798 53.000000 15 345.051314
-1.245664 0.087974 1.088945 74.000000 13 345.051316
-1.374436 0.097310 0.987988 35.000000 11 345.051319
-1.336018 0.094593 0.787360 32.000000 9 345.051322
-1.286372 0.091303 0.609354 30.000000 7 345.051324
-2.507787 0.178438 0.828461 79.000000 5 345.051327
-2.484224 0.176761 0.564311 59.000000 3 345.051329
-2.006632 0.143131 0.273200 37.000000 1 345.051332
-1.322046 0.095454 1.261292 39.000000 14 345.051340
-1.304775 0.094209 1.036081 78.000000 12 345.051342
-1.364890 0.098789 0.889452 34.000000 10 345.051345
-1.341008 0.097063 0.708999 32.000000 8 345.051347
-1.357062 0.098463 0.562435 34.000000 6 345.051350
-2.496774 0.181597 0.694497 94.000000 4 345.051352
-2.010078 0.146550 0.372956 51.000000 2 345.051355
-2.022698 0.147825 0.175487 39.000000 0 345.051357
-0.120076 0.038628 12.913781 105.000000 31 345.051368
-0.258222 0.025518 1.650136 9.000000 28 345.051371
-0.329737 0.033030 1.616686 29.000000 27 345.051373
-0.403226 0.032620 1.339690 36.000000 25 345.051376
-0.528989 0.039940 1.309336 32.000000 23 345.051378
-0.681216 0.051325 1.318706 31.000000 21 345.051381
-0.828449 0.062424 1.292825 56.000000 19 345.051383
-1.005710 0.075786 1.283723 63.000000 17 345.051386
-1.684514 0.256922 29.215313 17.000000 30 345.051394
-0.400591 0.035211 1.584745 36.000000 26 345.051399
-0.467190 0.036089 1.328467 35.000000 24 345.051401
-0.603113 0.046389 1.313996 33.000000 22 345.051404
-0.747994 0.057411 1.297263 55.000000 20 345.051407
-0.910210 0.069867 1.283141 62.000000 18 345.051409
-1.096355 0.084160 1.270323 64.000000 16 345.051412
-1.209672 0.089674 1.271798 53.000000 15 345.051369
-1.245349 0.092322 1.088945 74.000000 13 345.051372
-1.386598 0.103037 0.996212 37.000000 11 345.051375
-1.348934 0.100241 0.794314 32.000000 9 345.051377
-1.304538 0.097170 0.616846 31.000000 7 345.051380
-2.507149 0.187191 0.828461 79.000000 5 345.051382
-2.483592 0.185432 0.564311 55.000000 3 345.051385
-2.025985 0.151621 0.274985 38.000000 1 345.051387
-1.325428 0.100350 1.264617 37.000000 14 345.051395
-1.300408 0.098458 1.033138 78.000000 12 345.051398
-1.377433 0.104532 0.897049 35.000000 10 345.051400
-1.354238 0.102774 0.715294 32.000000 8 345.051403
-1.352002 0.102842 0.560793 35.000000 6 345.051405
-2.491279 0.189941 0.693324 93.000000 4 345.051408
-2.024368 0.154698 0.375025 56.000000 2 345.051410
-2.022169 0.154885 0.175487 9.000000 0 345.051413
-0.119940 0.039047 12.913781 105.000000 31 345.051424
-0.258132 0.026419 1.650136 9.000000 28 345.051426
-0.329620 0.034181 1.616686 30.000000 27 345.051429
-0.403110 0.034028 1.339690 37.000000 25 345.051431
-0.528847 0.041786 1.309336 33.000000 23 345.051434
-0.681032 0.053703 1.318706 32.000000 21 345.051436
-0.828226 0.065315 1.292825 56.000000 19 345.051439
-1.005440 0.079296 1.283723 63.000000 17 345.051442
-1.671592 0.260917 29.005665 14.000000 30 345.051449
-0.400465 0.036609 1.584745 37.000000 26 345.051454
-0.467061 0.037720 1.328467 35.000000 24 345.051457
-0.605109 0.048774 1.318497 33.000000 22 345.051460
-0.747778 0.060152 1.297263 55.000000 20 345.051462
-0.909948 0.073202 1.283141 62.000000 18 345.051465
-1.096039 0.088177 1.270323 64.000000 16 345.051467
-1.209351 0.093896 1.271798 60.000000 15 345.051425
-1.241138 0.096367 1.085808 74.000000 13 345.051427
-1.402905 0.109174 1.007178 38.000000 11 345.051430
-1.366243 0.106324 0.803586 32.000000 9 345.051433
-1.318056 0.102805 0.622465 31.000000 7 345.051435
-2.501698 0.195567 0.827052 80.000000 5 345.051438
-2.468204 0.193382 0.561513 42.000000 3 345.051440
-2.040309 0.160215 0.276324 38.000000 1 345.051443
-1.325052 0.105207 1.264617 36.000000 14 345.051451
-1.300038 0.103223 1.033138 78.000000 12 345.051453
-1.389934 0.110606 0.904646 37.000000 10 345.051456
-1.367425 0.108817 0.721588 32.000000 8 345.051458
-1.351616 0.107796 0.560793 35.000000 6 345.051461
-2.485721 0.198684 0.692152 95.000000 4 345.051463
-2.043533 0.163698 0.377784 59.000000 2 345.051466
-2.021617 0.161943 0.175487 9.000000 0 345.051469
-0.119796 0.039486 12.913781 105.000000 31 345.051479
-0.258033 0.027365 1.650136 9.000000 28 345.051482
-0.329493 0.035388 1.616686 30.000000 27 345.051484
-0.402982 0.035505 1.339690 36.000000 25 345.051487
-0.528690 0.043724 1.309336 33.000000 23 345.051489
-0.680831 0.056198 1.318706 32.000000 21 345.051492
-0.827981 0.068350 1.292825 56.000000 19 345.051495
-1.005142 0.082981 1.283723 63.000000 17 345.051497
-0.400329 0.038077 1.584745 36.000000 26 345.051510
-0.466920 0.039431 1.328467 35.000000 24 345.051513
-0.604935 0.050886 1.318497 33.000000 22 345.051515
-0.747564 0.062762 1.297263 55.000000 20 345.051518
-0.909687 0.076378 1.283141 62.000000 18 345.051520
-1.095724 0.092003 1.270323 64.000000 16 345.051523
-1.208999 0.098328 1.271798 60.000000 15 345.051480
-1.240776 0.100915 1.085808 74.000000 13 345.051483
-1.402495 0.114315 1.007178 38.000000 11 345.051486
-1.379091 0.112410 0.810540 32.000000 9 345.051488
-1.331532 0.108767 0.628084 31.000000 7 345.051491
-2.496183 0.204344 0.825643 80.000000 5 345.051493
-2.472410 0.202398 0.562445 39.000000 3 345.051496
-2.054628 0.168558 0.277662 39.000000 1 345.051498
-1.328398 0.110140 1.267941 35.000000 14 345.051506
-1.299670 0.107761 1.033138 78.000000 12 345.051509
-1.398132 0.116171 0.909711 40.000000 10 345.051511
-1.380606 0.114717 0.727882 32.000000 8 345.051514
-1.355937 0.112905 0.562435 35.000000 6 345.051516
-2.480168 0.206955 0.690980 92.000000 4 345.051519
-2.057754 0.172068 0.379854 35.000000 2 345.051521
-2.021009 0.169351 0.175487 10.000000 0 345.051524
-0.119658 0.039904 12.913781 107.000000 31 345.051535
-0.257936 0.028266 1.650136 10.000000 28 345.051537
-0.329367 0.036538 1.616686 30.000000 27 345.051540
-0.402856 0.036911 1.339690 34.000000 25 345.051542
-0.530481 0.045737 1.313939 33.000000 23 345.051545
-0.680631 0.058574 1.318706 32.000000 21 345.051547
-0.827737 0.071240 1.292825 56.000000 19 345.051550
-1.004847 0.086489 1.283723 63.000000 17 345.051553
-0.400200 0.039404 1.584745 36.000000 26 345.051565
-0.466786 0.040979 1.328467 35.000000 24 345.051568
-0.606923 0.053188 1.322998 32.000000 22 345.051571
-0.747340 0.065371 1.297263 53.000000 20 345.051573
-0.909415 0.079553 1.283141 62.000000 18 345.051576
-1.095413 0.095636 1.270323 66.000000 16 345.051578
-1.212202 0.102849 1.275302 62.000000 15 345.051536
-1.240416 0.105246 1.085808 71.000000 13 345.051539
-1.397921 0.118856 1.004437 38.000000 11 345.051541
-1.391933 0.118349 0.817494 32.000000 9 345.051544
-1.345022 0.114361 0.633703 30.000000 7 345.051546
-2.490711 0.212213 0.824233 82.000000 5 345.051549
-2.466794 0.210609 0.561513 37.000000 3 345.051551
-2.073875 0.177427 0.279447 39.000000 1 345.051554
-1.328005 0.114776 1.267941 34.000000 14 345.051562
-1.299286 0.112297 1.033138 78.000000 12 345.051564
-1.406330 0.121549 0.914776 40.000000 10 345.051567
-1.398304 0.120858 0.736274 32.000000 8 345.051569
-1.355555 0.117401 0.562435 33.000000 6 345.051572
-2.479468 0.215179 0.690980 92.000000 4 345.051574
-2.081840 0.181036 0.383303 4.000000 2 345.051577
-2.020437 0.176052 0.175487 14.000000 0 345.051580
-0.119525 0.040301 12.913781 99.000000 31 345.051590
-0.257841 0.029121 1.650136 10.000000 28 345.051593
-0.329244 0.037630 1.616686 30.000000 27 345.051595
-0.402731 0.038247 1.339690 32.000000 25 345.051598
-0.530326 0.047496 1.313939 34.000000 23 345.051600
-0.680433 0.060831 1.318706 31.000000 21 345.051603
-0.827496 0.073985 1.292825 58.000000 19 345.051606
-1.004554 0.089820 1.283723 63.000000 17 345.051608
-0.400060 0.040801 1.584745 37.000000 26 345.051621
-0.466640 0.042609 1.328467 35.000000 24 345.051624
-0.606744 0.055200 1.322998 32.000000 22 345.051626
-0.749716 0.068085 1.301529 44.000000 20 345.051629
-0.909146 0.082568 1.283141 60.000000 18 345.051631
-1.095073 0.099459 1.270323 66.000000 16 345.051634
-1.211854 0.106868 1.275302 62.000000 15 345.051591
-1.240061 0.109358 1.085808 74.000000 13 345.051594
-1.393354 0.123123 1.001695 39.000000 11 345.051597
-1.409185 0.124524 0.826766 32.000000 9 345.051599
-1.358468 0.120282 0.639323 30.000000 7 345.051602
-2.485177 0.220482 0.822824 82.000000 5 345.051604
-2.466082 0.218788 0.561513 36.000000 3 345.051607
-2.093117 0.186067 0.281232 40.000000 1 345.051609
-1.327618 0.119180 1.267941 34.000000 14 345.051617
-1.298906 0.116605 1.033138 78.000000 12 345.051620
-1.414485 0.127230 0.919841 40.000000 10 345.051622
-1.411435 0.126958 0.742568 32.000000 8 345.051625
-1.364544 0.122980 0.565721 30.000000 6 345.051627
-2.473861 0.223395 0.689807 91.000000 4 345.051630
-2.086127 0.188749 0.383993 4.000000 2 345.051633
-2.024786 0.183555 0.175688 9.000000 0 345.051635
-0.119383 0.040718 12.913781 95.000000 31 345.051646
-0.256966 0.029930 1.645197 10.000000 28 345.051648
-0.329111 0.038779 1.616686 30.000000 27 345.051651
-0.402595 0.039653 1.339690 30.000000 25 345.051653
-0.530157 0.049347 1.313939 34.000000 23 345.051656
-0.680216 0.063206 1.318706 31.000000 21 345.051659
-0.827233 0.076873 1.292825 58.000000 19 345.051661
-1.004235 0.093326 1.283723 65.000000 17 345.051664
-0.399915 0.042197 1.584745 37.000000 26 345.051677
-0.466489 0.044237 1.328467 35.000000 24 345.051679
-0.606547 0.057318 1.322998 32.000000 22 345.051682
-0.749474 0.070701 1.301529 38.000000 20 345.051684
-0.908852 0.085741 1.283141 62.000000 18 345.051687
-1.094719 0.103281 1.270323 66.000000 16 345.051689
-1.211474 0.111098 1.275302 58.000000 15 345.051647
-1.239671 0.113686 1.085808 74.000000 13 345.051650
-1.388752 0.127603 0.998954 40.000000 11 345.051652
-1.421976 0.130659 0.833720 33.000000 9 345.051655
-1.376505 0.126723 0.646815 31.000000 7 345.051657
-2.479615 0.228715 0.821415 82.000000 5 345.051660
-2.465303 0.227395 0.561513 35.000000 3 345.051662
-2.112290 0.195205 0.283017 37.000000 1 345.051665
-1.327193 0.123813 1.267941 33.000000 14 345.051673
-1.294467 0.120763 1.030195 78.000000 12 345.051675
-1.409739 0.131765 0.917309 40.000000 10 345.051678
-1.424539 0.133151 0.748862 33.000000 8 345.051680
-1.373510 0.128623 0.569006 30.000000 6 345.051683
-2.468227 0.231575 0.688635 91.000000 4 345.051685
-2.070664 0.194639 0.381923 3.000000 2 345.051688
-2.024132 0.190621 0.175688 8.000000 0 345.051691
-0.119240 0.041134 12.913781 106.000000 31 345.051702
-0.256860 0.030826 1.645197 9.000000 28 345.051705
-0.328973 0.039928 1.616686 30.000000 27 345.051707
-0.400968 0.040906 1.334918 25.000000 25 345.051710
-0.529982 0.051197 1.313939 33.000000 23 345.051712
-0.677607 0.065350 1.314318 31.000000 21 345.051715
-0.826960 0.079760 1.292825 58.000000 19 345.051717
-1.003903 0.096831 1.283723 63.000000 17 345.051720
-0.399766 0.043593 1.584745 37.000000 26 345.051733
-0.466332 0.045865 1.328467 36.000000 24 345.051735
-0.606343 0.059434 1.322998 32.000000 22 345.051738
-0.751818 0.073571 1.305795 35.000000 20 345.051740
-0.908547 0.088913 1.283141 62.000000 18 345.051743
-1.094352 0.107102 1.270323 64.000000 16 345.051746
-1.211078 0.115326 1.275302 60.000000 15 345.051703
-1.239267 0.118013 1.085808 73.000000 13 345.051706
-1.384136 0.132053 0.996212 44.000000 11 345.051708
-1.439153 0.137305 0.842993 39.000000 9 345.051711
-1.389899 0.132850 0.652434 31.000000 7 345.051714
-2.478802 0.237369 0.821415 82.000000 5 345.051716
-2.464494 0.235999 0.561513 35.000000 3 345.051719
-2.106639 0.202102 0.282571 36.000000 1 345.051721
-1.330470 0.128805 1.271266 33.000000 14 345.051729
-1.294037 0.125280 1.030195 76.000000 12 345.051732
-1.409271 0.136685 0.917309 58.000000 10 345.051734
-1.442135 0.139875 0.757255 34.000000 8 345.051737
-1.382453 0.134330 0.572291 30.000000 6 345.051739
-2.467403 0.240189 0.688635 92.000000 4 345.051742
-2.079830 0.202827 0.383303 3.000000 2 345.051744
-2.028427 0.198172 0.175890 8.000000 0 345.051747
-0.119096 0.041550 12.913781 105.000000 31 345.051758
-0.255980 0.031626 1.640258 9.000000 28 345.051760
-0.328832 0.041076 1.616686 30.000000 27 345.051763
-0.415676 0.043877 1.382635 15.000000 25 345.051765
-0.529800 0.053047 1.313939 33.000000 23 345.051768
-0.677374 0.067715 1.314318 31.000000 21 345.051770
-0.826676 0.082646 1.292825 60.000000 19 345.051773
-1.003559 0.100335 1.283723 63.000000 17 345.051775
-0.399611 0.044988 1.584745 37.000000 26 345.051788
-0.467885 0.047668 1.333160 36.000000 24 345.051791
-0.606132 0.061551 1.322998 33.000000 22 345.051793
-0.751557 0.076195 1.305795 31.000000 20 345.051796
-0.911230 0.092388 1.287130 62.000000 18 345.051799
-1.093971 0.110921 1.270323 62.000000 16 345.051801
-1.210668 0.119553 1.275302 60.000000 15 345.051759
-1.238847 0.122338 1.085808 68.000000 13 345.051761
-1.379505 0.136472 0.993471 51.000000 11 345.051764
-1.451891 0.143636 0.849947 34.000000 9 345.051766
-1.403267 0.139073 0.658053 32.000000 7 345.051769
-2.473185 0.245546 0.820006 82.000000 5 345.051772
-2.468544 0.245086 0.562445 35.000000 3 345.051774
-2.100965 0.208961 0.282124 37.000000 1 345.051777
-1.330012 0.133448 1.271266 33.000000 14 345.051784
-1.293592 0.129797 1.030195 74.000000 12 345.051787
-1.404496 0.141172 0.914776 60.000000 10 345.051790
-1.455185 0.146270 0.763549 39.000000 8 345.051792
-1.396072 0.140575 0.577219 31.000000 6 345.051795
-2.461714 0.248313 0.687463 92.000000 4 345.051797
-2.027723 0.205251 0.175890 10.000000 0 345.051802
-0.118991 0.041982 12.918781 105.000000 31 345.051813
-0.255868 0.032520 1.640258 10.000000 28 345.051816
-0.328687 0.042224 1.616686 29.000000 27 345.051818
-0.430367 0.046951 1.430352 12.000000 25 345.051821
-0.529611 0.054896 1.313939 32.000000 23 345.051823
-0.677134 0.070079 1.314318 31.000000 21 345.051826
-0.826383 0.085531 1.292825 58.000000 19 345.051828
-1.003202 0.103837 1.283723 63.000000 17 345.051831
-0.399451 0.046382 1.584745 37.000000 26 345.051844
-0.467716 0.049301 1.333160 36.000000 24 345.051846
-0.605914 0.063666 1.322998 32.000000 22 345.051849
-0.753880 0.079090 1.310061 30.000000 20 345.051852
-0.910902 0.095569 1.287130 62.000000 18 345.051854
-1.093577 0.114739 1.270323 60.000000 16 345.051857
-1.210244 0.123778 1.275302 60.000000 15 345.051814
-1.234540 0.126266 1.082670 68.000000 13 345.051817
-1.374861 0.140860 0.990729 51.000000 11 345.051819
-1.469009 0.150509 0.859219 33.000000 9 345.051822
-1.421220 0.145863 0.665545 39.000000 7 345.051825
-2.472312 0.254178 0.820006 82.000000 5 345.051827
-2.467673 0.253701 0.562445 35.000000 3 345.051830
-2.090315 0.215273 0.281232 21.000000 1 345.051832
-1.325824 0.137704 1.267941 35.000000 14 345.051840
-1.293131 0.134311 1.030195 74.000000 12 345.051843
-1.403994 0.146074 0.914776 61.000000 10 345.051845
-1.472723 0.153228 0.771941 32.000000 8 345.051848
-1.414361 0.147405 0.583790 35.000000 6 345.051850
-2.460832 0.256904 0.687463 92.000000 4 345.051853
-2.026994 0.212328 0.175890 11.000000 0 345.051858
-0.118844 0.042397 12.918781 105.000000 31 345.051869
-0.254983 0.033311 1.635319 9.000000 28 345.051871
-0.328537 0.043371 1.616686 28.000000 27 345.051874
-0.443557 0.049960 1.473298 11.000000 25 345.051876
-0.529416 0.056745 1.313939 32.000000 23 345.051879
-0.676885 0.072442 1.314318 32.000000 21 345.051881
-0.826079 0.088415 1.292825 60.000000 19 345.051884
-1.002834 0.107339 1.283723 63.000000 17 345.051886
-0.399287 0.047777 1.584745 37.000000 26 345.051899
-0.467541 0.050933 1.333160 36.000000 24 345.051902
-0.605688 0.065781 1.322998 32.000000 22 345.051904
-0.753600 0.081721 1.310061 30.000000 20 345.051907
-0.910563 0.098748 1.287130 64.000000 18 345.051910
-1.093170 0.118555 1.270323 62.000000 16 345.051912
-1.209804 0.128002 1.275302 60.000000 15 345.051870
-1.234092 0.130574 1.082670 73.000000 13 345.051872
-1.374361 0.145659 0.990729 51.000000 11 345.051875
-1.486097 0.157504 0.868491 32.000000 9 345.051878
-1.439142 0.152781 0.673037 31.000000 7 345.051880
-2.471410 0.262806 0.820006 76.000000 5 345.051883
-2.466773 0.262313 0.562445 35.000000 3 345.051885
-2.084599 0.222041 0.280786 21.000000 1 345.051888
-1.325335 0.142332 1.267941 36.000000 14 345.051896
-1.292654 0.138824 1.030195 74.000000 12 345.051898
-1.399189 0.150513 0.912244 66.000000 10 345.051901
-1.490229 0.160309 0.780333 32.000000 8 345.051903
-1.427924 0.153859 0.588718 31.000000 6 345.051906
-2.455088 0.264971 0.686290 92.000000 4 345.051908
-2.840734 0.307095 0.490224 73.000000 2 345.051911
-2.026240 0.219402 0.175890 15.000000 0 345.051913
-0.118695 0.042811 12.918781 105.000000 31 345.051924
-0.254865 0.034201 1.635319 9.000000 28 345.051927
-0.328384 0.044517 1.616686 29.000000 27 345.051929
-0.462666 0.053754 1.535330 19.000000 25 345.051932
-0.529215 0.058592 1.313939 32.000000 23 345.051934
-0.679009 0.075068 1.318706 31.000000 21 345.051937
-0.825765 0.091298 1.292825 60.000000 19 345.051939
-1.002453 0.110839 1.283723 65.000000 17 345.051942
-0.399118 0.049170 1.584745 36.000000 26 345.051955
-0.465646 0.052372 1.328467 35.000000 24 345.051957
-0.605455 0.067895 1.322998 32.000000 22 345.051960
-0.755902 0.084641 1.314327 31.000000 20 345.051963
-0.910212 0.101925 1.287130 64.000000 18 345.051965
-1.092750 0.122371 1.270323 66.000000 16 345.051968
-1.209350 0.132224 1.275302 60.000000 15 345.051925
-1.233629 0.134881 1.082670 73.000000 13 345.051928
-1.369687 0.150000 0.987988 47.000000 11 345.051930
-1.503153 0.164619 0.877763 34.000000 9 345.051933
-1.457033 0.159826 0.680529 18.000000 7 345.051936
-2.465842 0.270922 0.562445 33.000000 3 345.051941
-2.073911 0.228227 0.279893 34.000000 1 345.051943
-1.321119 0.146545 1.264617 38.000000 14 345.051951
-1.296179 0.143781 1.033138 74.000000 12 345.051954
-1.394371 0.154920 0.909711 66.000000 10 345.051956
-1.507703 0.167515 0.788725 31.000000 8 345.051959
-1.446152 0.160932 0.595289 30.000000 6 345.051961
-2.449317 0.273001 0.685118 92.000000 4 345.051964
-2.844567 0.317559 0.490914 87.000000 2 345.051966
-2.030427 0.227029 0.176092 16.000000 0 345.051969
-0.118504 0.043209 12.913781 105.000000 31 345.051980
-0.254744 0.035090 1.635319 10.000000 28 345.051982
-0.328226 0.045663 1.616686 30.000000 27 345.051985
-0.471373 0.056435 1.563961 28.000000 25 345.051987
-0.529007 0.060439 1.313939 32.000000 23 345.051990
-0.678743 0.077438 1.318706 31.000000 21 345.051992
-0.825442 0.094180 1.292825 58.000000 19 345.051995
-1.002060 0.114337 1.283723 61.000000 17 345.051998
-0.398944 0.050563 1.584745 36.000000 26 345.052010
-0.465460 0.053997 1.328467 35.000000 24 345.052013
-0.605214 0.070008 1.322998 32.000000 22 345.052016
-0.755602 0.087280 1.314327 31.000000 20 345.052018
-0.909851 0.105102 1.287130 64.000000 18 345.052021
-1.092316 0.126184 1.270323 64.000000 16 345.052023
-1.208881 0.136445 1.275302 58.000000 15 345.051981
-1.233150 0.139187 1.082670 71.000000 13 345.051983
-1.377465 0.155720 0.993471 39.000000 11 345.051986
-1.524580 0.172354 0.889353 35.000000 9 345.051989
-1.474892 0.166997 0.688021 5.000000 7 345.051991
-2.464881 0.279528 0.562445 33.000000 3 345.051996
-2.063205 0.234340 0.279001 36.000000 1 345.051999
-1.316889 0.150731 1.261292 39.000000 14 345.052007
-1.303701 0.149224 1.039025 74.000000 12 345.052009
-1.389538 0.159295 0.907179 66.000000 10 345.052012
-1.525145 0.174844 0.797118 30.000000 8 345.052014
-1.464348 0.168133 0.601860 30.000000 6 345.052017
-2.443521 0.280994 0.683946 92.000000 4 345.052019
-2.838521 0.326919 0.490224 90.000000 2 345.052022
-2.024659 0.233542 0.175890 17.000000 0 345.052024
-0.118353 0.043622 12.913781 105.000000 31 345.052035
-0.255389 0.036089 1.640258 10.000000 28 345.052038
-0.328065 0.046809 1.616686 30.000000 27 345.052040
-0.474138 0.058447 1.573504 33.000000 25 345.052043
-0.528793 0.062285 1.313939 29.000000 23 345.052045
-0.678469 0.079806 1.318706 31.000000 21 345.052048
-0.825108 0.097061 1.292825 60.000000 19 345.052050
-1.001655 0.117834 1.283723 63.000000 17 345.052053
-0.398765 0.051955 1.584745 37.000000 26 345.052066
-0.465269 0.055621 1.328467 35.000000 24 345.052068
-0.604966 0.072120 1.322998 32.000000 22 345.052071
-0.755292 0.089917 1.314327 31.000000 20 345.052074
-0.909479 0.108277 1.287130 62.000000 18 345.052076
-1.091869 0.129996 1.270323 64.000000 16 345.052079
-1.208398 0.140664 1.275302 60.000000 15 345.052036
-1.232657 0.143490 1.082670 73.000000 13 345.052039
-1.393527 0.162464 1.004437 33.000000 11 345.052042
-1.541571 0.179727 0.898625 37.000000 9 345.052044
-1.488114 0.173757 0.693640 5.000000 7 345.052047
-1.515555 0.177230 0.538167 25.000000 5 345.052049
-2.463891 0.288130 0.562445 33.000000 3 345.052052
-2.057428 0.240962 0.278555 36.000000 1 345.052054
-1.316355 0.155327 1.261292 40.000000 14 345.052062
-1.311201 0.154722 1.044911 78.000000 12 345.052065
-1.388973 0.164145 0.907179 66.000000 10 345.052067
-1.542554 0.182298 0.805510 29.000000 8 345.052070
-1.482511 0.175464 0.608430 30.000000 6 345.052072
-2.442525 0.289522 0.683946 92.000000 4 345.052075
-2.837363 0.336826 0.490224 90.000000 2 345.052077
-2.023832 0.240608 0.175890 28.000000 0 345.052080
-0.118200 0.044035 12.913781 105.000000 31 345.052091
-0.255261 0.036980 1.640258 10.000000 28 345.052093
-0.327900 0.047954 1.616686 30.000000 27 345.052096
-0.472449 0.059913 1.568732 33.000000 25 345.052098
-0.528572 0.064131 1.313939 29.000000 23 345.052101
-0.678186 0.082174 1.318706 31.000000 21 345.052103
-0.824764 0.099941 1.292825 44.000000 19 345.052106
-1.001237 0.121330 1.283723 65.000000 17 345.052109
-0.398581 0.053347 1.584745 37.000000 26 345.052121
-0.465072 0.057245 1.328467 35.000000 24 345.052124
-0.604710 0.074231 1.322998 32.000000 22 345.052127
-0.754974 0.092552 1.314327 31.000000 20 345.052129
-0.909095 0.111451 1.287130 64.000000 18 345.052132
-1.091408 0.133807 1.270323 62.000000 16 345.052134
-1.207899 0.144881 1.275302 60.000000 15 345.052092
-1.228284 0.147329 1.079532 73.000000 13 345.052094
-1.409557 0.169322 1.015403 29.000000 11 345.052097
-1.567326 0.188277 0.912533 38.000000 9 345.052100
-1.505910 0.181166 0.701133 5.000000 7 345.052102
-1.529215 0.184240 0.542394 34.000000 5 345.052105
-2.462870 0.296729 0.562445 33.000000 3 345.052107
-2.051630 0.247545 0.278108 37.000000 1 345.052110
-1.312098 0.159471 1.257967 44.000000 14 345.052118
-1.326703 0.161248 1.056684 91.000000 12 345.052120
-1.392672 0.169513 0.909711 55.000000 10 345.052123
-1.559929 0.189875 0.813902 29.000000 8 345.052125
-1.500641 0.182924 0.615001 30.000000 6 345.052128
-2.436675 0.297457 0.682773 92.000000 4 345.052130
-2.831254 0.346127 0.489534 91.000000 2 345.052133
-2.018021 0.247064 0.175688 36.000000 0 345.052136
-0.118045 0.044448 12.913781 105.000000 31 345.052146
-0.255131 0.037871 1.640258 10.000000 28 345.052149
-0.327730 0.049098 1.616686 30.000000 27 345.052151
-0.472237 0.061562 1.568732 33.000000 25 345.052154
-0.528345 0.065975 1.313939 32.000000 23 345.052156
-0.677895 0.084541 1.318706 30.000000 21 345.052159
-0.824410 0.102819 1.292825 39.000000 19 345.052162
-1.000808 0.124824 1.283723 65.000000 17 345.052164
-0.398392 0.054738 1.584745 37.000000 26 345.052177
-0.464869 0.058868 1.328467 35.000000 24 345.052180
-0.604434 0.076447 1.322998 33.000000 22 345.052182
-0.754630 0.095319 1.314327 31.000000 20 345.052185
-0.908681 0.114783 1.287130 62.000000 18 345.052187
-1.090911 0.137806 1.270323 62.000000 16 345.052190
-1.207386 0.149096 1.275302 60.000000 15 345.052147
-1.227762 0.151615 1.079532 73.000000 13 345.052150
-1.425557 0.176294 1.026368 29.000000 11 345.052153
-1.588643 0.196466 0.924124 39.000000 9 345.052155
-1.523671 0.188701 0.708625 6.000000 7 345.052158
-1.523802 0.188987 0.540985 34.000000 5 345.052160
-2.461766 0.305754 0.562445 33.000000 3 345.052163
-2.050709 0.255063 0.278108 35.000000 1 345.052165
-1.315210 0.164743 1.261292 42.000000 14 345.052173
-1.354177 0.169627 1.077286 96.000000 12 345.052176
-1.413430 0.177300 0.922373 39.000000 10 345.052178
-1.581739 0.198415 0.824392 30.000000 8 345.052181
-1.518703 0.190777 0.621572 30.000000 6 345.052183
-2.435568 0.306386 0.682773 90.000000 4 345.052186
-2.829967 0.356502 0.489534 90.000000 2 345.052188
-2.012189 0.253482 0.175487 36.000000 0 345.052191
-0.117882 0.044880 12.913781 106.000000 31 345.052202
-0.254990 0.038806 1.640258 10.000000 28 345.052204
-0.327548 0.050299 1.616686 30.000000 27 345.052207
-0.472008 0.063292 1.568732 33.000000 25 345.052209
-0.528100 0.067912 1.313939 32.000000 23 345.052212
-0.677581 0.087025 1.318706 30.000000 21 345.052214
-0.824028 0.105840 1.292825 37.000000 19 345.052217
-1.000343 0.128492 1.283723 63.000000 17 345.052220
-0.398189 0.056198 1.584745 37.000000 26 345.052232
-0.466361 0.060795 1.333160 35.000000 24 345.052235
-0.604164 0.078556 1.322998 33.000000 22 345.052238
-0.754292 0.097952 1.314327 31.000000 20 345.052240
-0.908274 0.117954 1.287130 62.000000 18 345.052243
-1.090423 0.141613 1.270323 64.000000 16 345.052245
-1.206831 0.153521 1.275302 62.000000 15 345.052203
-1.227198 0.156114 1.079532 71.000000 13 345.052206
-1.441493 0.183632 1.037334 30.000000 11 345.052208
-1.614280 0.205646 0.938032 39.000000 9 345.052211
-1.545963 0.197217 0.717990 8.000000 7 345.052213
-1.523099 0.194571 0.540985 32.000000 5 345.052216
-2.460683 0.314345 0.562445 33.000000 3 345.052218
-2.049806 0.262220 0.278108 35.000000 1 345.052221
-1.314627 0.169333 1.261292 39.000000 14 345.052229
-1.381639 0.177967 1.097888 95.000000 12 345.052231
-1.425630 0.183887 0.929971 37.000000 10 345.052234
-1.599042 0.206258 0.832784 15.000000 8 345.052236
-1.536762 0.198497 0.628143 33.000000 6 345.052239
-2.429663 0.314262 0.681601 89.000000 4 345.052241
-2.823794 0.365742 0.488845 90.000000 2 345.052244
-2.001338 0.259571 0.175084 72.000000 0 345.052247
-0.117724 0.045291 12.913781 106.000000 31 345.052257
-0.254853 0.039696 1.640258 10.000000 28 345.052260
-0.327371 0.051442 1.616686 31.000000 27 345.052262
-0.471785 0.064940 1.568732 33.000000 25 345.052265
-0.527860 0.069755 1.313939 32.000000 23 345.052267
-0.677273 0.089390 1.318706 30.000000 21 345.052270
-0.823653 0.108716 1.292825 29.000000 19 345.052273
-0.999889 0.131983 1.283723 63.000000 17 345.052275
-0.398001 0.057518 1.584745 37.000000 26 345.052288
-0.467868 0.062570 1.337853 33.000000 24 345.052291
-0.603886 0.080665 1.322998 33.000000 22 345.052293
-0.753946 0.100585 1.314327 31.000000 20 345.052296
-0.907857 0.121124 1.287130 64.000000 18 345.052298
-1.089947 0.145229 1.270323 64.000000 16 345.052301
-1.206288 0.157732 1.275302 60.000000 15 345.052258
-1.226645 0.160397 1.079532 71.000000 13 345.052261
-1.461573 0.191377 1.051042 29.000000 11 345.052264
-1.613552 0.211280 0.938032 39.000000 9 345.052266
-1.568283 0.205352 0.727355 14.000000 7 345.052269
-1.527202 0.200244 0.542394 30.000000 5 345.052271
-2.464442 0.323572 0.563378 33.000000 3 345.052274
-2.043941 0.268724 0.277662 37.000000 1 345.052276
-1.317730 0.174411 1.264617 38.000000 14 345.052284
-1.433101 0.189684 1.136149 91.000000 12 345.052287
-1.442108 0.190876 0.940100 37.000000 10 345.052289
-1.616346 0.213941 0.841177 9.000000 8 345.052292
-1.559502 0.206694 0.636356 35.000000 6 345.052294
-2.428607 0.322317 0.681601 89.000000 4 345.052297
-2.817656 0.374452 0.488155 90.000000 2 345.052300
-1.995514 0.265547 0.174882 71.000000 0 345.052302
-0.117573 0.045681 12.913781 104.000000 31 345.052313
-0.255487 0.040664 1.645197 10.000000 28 345.052315
-0.327198 0.052527 1.616686 31.000000 27 345.052318
-0.473046 0.066713 1.573504 34.000000 25 345.052320
-0.527626 0.071505 1.313939 33.000000 23 345.052323
-0.676973 0.091635 1.318706 30.000000 21 345.052326
-0.826077 0.111824 1.296958 28.000000 19 345.052328
-0.999446 0.135298 1.283723 63.000000 17 345.052331
-0.397797 0.058907 1.584745 37.000000 26 345.052344
-0.471066 0.064672 1.347239 31.000000 24 345.052346
-0.603615 0.082667 1.322998 33.000000 22 345.052349
-0.753608 0.103084 1.314327 31.000000 20 345.052351
-0.907450 0.124134 1.287130 62.000000 18 345.052354
-1.089434 0.149032 1.270323 64.000000 16 345.052356
-1.205759 0.161732 1.275302 60.000000 15 345.052314
-1.226107 0.164464 1.079532 71.000000 13 345.052317
-1.485796 0.199562 1.067490 29.000000 11 345.052319
-1.608452 0.216040 0.935714 51.000000 9 345.052322
-1.585935 0.213297 0.734847 20.000000 7 345.052324
-1.540757 0.207495 0.546622 27.000000 5 345.052327
-2.468223 0.332398 0.564311 31.000000 3 345.052329
-2.047974 0.276166 0.278108 34.000000 1 345.052332
-1.320844 0.179282 1.267941 38.000000 14 345.052340
-1.480527 0.200959 1.171467 78.000000 12 345.052342
-1.449977 0.197070 0.945165 38.000000 10 345.052345
-1.633578 0.222027 0.849569 7.000000 8 345.052347
-1.577489 0.214684 0.642927 32.000000 6 345.052350
-2.422652 0.330137 0.680429 92.000000 4 345.052352
-2.816332 0.384285 0.488155 88.000000 2 345.052355
-1.989625 0.271835 0.174681 72.000000 0 345.052358
-0.117405 0.046112 12.913781 103.000000 31 345.052368
-0.254570 0.041474 1.640258 10.000000 28 345.052371
-0.325999 0.053560 1.611790 31.000000 27 345.052373
-0.472798 0.068446 1.573504 34.000000 25 345.052376
-0.527360 0.073438 1.313939 34.000000 23 345.052378
-0.676632 0.094116 1.318706 30.000000 21 345.052381
-0.825661 0.114851 1.296958 27.000000 19 345.052383
-0.998943 0.138960 1.283723 63.000000 17 345.052386
-0.397579 0.060364 1.584745 37.000000 26 345.052399
-0.475952 0.067121 1.361317 24.000000 24 345.052401
-0.603308 0.084879 1.322998 32.000000 22 345.052404
-0.753225 0.105846 1.314327 31.000000 20 345.052406
-0.906989 0.127459 1.287130 64.000000 18 345.052409
-1.088880 0.153024 1.270323 64.000000 16 345.052412
-1.205158 0.166150 1.275302 60.000000 15 345.052369
-1.225496 0.168956 1.079532 71.000000 13 345.052372
-1.489197 0.205578 1.070232 30.000000 11 345.052374
-1.603261 0.221327 0.933396 74.000000 9 345.052377
-1.608104 0.222282 0.744212 18.000000 7 345.052380
-1.558994 0.215771 0.552259 27.000000 5 345.052382
-2.457257 0.340096 0.562445 21.000000 3 345.052385
-2.046948 0.283671 0.278108 26.000000 1 345.052387
-1.320179 0.184122 1.267941 37.000000 14 345.052395
-1.515810 0.211410 1.197955 72.000000 12 345.052398
-1.470594 0.205365 0.957827 33.000000 10 345.052400
-1.659723 0.231779 0.862157 5.000000 8 345.052403
-1.600076 0.223734 0.651140 32.000000 6 345.052405
-2.421426 0.339014 0.680429 92.000000 4 345.052408
-2.810000 0.393917 0.487465 89.000000 2 345.052410
-1.988615 0.279125 0.174681 57.000000 0 345.052413
-0.117243 0.046522 12.913781 105.000000 31 345.052424
-0.254424 0.042362 1.640258 10.000000 28 345.052426
-0.325810 0.054697 1.611790 31.000000 27 345.052429
-0.472556 0.070096 1.573504 34.000000 25 345.052431
-0.529034 0.075555 1.318541 35.000000 23 345.052434
-0.676300 0.096477 1.318706 30.000000 21 345.052436
-0.825256 0.117732 1.296958 29.000000 19 345.052439
-0.998452 0.142446 1.283723 63.000000 17 345.052441
-0.397366 0.061752 1.584745 37.000000 26 345.052454
-0.482546 0.069771 1.380088 17.000000 24 345.052457
-0.600853 0.086673 1.318497 32.000000 22 345.052459
-0.752851 0.108475 1.314327 31.000000 20 345.052462
-0.906539 0.130624 1.287130 62.000000 18 345.052465
-1.088339 0.156824 1.270323 62.000000 16 345.052467
-1.204570 0.170356 1.275302 62.000000 15 345.052425
-1.224899 0.173233 1.079532 73.000000 13 345.052427
-1.442928 0.204326 1.040076 32.000000 11 345.052430
-1.598092 0.226301 0.931078 75.000000 9 345.052432
-1.630268 0.231148 0.753578 17.000000 7 345.052435
-1.577230 0.223909 0.557895 26.000000 5 345.052438
-2.441464 0.346600 0.559647 15.000000 3 345.052440
-2.045945 0.290814 0.278108 26.000000 1 345.052443
-1.323224 0.189258 1.271266 36.000000 14 345.052450
-1.539071 0.220133 1.215614 63.000000 12 345.052453
-1.457065 0.208663 0.950230 26.000000 10 345.052456
-1.649918 0.236285 0.857961 4.000000 8 345.052458
-1.622658 0.232670 0.659354 30.000000 6 345.052461
-2.415416 0.346773 0.679256 90.000000 4 345.052463
-2.803706 0.403019 0.486775 90.000000 2 345.052466
-1.992574 0.286777 0.174882 47.000000 0 345.052468
-0.117080 0.046931 12.913781 102.000000 31 345.052479
-0.255040 0.043382 1.645197 10.000000 28 345.052482
-0.325617 0.055834 1.611790 31.000000 27 345.052484
-0.472308 0.071745 1.573504 34.000000 25 345.052487
-0.528767 0.077401 1.318541 35.000000 23 345.052489
-0.675959 0.098837 1.318706 30.000000 21 345.052492
-0.824840 0.120612 1.296958 30.000000 19 345.052494
-0.997948 0.145930 1.283723 63.000000 17 345.052497
-0.397148 0.063138 1.584745 37.000000 26 345.052510
-0.490835 0.072719 1.403552 16.000000 24 345.052512
-0.600546 0.088770 1.318497 30.000000 22 345.052515
-0.752468 0.111102 1.314327 31.000000 20 345.052518
-0.906078 0.133787 1.287130 50.000000 18 345.052520
-1.087785 0.160622 1.270323 64.000000 16 345.052523
-1.203968 0.174559 1.275302 62.000000 15 345.052480
-1.224286 0.177508 1.079532 73.000000 13 345.052483
-1.409102 0.204556 1.018144 38.000000 11 345.052485
-1.619214 0.235061 0.942668 57.000000 9 345.052488
-1.652390 0.240172 0.762943 21.000000 7 345.052491
-1.600176 0.232867 0.564941 26.000000 5 345.052493
-2.420795 0.352290 0.555917 12.000000 3 345.052496
-2.039990 0.297236 0.277662 30.000000 1 345.052498
-1.326251 0.194417 1.274591 36.000000 14 345.052506
-1.554290 0.227850 1.227387 61.000000 12 345.052509
-1.498983 0.220009 0.975554 22.000000 10 345.052511
-1.640103 0.240724 0.853765 4.000000 8 345.052514
-1.645198 0.241766 0.667567 29.000000 6 345.052516
-2.409382 0.354495 0.678084 90.000000 4 345.052519
-2.797383 0.412081 0.486085 88.000000 2 345.052521
-1.991560 0.293730 0.174882 47.000000 0 345.052524
-0.116916 0.047339 12.913781 101.000000 31 345.052535
-0.254887 0.044272 1.645197 10.000000 28 345.052537
-0.325420 0.056971 1.611790 30.000000 27 345.052540
-0.472055 0.073393 1.573504 34.000000 25 345.052542
-0.528494 0.079246 1.318541 35.000000 23 345.052545
-0.677979 0.101551 1.323095 31.000000 21 345.052547
-0.827196 0.123908 1.301091 30.000000 19 345.052550
-0.997433 0.149413 1.283723 63.000000 17 345.052552
-0.396925 0.064524 1.584745 37.000000 26 345.052565
-0.499109 0.075727 1.427016 17.000000 24 345.052568
-0.600233 0.090866 1.318497 30.000000 22 345.052570
-0.752075 0.113728 1.314327 30.000000 20 345.052573
-0.905605 0.136949 1.287130 40.000000 18 345.052576
-1.090570 0.164925 1.273998 67.000000 16 345.052578
-1.203352 0.178761 1.275302 60.000000 15 345.052536
-1.223659 0.181780 1.079532 73.000000 13 345.052538
-1.358748 0.202091 0.985246 40.000000 11 345.052541
-1.741079 0.258961 1.007573 32.000000 9 345.052544
-1.674469 0.249352 0.772308 23.000000 7 345.052546
-1.618332 0.241281 0.570578 26.000000 5 345.052549
-2.404975 0.358565 0.553119 11.000000 3 345.052551
-2.038940 0.304355 0.277662 21.000000 1 345.052554
-1.332950 0.200154 1.281241 36.000000 14 345.052562
-1.569474 0.235675 1.239159 57.000000 12 345.052564
-1.549366 0.232932 1.005944 16.000000 10 345.052567
-1.639252 0.246448 0.853765 4.000000 8 345.052569
-1.672363 0.251724 0.677423 29.000000 6 345.052572
-2.403324 0.362179 0.676912 90.000000 4 345.052574
-2.795928 0.421843 0.486085 87.000000 2 345.052577
-1.995463 0.301427 0.175084 52.000000 0 345.052579
-0.116750 0.047747 12.913781 106.000000 31 345.052590
-0.254731 0.045161 1.645197 9.000000 28 345.052593
-0.325219 0.058106 1.611790 30.000000 27 345.052595
-0.471796 0.075041 1.573504 34.000000 25 345.052598
-0.526283 0.080794 1.313939 34.000000 23 345.052600
-0.677620 0.103917 1.323095 31.000000 21 345.052603
-0.826759 0.126794 1.301091 30.000000 19 345.052605
-0.996905 0.152894 1.283723 63.000000 17 345.052608
-0.396697 0.065909 1.584745 37.000000 26 345.052621
-0.507367 0.078793 1.450479 21.000000 24 345.052623
-0.599912 0.092960 1.318497 30.000000 22 345.052626
-0.751674 0.116352 1.314327 30.000000 20 345.052629
-0.908100 0.140571 1.291119 37.000000 18 345.052631
-1.089988 0.168731 1.273998 64.000000 16 345.052634
-1.202720 0.182960 1.275302 60.000000 15 345.052591
-1.223017 0.186051 1.079532 73.000000 13 345.052594
-1.349767 0.205574 0.979764 45.000000 11 345.052596
-1.744545 0.265704 1.009891 11.000000 9 345.052599
-1.701085 0.259389 0.783546 24.000000 7 345.052602
-1.641192 0.250549 0.577624 27.000000 5 345.052604
-2.427989 0.370665 0.557782 11.000000 3 345.052607
-2.032942 0.310718 0.277216 21.000000 1 345.052609
-1.339625 0.205941 1.287891 36.000000 14 345.052617
-1.568642 0.241152 1.239159 57.000000 12 345.052620
-1.663592 0.256046 1.074319 6.000000 10 345.052622
-1.624925 0.250097 0.847471 4.000000 8 345.052625
-1.694811 0.261157 0.685637 29.000000 6 345.052627
-2.387633 0.368343 0.673395 78.000000 4 345.052630
-2.794438 0.431601 0.486085 87.000000 2 345.052632
-2.004273 0.309917 0.175487 75.000000 0 345.052635
-0.116582 0.048154 12.913781 105.000000 31 345.052646
-0.254572 0.046050 1.645197 9.000000 28 345.052648
-0.325015 0.059241 1.611790 30.000000 27 345.052651
-0.471531 0.076687 1.573504 35.000000 25 345.052653
-0.525998 0.082630 1.313939 34.000000 23 345.052656
-0.677253 0.106282 1.323095 31.000000 21 345.052658
-0.826311 0.129679 1.301091 29.000000 19 345.052661
-0.996366 0.156373 1.283723 63.000000 17 345.052664
-0.396465 0.067294 1.584745 37.000000 26 345.052676
-0.513906 0.081647 1.469250 25.000000 24 345.052679
-0.599584 0.095054 1.318497 30.000000 22 345.052682
-0.748687 0.118567 1.310061 29.000000 20 345.052684
-0.907604 0.143740 1.291119 31.000000 18 345.052687
-1.089392 0.172535 1.273998 64.000000 16 345.052689
-1.202074 0.187157 1.275302 62.000000 15 345.052647
-1.222360 0.190319 1.079532 71.000000 13 345.052649
-1.336647 0.208352 0.971539 47.000000 11 345.052652
-1.743606 0.271792 1.009891 11.000000 9 345.052655
-1.727653 0.269614 0.794784 26.000000 7 345.052657
-1.668746 0.260719 0.586079 25.000000 5 345.052660
-2.426680 0.379138 0.557782 17.000000 3 345.052662
-2.026925 0.317043 0.276770 24.000000 1 345.052665
-1.353654 0.212937 1.301190 37.000000 14 345.052673
-1.567791 0.246626 1.239159 55.000000 12 345.052675
-1.718052 0.270571 1.107241 6.000000 10 345.052678
-1.637492 0.257886 0.853765 3.000000 8 345.052680
-1.721878 0.271484 0.695493 28.000000 6 345.052683
-2.314315 0.365307 0.655810 38.000000 4 345.052685
-2.792915 0.441352 0.486085 84.000000 2 345.052688
-2.008114 0.317692 0.175688 51.000000 0 345.052690
-0.116374 0.048543 12.908781 106.000000 31 345.052701
-0.254409 0.046938 1.645197 10.000000 28 345.052704
-0.325807 0.060562 1.616686 30.000000 27 345.052706
-0.472734 0.078578 1.578276 35.000000 25 345.052709
-0.525706 0.084466 1.313939 33.000000 23 345.052711
-0.676878 0.108645 1.323095 31.000000 21 345.052714
-0.825853 0.132563 1.301091 29.000000 19 345.052716
-0.995814 0.159850 1.283723 63.000000 17 345.052719
-3.178956 0.672066 30.211077 14.000000 29 345.052729
-0.396228 0.068677 1.584745 37.000000 26 345.052732
-0.520432 0.084548 1.488022 25.000000 24 345.052734
-0.599248 0.097146 1.318497 30.000000 22 345.052737
-0.748269 0.121180 1.310061 28.000000 20 345.052740
-0.910072 0.147389 1.295109 25.000000 18 345.052742
-1.088783 0.176337 1.273998 64.000000 16 345.052745
-1.201414 0.191352 1.275302 62.000000 15 345.052702
-1.221689 0.194584 1.079532 71.000000 13 345.052705
-1.331782 0.212358 0.968798 49.000000 11 345.052708
-1.733897 0.276481 1.005255 11.000000 9 345.052710
-1.754169 0.280028 0.806022 26.000000 7 345.052713
-1.691512 0.270328 0.593125 25.000000 5 345.052715
-2.435043 0.389156 0.559647 28.000000 3 345.052718
-2.020889 0.323330 0.276324 36.000000 1 345.052720
-1.367650 0.220034 1.314489 38.000000 14 345.052728
-1.566920 0.252097 1.239159 55.000000 12 345.052731
-1.874583 0.301932 1.200940 15.000000 10 345.052733
-1.744231 0.281252 0.703706 28.000000 6 345.052738
-2.016856 0.326296 0.176092 51.000000 0 345.052746
-0.116204 0.048949 12.908781 105.000000 31 345.052757
-0.254244 0.047826 1.645197 10.000000 28 345.052759
-0.325593 0.061699 1.616686 30.000000 27 345.052762
-0.472457 0.080227 1.578276 34.000000 25 345.052764
-0.525408 0.086301 1.313939 32.000000 23 345.052767
-0.676495 0.111007 1.323095 31.000000 21 345.052769
-0.828163 0.135901 1.305224 29.000000 19 345.052772
-0.995250 0.163325 1.283723 63.000000 17 345.052775
-3.171893 0.682147 30.166334 15.000000 29 345.052785
-0.395985 0.070060 1.584745 37.000000 26 345.052787
-0.523538 0.086929 1.497407 24.000000 24 345.052790
-0.598906 0.099237 1.318497 32.000000 22 345.052793
-0.747841 0.123791 1.310061 28.000000 20 345.052795
-0.909552 0.150565 1.295109 25.000000 18 345.052798
-1.084816 0.179582 1.270323 64.000000 16 345.052800
-1.200739 0.195545 1.275302 62.000000 15 345.052758
-1.221002 0.198848 1.079532 73.000000 13 345.052760
-1.326905 0.216333 0.966056 53.000000 11 345.052763
-1.728549 0.281819 1.002936 39.000000 9 345.052766
-1.785208 0.291377 0.819134 26.000000 7 345.052768
-1.718965 0.280873 0.601580 24.000000 5 345.052771
-2.423974 0.396070 0.557782 29.000000 3 345.052773
-2.009918 0.328774 0.275431 66.000000 1 345.052776
-1.385298 0.227837 1.331114 38.000000 14 345.052784
-1.570019 0.258221 1.242103 55.000000 12 345.052786
-1.894788 0.311976 1.213603 26.000000 10 345.052789
-1.771196 0.291947 0.713562 27.000000 6 345.052794
-1.779378 0.293614 0.525683 32.000000 4 345.052796
-2.020634 0.334149 0.176293 78.000000 0 345.052802
-0.116032 0.049354 12.908781 105.000000 31 345.052812
-0.254076 0.048713 1.645197 11.000000 28 345.052815
-0.325376 0.062836 1.616686 30.000000 27 345.052817
-0.472174 0.081876 1.578276 34.000000 25 345.052820
-0.525104 0.088134 1.313939 29.000000 23 345.052822
-0.676103 0.113368 1.323095 31.000000 21 345.052825
-0.827683 0.138791 1.305224 29.000000 19 345.052828
-0.994673 0.166798 1.283723 61.000000 17 345.052830
-3.162190 0.691616 30.096735 17.000000 29 345.052840
-0.395738 0.071442 1.584745 36.000000 26 345.052843
-0.526634 0.089334 1.506793 24.000000 24 345.052846
-0.598556 0.101327 1.318497 33.000000 22 345.052848
-0.747404 0.126401 1.310061 28.000000 20 345.052851
-0.911992 0.154242 1.299098 28.000000 18 345.052853
-1.084183 0.183368 1.270323 64.000000 16 345.052856
-1.200049 0.199735 1.275302 60.000000 15 345.052813
-1.220300 0.203108 1.079532 73.000000 13 345.052816
-1.326142 0.220963 0.966056 53.000000 11 345.052819
-1.718815 0.286395 0.998300 76.000000 9 345.052821
-1.816189 0.302946 0.832245 26.000000 7 345.052824
-1.746365 0.291612 0.610036 24.000000 5 345.052826
-2.417732 0.403719 0.556850 30.000000 3 345.052829
