# .PCD v.7 - Point Cloud Data file format
VERSION .7
FIELDS x y z intensity ring timestamp
SIZE 4 4 4 4 2 8
TYPE F F F F U D
COUNT 1 1 1 1 1 1
WIDTH 911
HEIGHT 1
VIEWPOINT 0 0 0 1 0 0 0
POINTS 911
DATA ascii
-0.256456 -1.153000 0.500013 38.000000 6 346.028154
-0.253511 -1.138822 0.372109 20.000000 4 346.028156
-0.251967 -1.130957 0.253617 10.000000 2 346.028159
-0.257424 -1.155450 0.141428 29.000000 0 346.028161
-0.009748 -0.026665 1.689209 7.000000 31 346.028172
-0.054203 -0.217073 1.422930 39.000000 28 346.028175
-0.070811 -0.281902 1.420877 37.000000 27 346.028177
-0.096494 -0.417432 1.416037 56.000000 25 346.028180
-0.098644 -0.437458 1.116030 27.000000 23 346.028182
-0.096976 -0.430385 0.875452 31.000000 21 346.028185
-0.078701 -0.349284 0.598490 18.000000 19 346.028187
-0.101901 -0.452218 0.631442 33.000000 17 346.028190
-0.030141 -0.101827 1.671618 9.000000 30 346.028198
-0.041407 -0.151722 1.421637 70.000000 29 346.028200
-0.083345 -0.349571 1.420212 53.000000 26 346.028203
-0.105784 -0.465338 1.351931 17.000000 24 346.028205
-0.098699 -0.434860 0.985435 27.000000 22 346.028208
-0.087921 -0.387657 0.600936 32.000000 18 346.028213
-0.112741 -0.497068 0.630844 38.000000 16 346.028216
-0.121739 -0.543329 0.626961 4.000000 15 346.028173
-0.146216 -0.652550 0.621417 39.000000 13 346.028176
-0.154193 -0.687589 0.546612 4.000000 11 346.028179
-0.262061 -1.168572 0.713183 44.000000 9 346.028181
-0.258049 -1.149743 0.564401 39.000000 7 346.028184
-0.254511 -1.133054 0.431068 31.000000 5 346.028186
-0.252996 -1.126308 0.310638 10.000000 3 346.028189
-0.252273 -1.122174 0.196006 14.000000 1 346.028191
-0.137263 -0.608131 0.636220 8.000000 14 346.028199
-0.145638 -0.645218 0.565176 7.000000 12 346.028202
-0.171393 -0.758702 0.542509 5.000000 10 346.028204
-0.264268 -1.169805 0.641862 45.000000 8 346.028207
-0.260479 -1.152098 0.500013 38.000000 6 346.028209
-0.257485 -1.137931 0.372109 20.000000 4 346.028212
-0.255914 -1.130070 0.253617 12.000000 2 346.028214
-0.261658 -1.154499 0.141428 29.000000 0 346.028217
-0.009841 -0.026631 1.689209 7.000000 31 346.028228
-0.054960 -0.216883 1.422930 38.000000 28 346.028230
-0.071795 -0.281653 1.420877 37.000000 27 346.028233
-0.097950 -0.417093 1.416037 56.000000 25 346.028235
-0.100171 -0.437111 1.116030 27.000000 23 346.028238
-0.097942 -0.427708 0.871063 31.000000 21 346.028240
-0.079292 -0.346264 0.594357 18.000000 19 346.028243
-0.103479 -0.451860 0.631442 33.000000 17 346.028246
-0.030496 -0.101721 1.671618 9.000000 30 346.028253
-0.041936 -0.151577 1.421637 68.000000 29 346.028256
-0.084564 -0.349278 1.420212 51.000000 26 346.028258
-0.106242 -0.459922 1.337853 7.000000 24 346.028261
-0.099727 -0.432391 0.980934 27.000000 22 346.028264
-0.089950 -0.390284 0.604926 31.000000 18 346.028269
-0.114475 -0.496671 0.630844 38.000000 16 346.028271
-0.123635 -0.542901 0.626961 4.000000 15 346.028229
-0.148493 -0.652035 0.621417 39.000000 13 346.028231
-0.156592 -0.687047 0.546612 4.000000 11 346.028234
-0.266138 -1.167650 0.713183 44.000000 9 346.028237
-0.262061 -1.148835 0.564401 39.000000 7 346.028239
-0.258465 -1.132159 0.431068 31.000000 5 346.028242
-0.256926 -1.125418 0.310638 10.000000 3 346.028244
-0.255079 -1.116432 0.195560 14.000000 1 346.028247
-0.138550 -0.604008 0.632895 7.000000 14 346.028255
-0.148793 -0.648646 0.568119 7.000000 12 346.028257
-0.175005 -0.762301 0.545042 5.000000 10 346.028260
-0.268350 -1.168876 0.641862 45.000000 8 346.028262
-0.264499 -1.151181 0.500013 38.000000 6 346.028265
-0.261455 -1.137025 0.372109 19.000000 4 346.028267
-0.259857 -1.129170 0.253617 12.000000 2 346.028270
-0.265686 -1.153579 0.141428 28.000000 0 346.028273
-0.009934 -0.026596 1.689209 7.000000 31 346.028283
-0.055717 -0.216690 1.422930 38.000000 28 346.028286
-0.072777 -0.281401 1.420877 38.000000 27 346.028288
-0.099406 -0.416748 1.416037 55.000000 25 346.028291
-0.101696 -0.436758 1.116030 27.000000 23 346.028293
-0.099435 -0.427364 0.871063 31.000000 21 346.028296
-0.080500 -0.345985 0.594357 19.000000 19 346.028299
-0.105056 -0.451496 0.631442 34.000000 17 346.028301
-0.030851 -0.101614 1.671618 9.000000 30 346.028309
-0.042465 -0.151430 1.421637 68.000000 29 346.028311
-0.085783 -0.348981 1.420212 53.000000 26 346.028314
-0.101236 -0.432040 0.980934 26.000000 22 346.028319
-0.091312 -0.389968 0.604926 30.000000 18 346.028324
-0.116981 -0.499569 0.634519 38.000000 16 346.028327
-0.125529 -0.542466 0.626961 4.000000 15 346.028284
-0.150768 -0.651513 0.621417 40.000000 13 346.028287
-0.158990 -0.686496 0.546612 4.000000 11 346.028290
-0.270213 -1.166714 0.713183 44.000000 9 346.028292
-0.266069 -1.147914 0.564401 39.000000 7 346.028295
-0.262415 -1.131249 0.431068 31.000000 5 346.028297
-0.259742 -1.119729 0.309705 10.000000 3 346.028300
-0.258975 -1.115535 0.195560 14.000000 1 346.028302
-0.139810 -0.599884 0.629571 7.000000 14 346.028310
-0.151056 -0.648123 0.568119 8.000000 12 346.028313
-0.176686 -0.757487 0.542509 6.000000 10 346.028315
-0.272428 -1.167932 0.641862 43.000000 8 346.028318
-0.268516 -1.150251 0.500013 38.000000 6 346.028320
-0.265423 -1.136105 0.372109 19.000000 4 346.028323
-0.262669 -1.123434 0.252928 11.000000 2 346.028325
-0.269711 -1.152644 0.141428 28.000000 0 346.028328
-0.010006 -0.026523 1.684209 8.000000 31 346.028339
-0.056473 -0.216494 1.422930 37.000000 28 346.028341
-0.073759 -0.281145 1.420877 38.000000 27 346.028344
-0.100860 -0.416399 1.416037 56.000000 25 346.028346
-0.103220 -0.436401 1.116030 27.000000 23 346.028349
-0.100926 -0.427014 0.871063 31.000000 21 346.028351
-0.081707 -0.345702 0.594357 19.000000 19 346.028354
-0.106631 -0.451127 0.631442 34.000000 17 346.028357
-0.031206 -0.101506 1.671618 9.000000 30 346.028364
-0.043142 -0.151793 1.426608 68.000000 29 346.028367
-0.087001 -0.348680 1.420212 53.000000 26 346.028369
-0.102743 -0.431684 0.980934 27.000000 22 346.028375
-0.092673 -0.389647 0.604926 30.000000 18 346.028380
-0.118724 -0.499158 0.634519 38.000000 16 346.028382
-0.128238 -0.545496 0.630466 4.000000 15 346.028340
-0.153041 -0.650983 0.621417 40.000000 13 346.028343
-0.162343 -0.690007 0.549353 4.000000 11 346.028345
-0.274283 -1.165763 0.713183 44.000000 9 346.028348
-0.270075 -1.146978 0.564401 39.000000 7 346.028350
-0.266362 -1.130327 0.431068 31.000000 5 346.028353
-0.263650 -1.118815 0.309705 10.000000 3 346.028355
-0.262867 -1.114624 0.195560 13.000000 1 346.028358
-0.140183 -0.592124 0.622921 7.000000 14 346.028366
-0.153318 -0.647591 0.568119 8.000000 12 346.028368
-0.194239 -0.819792 0.580496 7.000000 10 346.028371
-0.276504 -1.166974 0.641862 43.000000 8 346.028373
-0.272529 -1.149307 0.500013 38.000000 6 346.028376
-0.269387 -1.135172 0.372109 19.000000 4 346.028378
-0.266589 -1.122510 0.252928 11.000000 2 346.028381
-0.273733 -1.151696 0.141428 29.000000 0 346.028384
-0.010119 -0.026526 1.689209 7.000000 31 346.028394
-0.057228 -0.216295 1.422930 38.000000 28 346.028397
-0.074740 -0.280886 1.420877 38.000000 27 346.028399
-0.102313 -0.416044 1.416037 56.000000 25 346.028402
-0.104743 -0.436038 1.116030 24.000000 23 346.028404
-0.102416 -0.426659 0.871063 31.000000 21 346.028407
-0.082914 -0.345415 0.594357 20.000000 19 346.028410
-0.108205 -0.450752 0.631442 33.000000 17 346.028412
-0.031560 -0.101396 1.671618 9.000000 30 346.028420
-0.043672 -0.151642 1.426608 65.000000 29 346.028422
-0.088217 -0.348374 1.420212 51.000000 26 346.028425
-0.104250 -0.431322 0.980934 26.000000 22 346.028430
-0.094032 -0.389321 0.604926 32.000000 18 346.028435
-0.120466 -0.498741 0.634519 38.000000 16 346.028438
-0.130142 -0.545045 0.630466 4.000000 15 346.028395
-0.155312 -0.650445 0.621417 40.000000 13 346.028398
-0.164750 -0.689436 0.549353 4.000000 11 346.028401
-0.277321 -1.160490 0.710865 42.000000 9 346.028403
-0.274077 -1.146028 0.564401 39.000000 7 346.028406
-0.270306 -1.129390 0.431068 31.000000 5 346.028408
-0.267553 -1.117888 0.309705 10.000000 3 346.028411
-0.266756 -1.113700 0.195560 10.000000 1 346.028413
-0.140503 -0.584370 0.616271 5.000000 14 346.028421
-0.155577 -0.647052 0.568119 8.000000 12 346.028424
-0.214246 -0.890366 0.623547 8.000000 10 346.028426
-0.280575 -1.166002 0.641862 45.000000 8 346.028429
-0.275434 -1.143757 0.498370 38.000000 6 346.028431
-0.273348 -1.134225 0.372109 19.000000 4 346.028434
-0.270506 -1.121573 0.252928 12.000000 2 346.028437
-0.277751 -1.150733 0.141428 28.000000 0 346.028439
-0.010212 -0.026491 1.689209 8.000000 31 346.028450
-0.057983 -0.216094 1.422930 38.000000 28 346.028452
-0.075720 -0.280623 1.420877 38.000000 27 346.028455
-0.103764 -0.415685 1.416037 58.000000 25 346.028457
-0.106264 -0.435669 1.116030 24.000000 23 346.028460
-0.103905 -0.426299 0.871063 31.000000 21 346.028463
-0.084119 -0.345123 0.594357 19.000000 19 346.028465
-0.109778 -0.450371 0.631442 33.000000 17 346.028468
-0.031914 -0.101285 1.671618 9.000000 30 346.028475
-0.044201 -0.151489 1.426608 63.000000 29 346.028478
-0.089433 -0.348064 1.420212 53.000000 26 346.028481
-0.105755 -0.430956 0.980934 26.000000 22 346.028486
-0.095391 -0.388990 0.604926 32.000000 18 346.028491
-0.122206 -0.498317 0.634519 37.000000 16 346.028493
-0.132043 -0.544587 0.630466 5.000000 15 346.028451
-0.157582 -0.649899 0.621417 39.000000 13 346.028454
-0.167156 -0.688857 0.549353 5.000000 11 346.028456
-0.281371 -1.159515 0.710865 42.000000 9 346.028459
-0.278076 -1.145064 0.564401 39.000000 7 346.028461
-0.274247 -1.128439 0.431068 31.000000 5 346.028464
-0.271454 -1.116947 0.309705 10.000000 3 346.028466
-0.270642 -1.112762 0.195560 10.000000 1 346.028469
-0.140770 -0.576620 0.609621 4.000000 14 346.028477
-0.157835 -0.646505 0.568119 8.000000 12 346.028479
-0.244980 -1.002690 0.691923 4.000000 10 346.028482
-0.284644 -1.165015 0.641862 45.000000 8 346.028484
-0.279425 -1.142789 0.498370 38.000000 6 346.028487
-0.277305 -1.133263 0.372109 19.000000 4 346.028489
-0.274419 -1.120622 0.252928 11.000000 2 346.028492
-0.280577 -1.144904 0.141227 28.000000 0 346.028495
-0.010325 -0.026493 1.694209 8.000000 31 346.028505
-0.058737 -0.215891 1.422930 38.000000 28 346.028508
-0.076699 -0.280357 1.420877 38.000000 27 346.028510
-0.105215 -0.415320 1.416037 64.000000 25 346.028513
-0.107315 -0.433399 1.111428 19.000000 23 346.028515
-0.105392 -0.425934 0.871063 30.000000 21 346.028518
-0.085323 -0.344828 0.594357 19.000000 19 346.028520
-0.111349 -0.449985 0.631442 34.000000 17 346.028523
-0.032267 -0.101173 1.671618 9.000000 30 346.028531
-0.044729 -0.151333 1.426608 67.000000 29 346.028533
-0.090647 -0.347749 1.420212 53.000000 26 346.028536
-0.110493 -0.442928 1.295618 9.000000 24 346.028538
-0.107258 -0.430584 0.980934 27.000000 22 346.028541
-0.096748 -0.388655 0.604926 30.000000 18 346.028546
-0.123945 -0.497887 0.634519 38.000000 16 346.028549
-0.133944 -0.544123 0.630466 5.000000 15 346.028506
-0.158919 -0.645565 0.618279 38.000000 13 346.028509
-0.170560 -0.692329 0.552095 4.000000 11 346.028511
-0.285416 -1.158526 0.710865 42.000000 9 346.028514
-0.282071 -1.144087 0.564401 39.000000 7 346.028517
-0.278184 -1.127475 0.431068 31.000000 5 346.028519
-0.275351 -1.115993 0.309705 10.000000 3 346.028522
-0.274525 -1.111810 0.195560 13.000000 1 346.028524
-0.140087 -0.565251 0.599647 5.000000 14 346.028532
-0.160091 -0.645950 0.568119 6.000000 12 346.028535
-0.247441 -0.997644 0.689390 4.000000 10 346.028537
-0.287616 -1.159609 0.639764 45.000000 8 346.028540
-0.283412 -1.141806 0.498370 38.000000 6 346.028542
-0.281259 -1.132289 0.372109 19.000000 4 346.028545
-0.277134 -1.114852 0.252238 11.000000 2 346.028547
-0.284572 -1.143918 0.141227 29.000000 0 346.028550
-0.010418 -0.026457 1.694209 7.000000 31 346.028561
-0.059490 -0.215684 1.422930 37.000000 28 346.028563
-0.077678 -0.280088 1.420877 38.000000 27 346.028566
-0.107036 -0.416396 1.420809 66.000000 25 346.028568
-0.108827 -0.433022 1.111428 15.000000 23 346.028571
-0.106878 -0.425563 0.871063 30.000000 21 346.028573
-0.086526 -0.344528 0.594357 20.000000 19 346.028576
-0.112920 -0.449594 0.631442 33.000000 17 346.028578
-0.032712 -0.101335 1.676610 9.000000 30 346.028586
-0.045257 -0.151176 1.426608 67.000000 29 346.028589
-0.091861 -0.347431 1.420212 53.000000 26 346.028591
-0.113733 -0.449231 1.314389 23.000000 24 346.028594
-0.108761 -0.430207 0.980934 27.000000 22 346.028596
-0.098104 -0.388315 0.604926 30.000000 18 346.028602
-0.125682 -0.497452 0.634519 38.000000 16 346.028604
-0.134978 -0.540192 0.626961 5.000000 15 346.028562
-0.162115 -0.648783 0.621417 28.000000 13 346.028564
-0.172975 -0.691729 0.552095 4.000000 11 346.028567
-0.289459 -1.157522 0.710865 42.000000 9 346.028569
-0.286063 -1.143095 0.564401 39.000000 7 346.028572
-0.280953 -1.121844 0.429659 30.000000 5 346.028575
-0.279245 -1.115025 0.309705 10.000000 3 346.028577
-0.278404 -1.110845 0.195560 14.000000 1 346.028580
-0.140237 -0.557516 0.592997 8.000000 14 346.028587
-0.161358 -0.641468 0.565176 5.000000 12 346.028590
-0.244607 -0.971690 0.674196 5.000000 10 346.028593
-0.291662 -1.158598 0.639764 45.000000 8 346.028595
-0.287396 -1.140810 0.498370 38.000000 6 346.028598
-0.285210 -1.131300 0.372109 19.000000 4 346.028600
-0.281024 -1.113877 0.252238 12.000000 2 346.028603
-0.287340 -1.138074 0.141025 29.000000 0 346.028605
-0.010510 -0.026420 1.694209 7.000000 31 346.028616
-0.060243 -0.215475 1.422930 37.000000 28 346.028619
-0.078655 -0.279815 1.420877 38.000000 27 346.028621
-0.108489 -0.416020 1.420809 58.000000 25 346.028624
-0.109372 -0.428854 1.102223 10.000000 23 346.028626
-0.108363 -0.425188 0.871063 31.000000 21 346.028629
-0.087728 -0.344224 0.594357 20.000000 19 346.028631
-0.114488 -0.449197 0.631442 33.000000 17 346.028634
-0.033065 -0.101220 1.676610 9.000000 30 346.028642
-0.045627 -0.150507 1.421637 65.000000 29 346.028644
-0.093073 -0.347108 1.420212 53.000000 26 346.028647
-0.114871 -0.447160 1.309696 26.000000 24 346.028649
-0.110262 -0.429825 0.980934 26.000000 22 346.028652
-0.099459 -0.387970 0.604926 33.000000 18 346.028657
-0.127418 -0.497010 0.634519 38.000000 16 346.028660
-0.136862 -0.539718 0.626961 5.000000 15 346.028617
-0.160551 -0.633119 0.608865 7.000000 13 346.028620
-0.174360 -0.687069 0.549353 4.000000 11 346.028622
-0.293497 -1.156505 0.710865 42.000000 9 346.028625
-0.288910 -1.137597 0.562528 39.000000 7 346.028628
-0.284867 -1.120856 0.429659 30.000000 5 346.028630
-0.283135 -1.114044 0.309705 10.000000 3 346.028633
-0.282280 -1.109867 0.195560 14.000000 1 346.028635
-0.141259 -0.553404 0.589672 10.000000 14 346.028643
-0.162597 -0.636984 0.562232 4.000000 12 346.028646
-0.244796 -0.958299 0.666598 5.000000 10 346.028648
-0.295705 -1.157573 0.639764 45.000000 8 346.028651
-0.291376 -1.139800 0.498370 38.000000 6 346.028653
-0.289157 -1.130297 0.372109 19.000000 4 346.028656
-0.283683 -1.108092 0.251548 13.000000 2 346.028658
-0.290071 -1.132224 0.140824 29.000000 0 346.028661
-0.010602 -0.026383 1.694209 7.000000 31 346.028672
-0.060994 -0.215264 1.422930 38.000000 28 346.028674
-0.079631 -0.279538 1.420877 38.000000 27 346.028677
-0.109940 -0.415639 1.420809 58.000000 25 346.028679
-0.109889 -0.424686 1.093018 6.000000 23 346.028682
-0.109847 -0.424807 0.871063 31.000000 21 346.028684
-0.088929 -0.343915 0.594357 19.000000 19 346.028687
-0.116056 -0.448794 0.631442 34.000000 17 346.028689
-0.033418 -0.101104 1.676610 9.000000 30 346.028697
-0.046152 -0.150347 1.421637 66.000000 29 346.028700
-0.094284 -0.346781 1.420212 53.000000 26 346.028702
-0.117301 -0.450096 1.319082 31.000000 24 346.028705
-0.111761 -0.429437 0.980934 26.000000 22 346.028707
-0.100054 -0.384704 0.600936 31.000000 18 346.028713
-0.129152 -0.496562 0.634519 38.000000 16 346.028715
-0.138746 -0.539237 0.626961 5.000000 15 346.028673
-0.160820 -0.625015 0.602590 4.000000 13 346.028675
-0.176758 -0.686456 0.549353 4.000000 11 346.028678
-0.297532 -1.155473 0.710865 42.000000 9 346.028681
-0.292879 -1.136581 0.562528 39.000000 7 346.028683
-0.288778 -1.119855 0.429659 31.000000 5 346.028686
-0.285796 -1.108292 0.308773 10.000000 3 346.028688
-0.286152 -1.108874 0.195560 13.000000 1 346.028691
-0.142253 -0.549293 0.586348 7.000000 14 346.028699
-0.164819 -0.636413 0.562232 4.000000 12 346.028701
-0.244895 -0.944918 0.659001 5.000000 10 346.028704
-0.299743 -1.156534 0.639764 45.000000 8 346.028706
-0.295353 -1.138776 0.498370 38.000000 6 346.028709
-0.293101 -1.129281 0.372109 19.000000 4 346.028711
-0.287549 -1.107095 0.251548 12.000000 2 346.028714
-0.294022 -1.131205 0.140824 26.000000 0 346.028716
-0.010716 -0.026384 1.699209 7.000000 31 346.028727
-0.061745 -0.215050 1.422930 39.000000 28 346.028730
-0.080606 -0.279259 1.420877 38.000000 27 346.028732
-0.111391 -0.415253 1.420809 58.000000 25 346.028735
-0.109883 -0.418631 1.079210 4.000000 23 346.028737
-0.111329 -0.424421 0.871063 31.000000 21 346.028740
-0.090129 -0.343603 0.594357 19.000000 19 346.028742
-0.117621 -0.448387 0.631442 33.000000 17 346.028745
-0.033771 -0.100987 1.676610 9.000000 30 346.028753
-0.046677 -0.150185 1.421637 69.000000 29 346.028755
-0.095494 -0.346450 1.420212 53.000000 26 346.028758
-0.118431 -0.448016 1.314389 32.000000 24 346.028760
-0.112704 -0.426939 0.976433 26.000000 22 346.028763
-0.101396 -0.384352 0.600936 30.000000 18 346.028768
-0.130019 -0.492830 0.630844 38.000000 16 346.028771
-0.140627 -0.538749 0.626961 5.000000 15 346.028728
-0.179153 -0.685835 0.549353 4.000000 11 346.028733
-0.301564 -1.154428 0.710865 42.000000 9 346.028736
-0.296845 -1.135552 0.562528 39.000000 7 346.028739
-0.292685 -1.118840 0.429659 31.000000 5 346.028741
-0.289663 -1.107287 0.308773 10.000000 3 346.028744
-0.290021 -1.107869 0.195560 15.000000 1 346.028746
-0.144170 -0.548793 0.586348 6.000000 14 346.028754
-0.166013 -0.631924 0.559289 4.000000 12 346.028757
-0.243807 -0.927379 0.648871 6.000000 10 346.028759
-0.303779 -1.155481 0.639764 43.000000 8 346.028762
-0.299326 -1.137738 0.498370 38.000000 6 346.028764
-0.298279 -1.132952 0.373282 18.000000 4 346.028767
-0.291412 -1.106085 0.251548 12.000000 2 346.028769
-0.297969 -1.130172 0.140824 26.000000 0 346.028772
-0.010808 -0.026346 1.699209 8.000000 31 346.028783
-0.062496 -0.214833 1.422930 38.000000 28 346.028785
-0.081581 -0.278976 1.420877 38.000000 27 346.028788
-0.112839 -0.414861 1.420809 56.000000 25 346.028790
-0.110338 -0.414470 1.070005 4.000000 23 346.028793
-0.112810 -0.424030 0.871063 31.000000 21 346.028795
-0.091328 -0.343286 0.594357 19.000000 19 346.028798
-0.119186 -0.447973 0.631442 33.000000 17 346.028801
-0.034028 -0.100595 1.671618 10.000000 30 346.028808
-0.047201 -0.150021 1.421637 68.000000 29 346.028811
-0.096703 -0.346114 1.420212 55.000000 26 346.028813
-0.120441 -0.449266 1.319082 33.000000 24 346.028816
-0.114193 -0.426543 0.976433 26.000000 22 346.028819
-0.102737 -0.383996 0.600936 30.000000 18 346.028824
-0.132615 -0.495648 0.634519 37.000000 16 346.028826
-0.143419 -0.541703 0.630466 5.000000 15 346.028784
-0.181546 -0.685205 0.549353 4.000000 11 346.028789
-0.305592 -1.153368 0.710865 42.000000 9 346.028792
-0.300807 -1.134509 0.562528 39.000000 7 346.028794
-0.296589 -1.117812 0.429659 30.000000 5 346.028797
-0.293526 -1.106270 0.308773 10.000000 3 346.028799
-0.293887 -1.106850 0.195560 13.000000 1 346.028802
-0.146085 -0.548286 0.586348 6.000000 14 346.028810
-0.167177 -0.627435 0.556346 4.000000 12 346.028812
-0.272590 -1.022334 0.707117 10.000000 10 346.028815
-0.307810 -1.154413 0.639764 43.000000 8 346.028817
-0.304514 -1.141249 0.500013 38.000000 6 346.028820
-0.302232 -1.131904 0.373282 18.000000 4 346.028822
-0.296549 -1.109845 0.252238 12.000000 2 346.028825
-0.301912 -1.129125 0.140824 26.000000 0 346.028827
-0.010900 -0.026309 1.699209 7.000000 31 346.028838
-0.063245 -0.214613 1.422930 38.000000 28 346.028841
-0.082554 -0.278689 1.420877 38.000000 27 346.028843
-0.114287 -0.414465 1.420809 55.000000 25 346.028846
-0.109747 -0.406537 1.051595 4.000000 23 346.028848
-0.114289 -0.423633 0.871063 31.000000 21 346.028851
-0.092526 -0.342965 0.594357 19.000000 19 346.028853
-0.120749 -0.447555 0.631442 33.000000 17 346.028856
-0.034379 -0.100475 1.671618 9.000000 30 346.028864
-0.047724 -0.149855 1.421637 67.000000 29 346.028866
-0.097910 -0.345775 1.420212 53.000000 26 346.028869
-0.122008 -0.448843 1.319082 34.000000 24 346.028871
-0.115682 -0.426142 0.976433 26.000000 22 346.028874
-0.104077 -0.383635 0.600936 32.000000 18 346.028879
-0.134345 -0.495183 0.634519 37.000000 16 346.028882
-0.145309 -0.541199 0.630466 5.000000 15 346.028839
-0.183936 -0.684567 0.549353 4.000000 11 346.028845
-0.309616 -1.152294 0.710865 42.000000 9 346.028847
-0.304765 -1.133452 0.562528 39.000000 7 346.028850
-0.300489 -1.116770 0.429659 30.000000 5 346.028852
-0.297386 -1.105238 0.308773 10.000000 3 346.028855
-0.297749 -1.105817 0.195560 13.000000 1 346.028857
-0.147024 -0.544168 0.583023 6.000000 14 346.028865
-0.169366 -0.626848 0.556346 5.000000 12 346.028868
-0.287410 -1.062994 0.732441 16.000000 10 346.028870
-0.311838 -1.153332 0.639764 42.000000 8 346.028873
-0.308495 -1.140179 0.500013 38.000000 6 346.028875
-0.306181 -1.130842 0.373282 18.000000 4 346.028878
-0.300421 -1.108803 0.252238 12.000000 2 346.028880
-0.305851 -1.128064 0.140824 29.000000 0 346.028883
-0.010992 -0.026270 1.699209 7.000000 31 346.028894
-0.064218 -0.215135 1.427870 37.000000 28 346.028896
-0.083820 -0.279374 1.425772 38.000000 27 346.028899
-0.115733 -0.414063 1.420809 55.000000 25 346.028901
-0.112197 -0.409920 1.060800 4.000000 23 346.028904
-0.115767 -0.423232 0.871063 31.000000 21 346.028906
-0.093722 -0.342640 0.594357 20.000000 19 346.028909
-0.122310 -0.447130 0.631442 34.000000 17 346.028912
-0.034729 -0.100355 1.671618 10.000000 30 346.028919
-0.048413 -0.150195 1.426608 64.000000 29 346.028922
-0.099464 -0.346640 1.425051 51.000000 26 346.028924
-0.123574 -0.448415 1.319082 33.000000 24 346.028927
-0.117168 -0.425735 0.976433 26.000000 22 346.028930
-0.105415 -0.383269 0.600936 32.000000 18 346.028935
-0.136072 -0.494711 0.634519 37.000000 16 346.028937
-0.147198 -0.540688 0.630466 5.000000 15 346.028895
-0.186325 -0.683921 0.549353 4.000000 11 346.028900
-0.313636 -1.151206 0.710865 42.000000 9 346.028903
-0.308720 -1.132381 0.562528 39.000000 7 346.028905
-0.304385 -1.115714 0.429659 30.000000 5 346.028908
-0.301242 -1.104193 0.308773 10.000000 3 346.028910
-0.302918 -1.109575 0.196006 14.000000 1 346.028913
-0.148922 -0.543651 0.583023 6.000000 14 346.028921
-0.171553 -0.626253 0.556346 5.000000 12 346.028923
-0.319613 -1.165930 0.795752 17.000000 10 346.028926
-0.315862 -1.152236 0.639764 42.000000 8 346.028928
-0.312474 -1.139096 0.500013 38.000000 6 346.028931
-0.310126 -1.129766 0.373282 18.000000 4 346.028933
-0.304290 -1.107748 0.252238 12.000000 2 346.028936
-0.311111 -1.131807 0.141025 29.000000 0 346.028939
-0.011083 -0.026232 1.699209 8.000000 31 346.028949
-0.064968 -0.214910 1.427870 34.000000 28 346.028952
-0.084795 -0.279080 1.425772 38.000000 27 346.028954
-0.117178 -0.413657 1.420809 56.000000 25 346.028957
-0.115717 -0.417056 1.079210 6.000000 23 346.028959
-0.117244 -0.422825 0.871063 31.000000 21 346.028962
-0.094918 -0.342311 0.594357 20.000000 19 346.028965
-0.123870 -0.446701 0.631442 32.000000 17 346.028967
-0.035079 -0.100233 1.671618 9.000000 30 346.028975
-0.048937 -0.150025 1.426608 63.000000 29 346.028977
-0.100673 -0.346290 1.425051 51.000000 26 346.028980
-0.124674 -0.446319 1.314389 33.000000 24 346.028983
-0.118654 -0.425324 0.976433 26.000000 22 346.028985
-0.106753 -0.382899 0.600936 30.000000 18 346.028990
-0.137798 -0.494233 0.634519 37.000000 16 346.028993
-0.150033 -0.543609 0.633970 5.000000 15 346.028950
-0.158239 -0.573330 0.561799 4.000000 13 346.028953
-0.188711 -0.683266 0.549353 4.000000 11 346.028956
-0.317653 -1.150105 0.710865 42.000000 9 346.028958
-0.312671 -1.131297 0.562528 39.000000 7 346.028961
-0.308278 -1.114645 0.429659 30.000000 5 346.028963
-0.305095 -1.103135 0.308773 10.000000 3 346.028966
-0.306790 -1.108511 0.196006 14.000000 1 346.028968
-0.149820 -0.539530 0.579698 6.000000 14 346.028976
-0.173738 -0.625650 0.556346 5.000000 12 346.028979
-0.312138 -1.123269 0.770428 10.000000 10 346.028981
-0.319882 -1.151127 0.639764 45.000000 8 346.028984
-0.316448 -1.137998 0.500013 38.000000 6 346.028986
-0.314068 -1.128677 0.373282 18.000000 4 346.028989
-0.308155 -1.106679 0.252238 12.000000 2 346.028991
-0.315060 -1.130714 0.141025 29.000000 0 346.028994
-0.011175 -0.026193 1.699209 7.000000 31 346.029005
-0.065718 -0.214682 1.427870 35.000000 28 346.029007
-0.085768 -0.278782 1.425772 38.000000 27 346.029010
-0.118621 -0.413245 1.420809 56.000000 25 346.029012
-0.118759 -0.422292 1.093018 9.000000 23 346.029015
-0.118719 -0.422413 0.871063 31.000000 21 346.029017
-0.095351 -0.339268 0.590224 20.000000 19 346.029020
-0.125429 -0.446266 0.631442 32.000000 17 346.029023
-0.035429 -0.100110 1.671618 9.000000 30 346.029030
-0.049630 -0.150360 1.431580 62.000000 29 346.029033
-0.101882 -0.345937 1.425051 51.000000 26 346.029035
-0.126232 -0.445881 1.314389 33.000000 24 346.029038
-0.120138 -0.424907 0.976433 27.000000 22 346.029041
-0.108088 -0.382524 0.600936 30.000000 18 346.029046
-0.139523 -0.493749 0.634519 37.000000 16 346.029048
-0.151930 -0.543082 0.633970 5.000000 15 346.029006
-0.165483 -0.591518 0.577488 6.000000 13 346.029009
-0.191095 -0.682604 0.549353 4.000000 11 346.029011
-0.321666 -1.148989 0.710865 42.000000 9 346.029014
-0.316618 -1.130198 0.562528 39.000000 7 346.029016
-0.310872 -1.108942 0.428249 30.000000 5 346.029019
-0.308943 -1.102064 0.308773 10.000000 3 346.029021
-0.310657 -1.107434 0.196006 13.000000 1 346.029024
-0.151702 -0.539004 0.579698 7.000000 14 346.029032
-0.177016 -0.628930 0.559289 6.000000 12 346.029034
-0.307876 -1.093124 0.752701 4.000000 10 346.029037
-0.323898 -1.150003 0.639764 45.000000 8 346.029039
-0.319137 -1.132341 0.498370 38.000000 6 346.029042
-0.318006 -1.127573 0.373282 18.000000 4 346.029044
-0.312016 -1.105596 0.252238 11.000000 2 346.029047
-0.320363 -1.134415 0.141227 29.000000 0 346.029050
-0.011266 -0.026154 1.699209 7.000000 31 346.029060
-0.066467 -0.214451 1.427870 36.000000 28 346.029063
-0.086741 -0.278481 1.425772 37.000000 27 346.029065
-0.120063 -0.412829 1.420809 58.000000 25 346.029068
-0.121304 -0.425633 1.102223 13.000000 23 346.029070
-0.120193 -0.421996 0.871063 31.000000 21 346.029073
-0.096534 -0.338934 0.590224 20.000000 19 346.029076
-0.126986 -0.445825 0.631442 34.000000 17 346.029078
-0.035778 -0.099986 1.671618 9.000000 30 346.029086
-0.050155 -0.150186 1.431580 62.000000 29 346.029088
-0.103088 -0.345579 1.425051 51.000000 26 346.029091
-0.127787 -0.445437 1.314389 33.000000 24 346.029094
-0.121620 -0.424485 0.976433 26.000000 22 346.029096
-0.109423 -0.382144 0.600936 33.000000 18 346.029101
-0.141245 -0.493259 0.634519 37.000000 16 346.029104
-0.153824 -0.542548 0.633970 5.000000 15 346.029061
-0.169671 -0.598428 0.583763 7.000000 13 346.029064
-0.194618 -0.685955 0.552095 5.000000 11 346.029067
-0.325674 -1.147859 0.710865 40.000000 9 346.029069
-0.320561 -1.129086 0.562528 39.000000 7 346.029072
-0.314741 -1.107851 0.428249 30.000000 5 346.029074
-0.312788 -1.100978 0.308773 10.000000 3 346.029077
-0.314521 -1.106342 0.196006 13.000000 1 346.029079
-0.153583 -0.538471 0.579698 6.000000 14 346.029087
-0.181428 -0.636083 0.565176 6.000000 12 346.029090
-0.306956 -1.075460 0.742571 4.000000 10 346.029092
-0.327911 -1.148865 0.639764 43.000000 8 346.029095
-0.323088 -1.131220 0.498370 38.000000 6 346.029097
-0.320604 -1.121783 0.372109 18.000000 4 346.029100
-0.315873 -1.104501 0.252238 11.000000 2 346.029103
-0.324321 -1.133290 0.141227 29.000000 0 346.029105
-0.011335 -0.026077 1.694209 8.000000 31 346.029116
-0.067215 -0.214218 1.427870 38.000000 28 346.029118
-0.087713 -0.278177 1.425772 37.000000 27 346.029121
-0.121503 -0.412407 1.420809 56.000000 25 346.029123
-0.123331 -0.427083 1.106825 16.000000 23 346.029126
-0.121665 -0.421574 0.871063 31.000000 21 346.029129
-0.097717 -0.338595 0.590224 20.000000 19 346.029131
-0.128541 -0.445379 0.631442 33.000000 17 346.029134
-0.036127 -0.099860 1.671618 9.000000 30 346.029141
-0.050679 -0.150010 1.431580 61.000000 29 346.029144
-0.104294 -0.345217 1.425051 53.000000 26 346.029147
-0.129341 -0.444988 1.314389 33.000000 24 346.029149
-0.123101 -0.424058 0.976433 26.000000 22 346.029152
-0.110756 -0.381760 0.600936 32.000000 18 346.029157
-0.142966 -0.492762 0.634519 37.000000 16 346.029159
-0.155717 -0.542008 0.633970 5.000000 15 346.029117
-0.174984 -0.609056 0.593177 8.000000 13 346.029120
-0.197011 -0.685271 0.552095 5.000000 11 346.029122
-0.329679 -1.146715 0.710865 42.000000 9 346.029125
-0.324500 -1.127960 0.562528 39.000000 7 346.029127
-0.318606 -1.106745 0.428249 30.000000 5 346.029130
-0.316630 -1.099880 0.308773 9.000000 3 346.029132
-0.318381 -1.105238 0.196006 14.000000 1 346.029135
-0.155461 -0.537932 0.579698 6.000000 14 346.029143
-0.185891 -0.643212 0.571062 6.000000 12 346.029145
-0.305918 -1.057816 0.732441 4.000000 10 346.029148
-0.331919 -1.147714 0.639764 43.000000 8 346.029150
-0.327035 -1.130085 0.498370 37.000000 6 346.029153
-0.324518 -1.120657 0.372109 18.000000 4 346.029155
-0.321105 -1.108148 0.252928 12.000000 2 346.029158
-0.328275 -1.132151 0.141227 29.000000 0 346.029161
-0.011426 -0.026037 1.694209 7.000000 31 346.029171
-0.067962 -0.213982 1.427870 37.000000 28 346.029174
-0.088683 -0.277869 1.425772 38.000000 27 346.029176
-0.122942 -0.411981 1.420809 56.000000 25 346.029179
-0.124821 -0.426650 1.106825 19.000000 23 346.029181
-0.123136 -0.421147 0.871063 31.000000 21 346.029184
-0.098898 -0.338251 0.590224 20.000000 19 346.029186
-0.130095 -0.444928 0.631442 33.000000 17 346.029189
-0.036475 -0.099733 1.671618 9.000000 30 346.029197
-0.051202 -0.149832 1.431580 59.000000 29 346.029199
-0.105499 -0.344851 1.425051 55.000000 26 346.029202
-0.130894 -0.444534 1.314389 33.000000 24 346.029204
-0.123966 -0.421537 0.971933 26.000000 22 346.029207
-0.112938 -0.384263 0.604926 30.000000 18 346.029212
-0.144685 -0.492260 0.634519 37.000000 16 346.029215
-0.157608 -0.541461 0.633970 5.000000 15 346.029172
-0.179285 -0.615917 0.599452 8.000000 13 346.029175
-0.200571 -0.688594 0.554836 5.000000 11 346.029177
-0.333680 -1.145557 0.710865 42.000000 9 346.029180
-0.328436 -1.126821 0.562528 39.000000 7 346.029183
-0.322467 -1.105626 0.428249 30.000000 5 346.029185
-0.320467 -1.098768 0.308773 9.000000 3 346.029188
-0.320842 -1.099339 0.195560 14.000000 1 346.029190
-0.156289 -0.533802 0.576373 6.000000 14 346.029198
-0.190407 -0.650317 0.576948 7.000000 12 346.029201
-0.305972 -1.044330 0.724844 4.000000 10 346.029203
-0.335923 -1.146548 0.639764 45.000000 8 346.029206
-0.330977 -1.128937 0.498370 37.000000 6 346.029208
-0.328428 -1.119517 0.372109 18.000000 4 346.029211
-0.324971 -1.107020 0.252928 11.000000 2 346.029213
-0.332225 -1.130998 0.141227 29.000000 0 346.029216
-0.011516 -0.025997 1.694209 7.000000 31 346.029227
-0.068470 -0.213004 1.422930 37.000000 28 346.029229
-0.089338 -0.276589 1.420877 38.000000 27 346.029232
-0.124379 -0.411549 1.420809 56.000000 25 346.029234
-0.126309 -0.426212 1.106825 23.000000 23 346.029237
-0.124605 -0.420714 0.871063 31.000000 21 346.029239
-0.100078 -0.337904 0.590224 20.000000 19 346.029242
-0.131648 -0.444471 0.631442 33.000000 17 346.029244
-0.036823 -0.099606 1.671618 9.000000 30 346.029252
-0.051725 -0.149652 1.431580 62.000000 29 346.029255
-0.106702 -0.344481 1.425051 53.000000 26 346.029257
-0.132445 -0.444075 1.314389 33.000000 24 346.029260
-0.125437 -0.421101 0.971933 26.000000 22 346.029262
-0.114279 -0.383866 0.604926 30.000000 18 346.029268
-0.146403 -0.491752 0.634519 38.000000 16 346.029270
-0.159497 -0.540907 0.633970 5.000000 15 346.029228
-0.183636 -0.622755 0.605728 9.000000 13 346.029230
-0.205340 -0.695911 0.560319 5.000000 11 346.029233
-0.337677 -1.144386 0.710865 40.000000 9 346.029235
-0.332367 -1.125667 0.562528 39.000000 7 346.029238
-0.326325 -1.104494 0.428249 30.000000 5 346.029241
-0.322909 -1.092932 0.307840 9.000000 3 346.029243
-0.324677 -1.098212 0.195560 14.000000 1 346.029246
-0.158151 -0.533253 0.576373 6.000000 14 346.029253
-0.194975 -0.657399 0.582835 9.000000 12 346.029256
-0.308389 -1.039122 0.722312 5.000000 10 346.029259
-0.339923 -1.145368 0.639764 45.000000 8 346.029261
-0.334916 -1.127774 0.498370 38.000000 6 346.029264
-0.332334 -1.118364 0.372109 18.000000 4 346.029266
-0.328834 -1.105879 0.252928 11.000000 2 346.029269
-0.336171 -1.129831 0.141227 30.000000 0 346.029271
-0.011584 -0.025920 1.689209 7.000000 31 346.029282
-0.069213 -0.212764 1.422930 37.000000 28 346.029285
-0.090303 -0.276276 1.420877 38.000000 27 346.029287
-0.125815 -0.411112 1.420809 58.000000 25 346.029290
-0.127796 -0.425768 1.106825 24.000000 23 346.029292
-0.126073 -0.420277 0.871063 31.000000 21 346.029295
-0.101257 -0.337553 0.590224 20.000000 19 346.029297
-0.133198 -0.444009 0.631442 34.000000 17 346.029300
-0.037171 -0.099476 1.671618 9.000000 30 346.029308
-0.052247 -0.149471 1.431580 62.000000 29 346.029310
-0.107903 -0.344106 1.425051 53.000000 26 346.029313
-0.133994 -0.443610 1.314389 33.000000 24 346.029315
-0.126906 -0.420661 0.971933 26.000000 22 346.029318
-0.115618 -0.383465 0.604926 33.000000 18 346.029323
-0.148118 -0.491238 0.634519 37.000000 16 346.029326
-0.161385 -0.540347 0.633970 5.000000 15 346.029283
-0.188037 -0.629571 0.612003 25.000000 13 346.029286
-0.210163 -0.703202 0.565802 5.000000 11 346.029288
-0.340401 -1.138955 0.708547 39.000000 9 346.029291
-0.334966 -1.120059 0.560655 39.000000 7 346.029294
-0.330178 -1.103348 0.428249 30.000000 5 346.029296
-0.326722 -1.091798 0.307840 10.000000 3 346.029299
-0.328509 -1.097072 0.195560 14.000000 1 346.029301
-0.160012 -0.532698 0.576373 6.000000 14 346.029309
-0.200757 -0.668328 0.591664 14.000000 12 346.029312
-0.309532 -1.029782 0.717247 6.000000 10 346.029314
-0.343919 -1.144175 0.639764 43.000000 8 346.029317
-0.338851 -1.126599 0.498370 38.000000 6 346.029319
-0.336236 -1.117197 0.372109 18.000000 4 346.029322
-0.332692 -1.104724 0.252928 11.000000 2 346.029324
-0.338671 -1.123868 0.141025 30.000000 0 346.029327
-0.011674 -0.025879 1.689209 7.000000 31 346.029338
-0.069955 -0.212521 1.422930 38.000000 28 346.029340
-0.091267 -0.275959 1.420877 38.000000 27 346.029343
-0.127249 -0.410671 1.420809 56.000000 25 346.029345
-0.129282 -0.425320 1.106825 24.000000 23 346.029348
-0.127539 -0.419834 0.871063 31.000000 21 346.029350
-0.102435 -0.337197 0.590224 20.000000 19 346.029353
-0.134747 -0.443541 0.631442 32.000000 17 346.029355
-0.037413 -0.099076 1.666627 9.000000 30 346.029363
-0.052768 -0.149288 1.431580 64.000000 29 346.029366
-0.109485 -0.344926 1.429891 55.000000 26 346.029368
-0.135542 -0.443139 1.314389 33.000000 24 346.029371
-0.128374 -0.420215 0.971933 26.000000 22 346.029373
-0.116956 -0.383059 0.604926 32.000000 18 346.029379
-0.149832 -0.490718 0.634519 37.000000 16 346.029381
-0.163270 -0.539781 0.633970 5.000000 15 346.029339
-0.191360 -0.632637 0.615141 37.000000 13 346.029341
-0.215039 -0.710469 0.571285 5.000000 11 346.029344
-0.344374 -1.137760 0.708547 39.000000 9 346.029347
-0.338874 -1.118883 0.560655 39.000000 7 346.029349
-0.334028 -1.102189 0.428249 30.000000 5 346.029352
-0.330531 -1.090651 0.307840 9.000000 3 346.029354
-0.332336 -1.095919 0.195560 14.000000 1 346.029357
-0.161870 -0.532136 0.576373 6.000000 14 346.029365
-0.204265 -0.671490 0.594607 38.000000 12 346.029367
-0.310614 -1.020447 0.712182 10.000000 10 346.029370
-0.346590 -1.138626 0.637666 43.000000 8 346.029372
-0.341405 -1.120891 0.496728 37.000000 6 346.029375
-0.340133 -1.116017 0.372109 18.000000 4 346.029377
-0.335102 -1.098820 0.252238 12.000000 2 346.029380
-0.342592 -1.122679 0.141025 30.000000 0 346.029382
-0.011765 -0.025838 1.689209 8.000000 31 346.029393
-0.070697 -0.212275 1.422930 38.000000 28 346.029396
-0.092554 -0.276604 1.425772 38.000000 27 346.029398
-0.128682 -0.410224 1.420809 55.000000 25 346.029401
-0.130765 -0.424866 1.106825 27.000000 23 346.029403
-0.128300 -0.417097 0.866674 30.000000 21 346.029406
-0.103611 -0.336838 0.590224 20.000000 19 346.029408
-0.136295 -0.443068 0.631442 32.000000 17 346.029411
-0.037758 -0.098945 1.666627 9.000000 30 346.029419
-0.053289 -0.149102 1.431580 62.000000 29 346.029421
-0.110688 -0.344542 1.429891 55.000000 26 346.029424
-0.137088 -0.442663 1.314389 33.000000 24 346.029426
-0.129840 -0.419765 0.971933 26.000000 22 346.029429
-0.118292 -0.382648 0.604926 32.000000 18 346.029434
-0.151544 -0.490192 0.634519 37.000000 16 346.029437
-0.164109 -0.535798 0.630466 5.000000 15 346.029394
-0.195848 -0.639409 0.621417 39.000000 13 346.029397
-0.219968 -0.717710 0.576768 12.000000 11 346.029399
-0.348344 -1.136551 0.708547 39.000000 9 346.029402
-0.342777 -1.117693 0.560655 39.000000 7 346.029405
-0.337873 -1.101016 0.428249 30.000000 5 346.029407
-0.335777 -1.094186 0.308773 9.000000 3 346.029410
-0.336160 -1.094752 0.195560 14.000000 1 346.029412
-0.163727 -0.531568 0.576373 6.000000 14 346.029420
-0.207797 -0.674636 0.597550 42.000000 12 346.029423
-0.311634 -1.011116 0.707117 12.000000 10 346.029425
-0.350562 -1.137409 0.637666 43.000000 8 346.029428
-0.345316 -1.119693 0.496728 37.000000 6 346.029430
-0.344027 -1.114823 0.372109 18.000000 4 346.029433
-0.338935 -1.097643 0.252238 12.000000 2 346.029435
-0.346509 -1.121476 0.141025 30.000000 0 346.029438
-0.011855 -0.025797 1.689209 8.000000 31 346.029449
-0.071437 -0.212027 1.422930 37.000000 28 346.029451
-0.093519 -0.276279 1.425772 38.000000 27 346.029454
-0.130113 -0.409772 1.420809 58.000000 25 346.029456
-0.132248 -0.424407 1.106825 27.000000 23 346.029459
-0.129755 -0.416646 0.866674 29.000000 21 346.029461
-0.104786 -0.336474 0.590224 21.000000 19 346.029464
-0.137840 -0.442589 0.631442 34.000000 17 346.029467
-0.038103 -0.098813 1.666627 9.000000 30 346.029474
-0.053809 -0.148916 1.431580 62.000000 29 346.029477
-0.111891 -0.344153 1.429891 55.000000 26 346.029479
-0.138632 -0.442182 1.314389 33.000000 24 346.029482
-0.131377 -0.419286 0.971933 26.000000 22 346.029485
-0.119694 -0.382212 0.604926 33.000000 18 346.029490
-0.153340 -0.489634 0.634519 37.000000 16 346.029492
-0.165978 -0.535222 0.630466 5.000000 15 346.029450
-0.198078 -0.638722 0.621417 40.000000 13 346.029452
-0.224951 -0.724925 0.582251 14.000000 11 346.029455
-0.352309 -1.135328 0.708547 39.000000 9 346.029458
-0.346677 -1.116490 0.560655 39.000000 7 346.029460
-0.341714 -1.099830 0.428249 29.000000 5 346.029463
-0.339785 -1.092948 0.308773 9.000000 3 346.029465
-0.340170 -1.093513 0.195560 14.000000 1 346.029468
-0.165674 -0.530964 0.576373 6.000000 14 346.029476
-0.211473 -0.677728 0.600494 44.000000 12 346.029478
-0.312768 -1.001736 0.702052 9.000000 10 346.029481
-0.354728 -1.136116 0.637666 43.000000 8 346.029483
-0.350825 -1.122927 0.498370 38.000000 6 346.029486
-0.348110 -1.113554 0.372109 18.000000 4 346.029488
-0.341477 -1.091667 0.251548 12.000000 2 346.029491
-0.350421 -1.120260 0.141025 30.000000 0 346.029493
-0.011949 -0.025754 1.689209 8.000000 31 346.029504
-0.072214 -0.211764 1.422930 37.000000 28 346.029507
-0.094531 -0.275934 1.425772 38.000000 27 346.029509
-0.131614 -0.409293 1.420809 56.000000 25 346.029512
-0.134391 -0.425782 1.111428 27.000000 23 346.029514
-0.131281 -0.416168 0.866674 31.000000 21 346.029517
-0.105172 -0.333404 0.586091 21.000000 19 346.029519
-0.139462 -0.442081 0.631442 33.000000 17 346.029522
-0.038573 -0.098941 1.671618 9.000000 30 346.029530
-0.054355 -0.148717 1.431580 62.000000 29 346.029532
-0.112757 -0.342546 1.425051 53.000000 26 346.029535
-0.140252 -0.441671 1.314389 33.000000 24 346.029537
-0.132840 -0.418825 0.971933 26.000000 22 346.029540
-0.121027 -0.381792 0.604926 33.000000 18 346.029545
-0.155048 -0.489095 0.634519 37.000000 16 346.029548
-0.167938 -0.534610 0.630466 5.000000 15 346.029505
-0.201585 -0.641705 0.624554 40.000000 13 346.029508
-0.228860 -0.728084 0.584992 15.000000 11 346.029511
-0.356468 -1.134029 0.708547 40.000000 9 346.029513
-0.350766 -1.115212 0.560655 39.000000 7 346.029516
-0.345743 -1.098570 0.428249 29.000000 5 346.029518
-0.345073 -1.096441 0.309705 9.000000 3 346.029521
-0.343985 -1.092319 0.195560 14.000000 1 346.029523
-0.168651 -0.533943 0.579698 6.000000 14 346.029531
-0.213837 -0.676986 0.600494 48.000000 12 346.029534
-0.313664 -0.992417 0.696987 8.000000 10 346.029536
-0.358692 -1.134871 0.637666 43.000000 8 346.029539
-0.354743 -1.121696 0.498370 38.000000 6 346.029541
-0.351995 -1.112332 0.372109 18.000000 4 346.029544
-0.345286 -1.090469 0.251548 11.000000 2 346.029546
-0.356034 -1.123730 0.141227 30.000000 0 346.029549
-0.012039 -0.025712 1.689209 7.000000 31 346.029560
-0.072953 -0.211511 1.422930 37.000000 28 346.029562
-0.095494 -0.275603 1.425772 38.000000 27 346.029565
-0.133042 -0.408831 1.420809 58.000000 25 346.029567
-0.135876 -0.425311 1.111428 27.000000 23 346.029570
-0.132733 -0.415707 0.866674 31.000000 21 346.029572
-0.106336 -0.333035 0.586091 21.000000 19 346.029575
-0.141004 -0.441592 0.631442 33.000000 17 346.029578
-0.038918 -0.098806 1.671618 9.000000 30 346.029585
-0.054873 -0.148527 1.431580 61.000000 29 346.029588
-0.113952 -0.342151 1.425051 53.000000 26 346.029590
-0.141793 -0.441179 1.314389 33.000000 24 346.029593
-0.134301 -0.418359 0.971933 26.000000 22 346.029596
-0.122359 -0.381367 0.604926 32.000000 18 346.029601
-0.156754 -0.488551 0.634519 37.000000 16 346.029603
-0.170884 -0.537419 0.633970 6.000000 15 346.029561
-0.203824 -0.640998 0.624554 39.000000 13 346.029563
-0.231400 -0.727281 0.584992 18.000000 11 346.029566
-0.360424 -1.132778 0.708547 40.000000 9 346.029569
-0.354657 -1.113980 0.560655 39.000000 7 346.029571
-0.349575 -1.097357 0.428249 30.000000 5 346.029574
-0.348898 -1.095230 0.309705 9.000000 3 346.029576
-0.346283 -1.086367 0.195113 14.000000 1 346.029579
-0.171651 -0.536908 0.583023 6.000000 14 346.029587
-0.216199 -0.676235 0.600494 46.000000 12 346.029589
-0.315813 -0.987210 0.694455 8.000000 10 346.029592
-0.362651 -1.133612 0.637666 43.000000 8 346.029594
-0.358656 -1.120451 0.498370 38.000000 6 346.029597
-0.355876 -1.111097 0.372109 18.000000 4 346.029599
-0.349090 -1.089257 0.251548 11.000000 2 346.029602
-0.359954 -1.122481 0.141227 30.000000 0 346.029605
-0.012153 -0.025706 1.694209 7.000000 31 346.029615
-0.073690 -0.211255 1.422930 37.000000 28 346.029618
-0.096455 -0.275268 1.425772 38.000000 27 346.029620
-0.134468 -0.408364 1.420809 56.000000 25 346.029623
-0.137360 -0.424834 1.111428 27.000000 23 346.029625
-0.134920 -0.417521 0.871063 31.000000 21 346.029628
-0.107497 -0.332662 0.586091 22.000000 19 346.029631
-0.142545 -0.441097 0.631442 33.000000 17 346.029633
-0.039263 -0.098669 1.671618 9.000000 30 346.029641
-0.055392 -0.148334 1.431580 60.000000 29 346.029643
-0.115146 -0.341751 1.425051 55.000000 26 346.029646
-0.143332 -0.440681 1.314389 33.000000 24 346.029649
-0.135761 -0.417887 0.971933 26.000000 22 346.029651
-0.123690 -0.380938 0.604926 32.000000 18 346.029656
-0.158459 -0.488001 0.634519 37.000000 16 346.029659
-0.172759 -0.536819 0.633970 6.000000 15 346.029616
-0.206060 -0.640282 0.624554 39.000000 13 346.029619
-0.233938 -0.726469 0.584992 17.000000 11 346.029622
-0.364376 -1.131513 0.708547 40.000000 9 346.029624
-0.358543 -1.112736 0.560655 39.000000 7 346.029627
-0.353404 -1.096130 0.428249 30.000000 5 346.029629
-0.352719 -1.094005 0.309705 9.000000 3 346.029632
-0.350073 -1.085151 0.195113 13.000000 1 346.029634
-0.174674 -0.539859 0.586348 6.000000 14 346.029642
-0.219802 -0.679322 0.603437 44.000000 12 346.029645
-0.317929 -0.982000 0.691923 8.000000 10 346.029647
-0.366606 -1.132339 0.637666 43.000000 8 346.029650
-0.362565 -1.119192 0.498370 38.000000 6 346.029652
-0.359752 -1.109848 0.372109 18.000000 4 346.029655
-0.352890 -1.088031 0.251548 12.000000 2 346.029657
-0.363870 -1.121217 0.141227 30.000000 0 346.029660
-0.012242 -0.025663 1.694209 8.000000 31 346.029671
-0.074687 -0.211728 1.427870 37.000000 28 346.029673
-0.097415 -0.274929 1.425772 38.000000 27 346.029676
-0.135893 -0.407892 1.420809 56.000000 25 346.029678
-0.138842 -0.424352 1.111428 27.000000 23 346.029681
-0.136376 -0.417047 0.871063 31.000000 21 346.029683
-0.109533 -0.334959 0.590224 21.000000 19 346.029686
-0.145080 -0.443644 0.635279 34.000000 17 346.029689
-0.039718 -0.098799 1.676610 9.000000 30 346.029696
-0.055909 -0.148140 1.431580 60.000000 29 346.029699
-0.116338 -0.341347 1.425051 55.000000 26 346.029701
-0.144869 -0.440178 1.314389 33.000000 24 346.029704
-0.137219 -0.417411 0.971933 26.000000 22 346.029707
-0.125019 -0.380504 0.604926 32.000000 18 346.029712
-0.160161 -0.487445 0.634519 36.000000 16 346.029714
-0.174632 -0.536213 0.633970 6.000000 15 346.029672
-0.208294 -0.639559 0.624554 39.000000 13 346.029675
-0.236472 -0.725648 0.584992 14.000000 11 346.029677
-0.366951 -1.126022 0.706229 42.000000 9 346.029680
-0.362425 -1.111477 0.560655 39.000000 7 346.029682
-0.357228 -1.094889 0.428249 29.000000 5 346.029685
-0.355012 -1.088098 0.308773 9.000000 3 346.029687
-0.353859 -1.083923 0.195113 13.000000 1 346.029690
-0.178881 -0.546344 0.592997 6.000000 14 346.029698
-0.222172 -0.678551 0.603437 44.000000 12 346.029700
-0.321355 -0.980884 0.691923 8.000000 10 346.029703
-0.370557 -1.131053 0.637666 42.000000 8 346.029705
-0.366470 -1.117920 0.498370 38.000000 6 346.029708
-0.363624 -1.108585 0.372109 18.000000 4 346.029710
-0.356686 -1.086793 0.251548 12.000000 2 346.029713
-0.367782 -1.119940 0.141227 29.000000 0 346.029716
-0.012308 -0.025584 1.689209 7.000000 31 346.029726
-0.075426 -0.211466 1.427870 36.000000 28 346.029729
-0.098375 -0.274587 1.425772 38.000000 27 346.029731
-0.137316 -0.407415 1.420809 55.000000 25 346.029734
-0.140322 -0.423864 1.111428 27.000000 23 346.029736
-0.137831 -0.416569 0.871063 31.000000 21 346.029739
-0.110701 -0.334575 0.590224 21.000000 19 346.029742
-0.146628 -0.443135 0.635279 33.000000 17 346.029744
-0.040063 -0.098660 1.676610 10.000000 30 346.029752
-0.056426 -0.147944 1.431580 57.000000 29 346.029754
-0.117529 -0.340939 1.425051 55.000000 26 346.029757
-0.146405 -0.439670 1.314389 33.000000 24 346.029760
-0.138675 -0.416929 0.971933 26.000000 22 346.029762
-0.126346 -0.380065 0.604926 33.000000 18 346.029767
-0.161862 -0.486883 0.634519 35.000000 16 346.029770
-0.175386 -0.532213 0.630466 6.000000 15 346.029727
-0.210525 -0.638828 0.624554 39.000000 13 346.029730
-0.237694 -0.720847 0.582251 10.000000 11 346.029733
-0.368104 -1.116320 0.701593 40.000000 9 346.029735
-0.366303 -1.110205 0.560655 39.000000 7 346.029738
-0.361048 -1.093636 0.428249 29.000000 5 346.029740
-0.358808 -1.086852 0.308773 9.000000 3 346.029743
-0.357641 -1.082681 0.195113 13.000000 1 346.029745
-0.183136 -0.552806 0.599647 7.000000 14 346.029753
-0.224540 -0.677771 0.603437 44.000000 12 346.029756
-0.341056 -1.028863 0.722312 8.000000 10 346.029758
-0.374502 -1.129752 0.637666 43.000000 8 346.029761
-0.368883 -1.112151 0.496728 38.000000 6 346.029763
-0.367492 -1.107309 0.372109 17.000000 4 346.029766
-0.360478 -1.085541 0.251548 12.000000 2 346.029769
-0.370114 -1.113909 0.141025 29.000000 0 346.029771
-0.012421 -0.025577 1.694209 7.000000 31 346.029782
-0.076163 -0.211202 1.427870 36.000000 28 346.029784
-0.099332 -0.274242 1.425772 38.000000 27 346.029787
-0.138737 -0.406933 1.420809 55.000000 25 346.029789
-0.141801 -0.423372 1.111428 27.000000 23 346.029792
-0.139285 -0.416085 0.871063 31.000000 21 346.029795
-0.111868 -0.334186 0.590224 21.000000 19 346.029797
-0.148174 -0.442620 0.635279 33.000000 17 346.029800
-0.040407 -0.098519 1.676610 10.000000 30 346.029807
-0.056942 -0.147746 1.431580 60.000000 29 346.029810
-0.118718 -0.340526 1.425051 53.000000 26 346.029813
-0.147939 -0.439156 1.314389 33.000000 24 346.029815
-0.140129 -0.416443 0.971933 26.000000 22 346.029818
-0.127672 -0.379622 0.604926 32.000000 18 346.029823
-0.163560 -0.486315 0.634519 35.000000 16 346.029825
-0.177243 -0.531597 0.630466 6.000000 15 346.029783
