# .PCD v.7 - Point Cloud Data file format
VERSION .7
FIELDS x y z intensity ring timestamp
SIZE 4 4 4 4 2 8
TYPE F F F F U D
COUNT 1 1 1 1 1 1
WIDTH 944
HEIGHT 1
VIEWPOINT 0 0 0 1 0 0 0
POINTS 944
DATA ascii
1.113998 1.376168 0.610036 58.000000 5 346.285336
1.109560 1.370686 0.426283 60.000000 3 346.285338
1.187670 1.466654 0.262045 14.000000 1 346.285341
1.677292 2.067604 2.451587 17.000000 14 346.285349
1.478581 1.822650 1.792474 16.000000 12 346.285351
1.378474 1.698642 1.370613 24.000000 10 346.285354
1.419199 1.748821 1.128610 25.000000 8 346.285356
1.092698 1.346009 0.692207 84.000000 6 346.285359
1.109318 1.365993 0.515132 77.000000 4 346.285361
1.120915 1.379782 0.339844 51.000000 2 346.285364
1.197146 1.473091 0.170247 13.000000 0 346.285366
0.120877 0.090928 15.793672 58.000000 31 346.285377
0.765002 0.891569 7.468582 11.000000 28 346.285380
0.557850 0.648951 4.137728 9.000000 27 346.285382
0.866343 1.048885 4.393593 8.000000 25 346.285385
0.902803 1.105402 3.421895 8.000000 23 346.285387
0.932037 1.141593 2.766964 13.000000 21 346.285390
1.365428 1.672412 3.243577 15.000000 19 346.285392
1.627276 1.993122 3.156152 11.000000 17 346.285395
0.422096 0.444421 10.406932 56.000000 30 346.285403
0.752217 0.834750 10.419890 9.000000 29 346.285405
0.835096 0.996580 5.039937 9.000000 26 346.285408
0.893223 1.089789 3.886025 9.000000 24 346.285410
0.920066 1.123329 3.064821 10.000000 22 346.285413
0.982483 1.199953 2.606905 10.000000 20 346.285416
1.512011 1.846675 3.234005 15.000000 18 346.285418
1.650182 2.015423 2.902096 13.000000 16 346.285421
1.660046 2.038333 2.663102 15.000000 15 346.285378
1.700604 2.088130 2.253061 17.000000 13 346.285381
1.372102 1.684171 1.508867 16.000000 11 346.285384
1.402817 1.721868 1.248647 25.000000 9 346.285386
1.409262 1.729162 0.989580 27.000000 7 346.285389
1.124858 1.379707 0.612854 56.000000 5 346.285391
1.117442 1.370612 0.427215 60.000000 3 346.285394
1.192782 1.462499 0.262045 14.000000 1 346.285396
1.686862 2.064628 2.454912 17.000000 14 346.285404
1.472147 1.801827 1.777758 14.000000 12 346.285407
1.389852 1.700497 1.375678 24.000000 10 346.285409
1.425295 1.743856 1.128610 25.000000 8 346.285412
1.100379 1.345842 0.693850 84.000000 6 346.285414
1.117157 1.365875 0.516304 76.000000 4 346.285417
1.131997 1.383526 0.341224 48.000000 2 346.285419
1.202281 1.468904 0.170247 12.000000 0 346.285422
0.121193 0.090506 15.793672 58.000000 31 346.285433
0.767602 0.888305 7.463644 11.000000 28 346.285435
0.564113 0.651616 4.167099 15.000000 27 346.285438
0.869999 1.045854 4.393593 8.000000 25 346.285440
0.906656 1.102244 3.421895 8.000000 23 346.285443
0.937538 1.140184 2.771353 13.000000 21 346.285445
1.369470 1.665461 3.239444 15.000000 19 346.285448
1.636260 1.989906 3.159989 11.000000 17 346.285451
0.423645 0.442945 10.406932 56.000000 30 346.285458
0.755126 0.832119 10.419890 9.000000 29 346.285461
0.837758 0.992697 5.035099 9.000000 26 346.285463
0.898120 1.087995 3.890718 9.000000 24 346.285466
0.925367 1.121791 3.069321 10.000000 22 346.285469
0.999940 1.212613 2.641033 9.000000 20 346.285471
1.518448 1.841385 3.234005 15.000000 18 346.285474
1.659364 2.012266 2.905771 13.000000 16 346.285476
1.669412 2.035283 2.666607 14.000000 15 346.285434
1.700477 2.073151 2.243648 16.000000 13 346.285436
1.375320 1.676139 1.506125 18.000000 11 346.285439
1.411629 1.720386 1.250965 25.000000 9 346.285442
1.341756 1.634648 0.942754 13.000000 7 346.285444
1.126622 1.372065 0.611445 66.000000 5 346.285447
1.125337 1.370499 0.428148 58.000000 3 346.285449
1.197880 1.458327 0.262045 15.000000 1 346.285452
1.694059 2.058727 2.454912 17.000000 14 346.285460
1.463018 1.777950 1.760099 13.000000 12 346.285462
1.401260 1.702292 1.380743 24.000000 10 346.285465
1.431373 1.738870 1.128610 22.000000 8 346.285467
1.108073 1.345638 0.695493 82.000000 6 346.285470
1.121918 1.361967 0.516304 76.000000 4 346.285472
1.139968 1.383388 0.341914 46.000000 2 346.285475
1.207401 1.464698 0.170247 12.000000 0 346.285478
0.121509 0.090082 15.793672 58.000000 31 346.285488
0.770187 0.885034 7.458704 11.000000 28 346.285491
0.566384 0.649643 4.167099 16.000000 27 346.285493
0.874604 1.043956 4.398364 8.000000 25 346.285496
0.911744 1.100576 3.426497 8.000000 23 346.285498
0.943040 1.138749 2.775742 13.000000 21 346.285501
1.375275 1.660671 3.239444 16.000000 19 346.285504
1.645240 1.986651 3.163826 11.000000 17 346.285506
0.425390 0.441672 10.411924 54.000000 30 346.285514
0.758026 0.829478 10.419890 9.000000 29 346.285516
0.840403 0.988809 5.030260 8.000000 26 346.285519
0.904119 1.087507 3.900103 9.000000 24 346.285522
0.929278 1.118554 3.069321 10.000000 22 346.285524
1.015830 1.223159 2.670894 9.000000 20 346.285527
1.524866 1.836074 3.234005 15.000000 18 346.285529
1.668544 2.009070 2.909446 13.000000 16 346.285532
1.676507 2.029443 2.666607 14.000000 15 346.285489
1.690348 2.046194 2.221683 13.000000 13 346.285492
1.381163 1.671328 1.506125 18.000000 11 346.285495
1.420448 1.718863 1.253283 24.000000 9 346.285497
1.347454 1.629955 0.942754 13.000000 7 346.285500
1.131405 1.368124 0.611445 67.000000 5 346.285502
1.133244 1.370348 0.429081 58.000000 3 346.285505
1.202963 1.454136 0.262045 14.000000 1 346.285507
1.703618 2.055677 2.458237 17.000000 14 346.285515
1.448582 1.747935 1.736554 13.000000 12 346.285518
1.409945 1.700709 1.383275 23.000000 10 346.285520
1.437434 1.733863 1.128610 22.000000 8 346.285523
1.118792 1.349032 0.698778 73.000000 6 346.285525
1.129768 1.361784 0.517477 76.000000 4 346.285528
1.147953 1.383211 0.342604 45.000000 2 346.285530
1.215697 1.464318 0.170449 12.000000 0 346.285533
0.121786 0.089632 15.788671 58.000000 31 346.285544
0.772760 0.881756 7.453764 11.000000 28 346.285546
0.569993 0.649192 4.176890 18.000000 27 346.285549
0.879206 1.042038 4.403136 8.000000 25 346.285551
0.916832 1.098887 3.431100 8.000000 23 346.285554
0.948544 1.137290 2.780131 13.000000 21 346.285556
1.381063 1.655860 3.239444 16.000000 19 346.285559
1.654219 1.983358 3.167663 11.000000 17 346.285562
0.427131 0.440392 10.416916 53.000000 30 346.285569
0.760555 0.826434 10.414919 9.000000 29 346.285572
0.843032 0.984914 5.025420 8.000000 26 346.285574
0.909018 1.085668 3.904796 9.000000 24 346.285577
0.934574 1.116973 3.073822 10.000000 22 346.285580
1.031807 1.233609 2.700756 8.000000 20 346.285582
1.531266 1.830740 3.234005 15.000000 18 346.285585
1.677722 2.005834 2.913121 14.000000 16 346.285587
1.685861 2.026320 2.670111 14.000000 15 346.285545
1.627766 1.956490 2.133825 7.000000 13 346.285548
1.395013 1.676138 1.514349 17.000000 11 346.285550
1.429273 1.717299 1.255601 24.000000 9 346.285553
1.296777 1.557549 0.907166 14.000000 7 346.285555
1.133104 1.360480 0.610036 66.000000 5 346.285558
1.138021 1.366384 0.429081 54.000000 3 346.285560
1.211219 1.453754 0.262491 13.000000 1 346.285563
1.710783 2.049717 2.458237 17.000000 14 346.285571
1.433954 1.718043 1.713008 18.000000 12 346.285573
1.418636 1.699086 1.385807 23.000000 10 346.285576
1.446386 1.732319 1.130708 22.000000 8 346.285578
1.129549 1.352368 0.702063 70.000000 6 346.285581
1.137632 1.361562 0.518649 77.000000 4 346.285583
1.155950 1.382995 0.343293 43.000000 2 346.285586
1.220801 1.460066 0.170449 13.000000 0 346.285589
0.122099 0.089207 15.788671 55.000000 31 346.285599
0.775319 0.878471 7.448825 11.000000 28 346.285602
0.569556 0.644148 4.157309 28.000000 27 346.285604
0.884772 1.041239 4.412680 8.000000 25 346.285607
0.921919 1.097176 3.435703 8.000000 23 346.285609
0.954049 1.135807 2.784519 13.000000 21 346.285612
1.386835 1.651029 3.239444 16.000000 19 346.285615
1.663193 1.980027 3.171500 11.000000 17 346.285617
0.428868 0.439105 10.421906 51.000000 30 346.285625
0.763435 0.823774 10.414919 9.000000 29 346.285627
0.844001 0.979107 5.010902 8.000000 26 346.285630
0.913914 1.083807 3.909489 9.000000 24 346.285633
0.938467 1.113704 3.073822 10.000000 22 346.285635
1.049549 1.245957 2.734883 8.000000 20 346.285638
1.537647 1.825384 3.234005 15.000000 18 346.285640
1.684714 1.999965 2.913121 13.000000 16 346.285643
1.692924 2.020423 2.670111 14.000000 15 346.285600
1.599583 1.909022 2.089896 7.000000 13 346.285603
1.406227 1.677668 1.519832 18.000000 11 346.285606
1.435259 1.712299 1.255601 24.000000 9 346.285608
1.248590 1.489071 0.873452 15.000000 7 346.285611
1.137845 1.356516 0.610036 64.000000 5 346.285613
1.142783 1.362403 0.429081 54.000000 3 346.285616
1.216286 1.449518 0.262491 13.000000 1 346.285618
1.720330 2.046592 2.461562 17.000000 14 346.285626
1.416535 1.685180 1.686520 21.000000 12 346.285629
1.427333 1.697424 1.388340 22.000000 10 346.285631
1.455346 1.730733 1.132806 24.000000 8 346.285634
1.140343 1.355644 0.705349 70.000000 6 346.285636
1.142377 1.357582 0.518649 77.000000 4 346.285639
1.163960 1.382740 0.343983 45.000000 2 346.285642
1.229108 1.459617 0.170650 12.000000 0 346.285644
0.122409 0.088780 15.788671 53.000000 31 346.285655
0.778380 0.875759 7.448825 11.000000 28 346.285657
0.571123 0.641396 4.152413 36.000000 27 346.285660
0.889373 1.039278 4.417451 9.000000 25 346.285662
0.927005 1.095443 3.440305 8.000000 23 346.285665
0.958008 1.132470 2.784519 13.000000 21 346.285668
1.392590 1.646178 3.239444 16.000000 19 346.285670
1.672166 1.976656 3.175337 11.000000 17 346.285673
0.430602 0.437811 10.426898 49.000000 30 346.285680
0.765942 0.820714 10.409947 9.000000 29 346.285683
0.846588 0.975205 5.006063 8.000000 26 346.285686
0.919926 1.083241 3.918875 9.000000 24 346.285688
0.943758 1.112082 3.078323 10.000000 22 346.285691
1.065702 1.256208 2.764745 8.000000 20 346.285693
1.544009 1.820005 3.234005 15.000000 18 346.285696
1.693878 1.996658 2.916796 13.000000 16 346.285698
1.702266 2.017227 2.673616 14.000000 15 346.285656
1.523387 1.805248 1.986350 8.000000 13 346.285659
1.417469 1.679139 1.525315 20.000000 11 346.285661
1.444085 1.710664 1.257919 23.000000 9 346.285664
1.217887 1.442200 0.850975 16.000000 7 346.285666
1.142574 1.352536 0.610036 63.000000 5 346.285669
1.147532 1.358406 0.429081 58.000000 3 346.285671
1.221339 1.445263 0.262491 15.000000 1 346.285674
1.727464 2.040574 2.461562 16.000000 14 346.285682
1.398904 1.652460 1.660031 22.000000 12 346.285684
1.436035 1.695721 1.390872 22.000000 10 346.285687
1.458445 1.722179 1.130708 24.000000 8 346.285689
1.151173 1.358862 0.708634 68.000000 6 346.285692
1.150252 1.357294 0.519821 77.000000 4 346.285694
1.168779 1.378669 0.343983 42.000000 2 346.285697
1.237427 1.459128 0.170852 12.000000 0 346.285700
0.122703 0.088373 15.788671 56.000000 31 346.285710
0.781280 0.873173 7.448825 10.000000 28 346.285713
0.571887 0.637983 4.142623 54.000000 27 346.285715
0.893789 1.037455 4.422223 9.000000 25 346.285718
0.931900 1.093849 3.444908 8.000000 23 346.285720
0.963311 1.131110 2.788908 13.000000 21 346.285723
1.398041 1.641551 3.239444 16.000000 19 346.285725
1.680790 1.973541 3.179174 11.000000 17 346.285728
0.432255 0.436586 10.431890 46.000000 30 346.285736
0.768293 0.817781 10.404976 9.000000 29 346.285738
0.844851 0.966711 4.977028 8.000000 26 346.285741
0.923513 1.080185 3.918875 9.000000 24 346.285743
0.948855 1.110602 3.082824 10.000000 22 346.285746
1.080024 1.264566 2.790340 8.000000 20 346.285748
1.550036 1.814875 3.234005 15.000000 18 346.285751
1.700490 1.991030 2.916796 13.000000 16 346.285754
1.711255 2.014289 2.677120 14.000000 15 346.285711
1.536927 1.809087 1.995763 9.000000 13 346.285714
1.428446 1.680802 1.530798 21.000000 11 346.285716
1.449750 1.705866 1.257919 21.000000 9 346.285719
1.132580 1.332193 0.794784 45.000000 7 346.285722
1.147053 1.348740 0.610036 63.000000 5 346.285724
1.152030 1.354593 0.429081 66.000000 3 346.285727
1.226125 1.441205 0.262491 15.000000 1 346.285729
1.734221 2.034835 2.461562 16.000000 14 346.285737
1.406998 1.650888 1.662974 22.000000 12 346.285740
1.441651 1.690950 1.390872 21.000000 10 346.285742
1.472982 1.727695 1.137002 23.000000 8 346.285745
1.164866 1.365817 0.713562 70.000000 6 346.285747
1.154746 1.353473 0.519821 77.000000 4 346.285750
1.173345 1.374786 0.343983 35.000000 2 346.285752
1.242259 1.455017 0.170852 12.000000 0 346.285755
0.123047 0.087969 15.793672 55.000000 31 346.285766
0.784323 0.870441 7.448825 10.000000 28 346.285768
0.574111 0.635983 4.142623 64.000000 27 346.285771
0.897405 1.034329 4.422223 9.000000 25 346.285773
0.936985 1.092072 3.449510 8.000000 23 346.285776
0.967254 1.127741 2.788908 13.000000 21 346.285778
1.403763 1.636661 3.239444 16.000000 19 346.285781
1.689756 1.970096 3.183011 11.000000 17 346.285783
0.434186 0.435484 10.441874 44.000000 30 346.285791
0.770776 0.814707 10.400004 9.000000 29 346.285794
0.859025 0.976029 5.039937 9.000000 26 346.285796
0.928404 1.078262 3.923567 9.000000 24 346.285799
0.954147 1.108934 3.087324 10.000000 22 346.285801
1.096337 1.274629 2.820202 8.000000 20 346.285804
1.554397 1.807168 3.230016 15.000000 18 346.285807
1.709640 1.987652 2.920472 13.000000 16 346.285809
1.720595 2.011013 2.680625 14.000000 15 346.285767
1.525517 1.783005 1.973799 10.000000 13 346.285769
1.439742 1.682159 1.536281 20.000000 11 346.285772
1.455696 1.700795 1.257919 18.000000 9 346.285774
1.137223 1.328232 0.794784 73.000000 7 346.285777
1.151754 1.344728 0.610036 66.000000 5 346.285780
1.159947 1.354294 0.430013 64.000000 3 346.285782
1.234388 1.440698 0.262937 15.000000 1 346.285785
1.741313 2.028769 2.461562 15.000000 14 346.285792
1.412752 1.645967 1.662974 21.000000 12 346.285795
1.450353 1.689178 1.393405 21.000000 10 346.285798
1.476047 1.719099 1.134904 19.000000 8 346.285800
1.178858 1.372489 0.718490 66.000000 6 346.285803
1.162632 1.353120 0.520994 77.000000 4 346.285805
1.178136 1.370681 0.343983 35.000000 2 346.285808
1.250588 1.454460 0.171053 12.000000 0 346.285810
0.123353 0.087539 15.793672 57.000000 31 346.285821
0.787879 0.868273 7.453764 12.000000 28 346.285824
0.575642 0.633222 4.137728 55.000000 27 346.285826
0.901993 1.032314 4.426995 9.000000 25 346.285829
0.942068 1.090273 3.454113 8.000000 23 346.285831
0.972750 1.126171 2.793297 13.000000 21 346.285834
1.409467 1.631751 3.239444 16.000000 19 346.285836
1.698718 1.966611 3.186847 12.000000 17 346.285839
0.435909 0.434170 10.446865 40.000000 30 346.285847
0.773246 0.811625 10.395033 9.000000 29 346.285849
0.870771 0.982436 5.088330 8.000000 26 346.285852
0.933293 1.076319 3.928260 9.000000 24 346.285854
0.959438 1.107242 3.091825 10.000000 22 346.285857
1.111025 1.282622 2.845798 8.000000 20 346.285860
1.560695 1.801732 3.230016 15.000000 18 346.285862
1.718788 1.984234 2.924147 13.000000 16 346.285865
1.729932 2.007696 2.684130 14.000000 15 346.285822
1.511402 1.754077 1.948696 11.000000 13 346.285825
1.448335 1.680290 1.539023 20.000000 11 346.285827
1.464516 1.699059 1.260237 18.000000 9 346.285830
1.141852 1.324254 0.794784 71.000000 7 346.285833
1.156441 1.340699 0.610036 67.000000 5 346.285835
1.164668 1.350237 0.430013 62.000000 3 346.285838
1.239410 1.436381 0.262937 13.000000 1 346.285840
1.741058 2.014203 2.451587 12.000000 14 346.285848
1.418489 1.641026 1.662974 21.000000 12 346.285851
1.459060 1.687366 1.395937 22.000000 10 346.285853
1.407825 1.628110 1.082453 12.000000 8 346.285856
1.180552 1.364794 0.716848 60.000000 6 346.285858
1.167348 1.349054 0.520994 77.000000 4 346.285861
1.179673 1.362816 0.343293 51.000000 2 346.285863
1.255657 1.450085 0.171053 12.000000 0 346.285866
0.123658 0.087108 15.793672 54.000000 31 346.285877
0.790905 0.865517 7.453764 11.000000 28 346.285879
0.577849 0.631209 4.137728 55.000000 27 346.285882
0.906577 1.030281 4.431767 9.000000 25 346.285884
0.947151 1.088452 3.458715 8.000000 23 346.285887
0.978248 1.124576 2.797685 13.000000 21 346.285889
1.415154 1.626821 3.239444 16.000000 19 346.285892
1.707677 1.963089 3.190685 12.000000 17 346.285894
0.437628 0.432849 10.451857 42.000000 30 346.285902
0.776075 0.808921 10.395033 9.000000 29 346.285905
0.874195 0.979391 5.088330 8.000000 26 346.285907
0.937044 1.073054 3.928260 9.000000 24 346.285910
0.964729 1.105527 3.096326 10.000000 22 346.285912
1.132640 1.298389 2.888457 7.000000 20 346.285915
1.566975 1.796273 3.230016 15.000000 18 346.285918
1.727932 1.980777 2.927822 13.000000 16 346.285920
1.739267 2.004339 2.687634 14.000000 15 346.285878
1.494553 1.722328 1.920456 13.000000 13 346.285880
1.456933 1.678382 1.541764 20.000000 11 346.285883
1.470438 1.693937 1.260237 19.000000 9 346.285886
1.149508 1.323760 0.796657 66.000000 7 346.285888
1.164260 1.340276 0.611445 66.000000 5 346.285891
1.172595 1.349872 0.430946 60.000000 3 346.285893
1.247682 1.435804 0.263384 13.000000 1 346.285896
1.726011 1.982763 2.421664 8.000000 14 346.285904
1.437478 1.651308 1.677690 22.000000 12 346.285906
1.464941 1.682263 1.395937 22.000000 10 346.285909
1.371772 1.575268 1.053080 12.000000 8 346.285911
1.172901 1.346422 0.710277 68.000000 6 346.285914
1.172050 1.344971 0.520994 75.000000 4 346.285916
1.184423 1.358690 0.343293 53.000000 2 346.285919
1.263995 1.449459 0.171255 13.000000 0 346.285921
0.123998 0.086700 15.798672 52.000000 31 346.285932
0.793922 0.862751 7.453764 11.000000 28 346.285935
0.580049 0.629188 4.137728 66.000000 27 346.285937
0.912150 1.029345 4.441310 9.000000 25 346.285940
0.952232 1.086609 3.463318 8.000000 23 346.285942
0.983746 1.122956 2.802074 13.000000 21 346.285945
1.418970 1.619755 3.235311 16.000000 19 346.285947
1.716631 1.959527 3.194521 12.000000 17 346.285950
0.439550 0.431724 10.461841 40.000000 30 346.285958
0.778894 0.806207 10.395033 9.000000 29 346.285960
0.876767 0.975398 5.083490 9.000000 26 346.285963
0.941924 1.071073 3.932953 9.000000 24 346.285965
0.971457 1.105425 3.105328 10.000000 22 346.285968
1.152657 1.312061 2.926850 7.000000 20 346.285971
1.571246 1.788528 3.226026 15.000000 18 346.285973
1.737073 1.977281 2.931497 13.000000 16 346.285976
1.748599 2.000941 2.691139 14.000000 15 346.285933
1.477502 1.690719 1.892216 17.000000 13 346.285936
1.465534 1.676434 1.544506 20.000000 11 346.285938
1.479258 1.692129 1.262555 19.000000 9 346.285941
1.181588 1.351147 0.813515 38.000000 7 346.285944
1.168931 1.336204 0.611445 64.000000 5 346.285946
1.180534 1.349468 0.431878 60.000000 3 346.285949
1.252687 1.431440 0.263384 14.000000 1 346.285951
1.715690 1.957070 2.398390 7.000000 14 346.285959
1.448563 1.652359 1.683577 23.000000 12 346.285962
1.473647 1.680381 1.398470 22.000000 10 346.285964
1.338360 1.526111 1.025805 14.000000 8 346.285967
1.171365 1.335220 0.706991 74.000000 6 346.285969
1.179944 1.344525 0.522166 72.000000 4 346.285972
1.192425 1.358269 0.343983 51.000000 2 346.285974
1.269047 1.445038 0.171255 13.000000 0 346.285977
0.124300 0.086266 15.798672 53.000000 31 346.285988
0.797457 0.860545 7.458704 11.000000 28 346.285990
0.582241 0.627159 4.137728 69.000000 27 346.285993
0.916732 1.027269 4.446082 9.000000 25 346.285995
0.956019 1.083278 3.463318 8.000000 23 346.285998
0.987660 1.119516 2.802074 13.000000 21 346.286000
1.424616 1.614792 3.235311 16.000000 19 346.286003
1.725582 1.955927 3.198359 12.000000 17 346.286006
0.441470 0.430591 10.471823 40.000000 30 346.286013
0.782076 0.803865 10.400004 9.000000 29 346.286016
0.881011 0.973264 5.088330 9.000000 26 346.286018
0.946801 1.069070 3.937645 9.000000 24 346.286021
0.976753 1.103657 3.109829 10.000000 22 346.286024
1.177967 1.331469 2.978041 6.000000 20 346.286026
1.577480 1.783032 3.226026 15.000000 18 346.286029
1.746211 1.973744 2.935172 13.000000 16 346.286031
1.757929 1.997502 2.694643 13.000000 15 346.285989
1.449960 1.647561 1.851425 20.000000 13 346.285991
1.474140 1.674447 1.547247 20.000000 11 346.285994
1.488083 1.690280 1.264873 22.000000 9 346.285997
1.201617 1.364410 0.822880 28.000000 7 346.285999
1.176759 1.335715 0.612854 64.000000 5 346.286002
1.188485 1.349025 0.432811 58.000000 3 346.286004
1.260968 1.430795 0.263830 15.000000 1 346.286007
1.687909 1.911877 2.351842 7.000000 14 346.286015
1.462347 1.656382 1.692406 24.000000 12 346.286017
1.479504 1.675226 1.398470 20.000000 10 346.286020
1.316640 1.490814 1.006923 13.000000 8 346.286022
1.169765 1.324044 0.703706 76.000000 6 346.286025
1.184630 1.340397 0.522166 72.000000 4 346.286027
1.197159 1.354098 0.343983 48.000000 2 346.286030
1.274083 1.440599 0.171255 13.000000 0 346.286032
0.124600 0.085832 15.798672 53.000000 31 346.286043
0.800456 0.857756 7.458704 11.000000 28 346.286046
0.584427 0.625123 4.137728 71.000000 27 346.286048
0.921310 1.025174 4.450853 9.000000 25 346.286051
0.959795 1.079934 3.463318 7.000000 23 346.286053
0.993153 1.117852 2.806463 13.000000 21 346.286056
1.428375 1.607706 3.231178 16.000000 19 346.286058
1.734528 1.952288 3.202195 13.000000 17 346.286061
0.443179 0.429248 10.476814 39.000000 30 346.286069
0.784877 0.801131 10.400004 10.000000 29 346.286071
0.884403 0.970182 5.088330 9.000000 26 346.286074
0.951675 1.067046 3.942338 9.000000 24 346.286076
0.982241 1.101696 3.114330 10.000000 22 346.286079
1.207133 1.354400 3.037765 6.000000 20 346.286082
1.581999 1.774988 3.222037 15.000000 18 346.286084
1.757945 1.972392 2.942523 13.000000 16 346.286087
1.767257 1.994023 2.698148 14.000000 15 346.286044
1.442793 1.627923 1.835736 17.000000 13 346.286047
1.479976 1.669291 1.547247 19.000000 11 346.286050
1.496913 1.688391 1.267192 22.000000 9 346.286052
1.237133 1.394891 0.841610 27.000000 7 346.286055
1.181414 1.331599 0.612854 63.000000 5 346.286057
1.193421 1.344659 0.432811 58.000000 3 346.286060
1.272817 1.433612 0.264722 17.000000 1 346.286062
1.660161 1.866612 2.305294 8.000000 14 346.286070
1.473781 1.657052 1.698292 23.000000 12 346.286073
1.485634 1.669793 1.398470 18.000000 10 346.286075
1.310028 1.472415 0.998531 13.000000 8 346.286078
1.174610 1.319748 0.703706 84.000000 6 346.286080
1.192767 1.339677 0.523338 77.000000 4 346.286083
1.205408 1.353400 0.344673 48.000000 2 346.286085
1.279104 1.436143 0.171255 12.000000 0 346.286088
0.124914 0.085375 15.798672 53.000000 31 346.286099
0.803594 0.854816 7.458704 11.000000 28 346.286101
0.587413 0.623718 4.142623 75.000000 27 346.286104
0.927067 1.024004 4.460397 9.000000 25 346.286106
0.965050 1.077865 3.467920 7.000000 23 346.286109
0.997243 1.114205 2.806463 13.000000 21 346.286111
1.434257 1.602460 3.231178 16.000000 19 346.286114
1.745948 1.950696 3.209869 13.000000 17 346.286117
0.445167 0.428021 10.486798 38.000000 30 346.286124
0.788183 0.798628 10.404976 10.000000 29 346.286127
0.887953 0.966934 5.088330 8.000000 26 346.286129
0.956733 1.064835 3.947031 9.000000 24 346.286132
0.987535 1.099881 3.118830 10.000000 22 346.286135
1.237985 1.379291 3.101753 6.000000 20 346.286137
1.588185 1.769455 3.222037 15.000000 18 346.286140
1.767083 1.968767 2.946198 14.000000 16 346.286142
1.779304 1.992853 2.705157 13.000000 15 346.286100
1.448750 1.622624 1.835736 17.000000 13 346.286102
1.488870 1.666974 1.549989 21.000000 11 346.286105
1.508994 1.689501 1.271828 21.000000 9 346.286108
1.236060 1.383433 0.837864 26.000000 7 346.286110
1.186287 1.327260 0.612854 63.000000 5 346.286113
1.201381 1.344148 0.433744 54.000000 3 346.286115
1.281133 1.432873 0.265168 19.000000 1 346.286118
1.624311 1.813517 2.248772 8.000000 14 346.286126
1.484949 1.657919 1.704179 23.000000 12 346.286128
1.494331 1.667807 1.401002 18.000000 10 346.286131
1.296988 1.447553 0.985942 13.000000 8 346.286133
1.182362 1.319157 0.705349 86.000000 6 346.286136
1.197436 1.335505 0.523338 75.000000 4 346.286138
1.216738 1.356557 0.346053 46.000000 2 346.286141
1.287695 1.435164 0.171456 12.000000 0 346.286144
0.125211 0.084938 15.798672 53.000000 31 346.286154
0.806573 0.852006 7.458704 11.000000 28 346.286157
0.589586 0.621663 4.142623 79.000000 27 346.286159
0.931642 1.021866 4.465168 9.000000 25 346.286162
0.971423 1.077392 3.477125 9.000000 23 346.286164
1.002731 1.112496 2.810851 13.000000 21 346.286167
1.437958 1.595353 3.227045 16.000000 19 346.286170
1.754893 1.946971 3.213706 13.000000 17 346.286172
0.446584 0.426543 10.486798 37.000000 30 346.286180
0.790827 0.796010 10.404976 10.000000 29 346.286182
0.891155 0.963985 5.088330 8.000000 26 346.286185
0.961417 1.062936 3.951724 9.000000 24 346.286188
0.992829 1.098042 3.123331 10.000000 22 346.286190
1.302252 1.440744 3.246795 9.000000 20 346.286193
1.592331 1.761665 3.218047 15.000000 18 346.286195
1.775875 1.965412 2.949873 13.000000 16 346.286198
1.786249 1.986629 2.705157 13.000000 15 346.286155
1.459610 1.623347 1.842012 17.000000 13 346.286158
1.494680 1.661767 1.549989 21.000000 11 346.286161
1.514882 1.684224 1.271828 21.000000 9 346.286163
1.246841 1.386220 0.841610 26.000000 7 346.286166
1.190682 1.323319 0.612854 71.000000 5 346.286168
1.206066 1.339946 0.433744 54.000000 3 346.286171
1.246139 1.383981 0.259814 34.000000 1 346.286173
1.583109 1.755149 2.185600 9.000000 14 346.286181
1.493435 1.655727 1.707122 23.000000 12 346.286184
1.499853 1.662843 1.401002 18.000000 10 346.286186
1.283543 1.423023 0.973354 15.000000 8 346.286189
1.189893 1.318735 0.706991 86.000000 6 346.286191
1.205115 1.335135 0.524511 75.000000 4 346.286194
1.224549 1.356190 0.346743 46.000000 2 346.286196
1.292447 1.430886 0.171456 12.000000 0 346.286199
0.125492 0.084523 15.798672 53.000000 31 346.286210
0.809394 0.849326 7.458704 11.000000 28 346.286212
0.591645 0.619705 4.142623 80.000000 27 346.286215
0.936035 1.019871 4.469940 8.000000 25 346.286217
0.976303 1.075611 3.481728 9.000000 23 346.286220
1.008024 1.110939 2.815240 13.000000 21 346.286222
1.443241 1.590576 3.227045 16.000000 19 346.286225
1.763494 1.943514 3.217543 13.000000 17 346.286228
0.448281 0.425180 10.491790 36.000000 30 346.286235
0.793601 0.793245 10.404976 10.000000 29 346.286238
0.894514 0.960868 5.088330 9.000000 26 346.286240
0.966283 1.060849 3.956417 9.000000 24 346.286243
0.998122 1.096180 3.127832 10.000000 22 346.286246
1.354673 1.488264 3.361975 13.000000 20 346.286248
1.598471 1.756096 3.218047 15.000000 18 346.286251
1.785349 1.961396 2.953548 14.000000 16 346.286253
1.800007 1.988627 2.715671 13.000000 15 346.286211
1.475435 1.630042 1.854563 17.000000 13 346.286214
1.500182 1.656801 1.549989 21.000000 11 346.286216
1.520459 1.679191 1.271828 21.000000 9 346.286219
1.254784 1.385295 0.843483 26.000000 7 346.286221
1.195294 1.319155 0.612854 71.000000 5 346.286224
1.210736 1.335728 0.433744 54.000000 3 346.286226
1.214165 1.339041 0.254906 59.000000 1 346.286229
1.561606 1.719206 2.149026 11.000000 14 346.286237
1.501923 1.653496 1.710065 23.000000 12 346.286239
1.508837 1.660525 1.403534 18.000000 10 346.286242
1.270437 1.398155 0.960766 18.000000 8 346.286244
1.197895 1.317859 0.708634 84.000000 6 346.286247
1.210000 1.330709 0.524511 75.000000 4 346.286249
1.232843 1.355356 0.347432 43.000000 2 346.286252
1.300796 1.430061 0.171658 12.000000 0 346.286255
0.125801 0.084062 15.798672 51.000000 31 346.286265
0.811963 0.845794 7.453764 11.000000 28 346.286268
0.593912 0.617532 4.142623 81.000000 27 346.286270
0.940781 1.017530 4.474712 8.000000 25 346.286273
0.982876 1.074909 3.490933 8.000000 23 346.286275
1.013706 1.109006 2.819628 13.000000 21 346.286278
1.449061 1.585276 3.227045 16.000000 19 346.286281
1.770605 1.937038 3.217543 13.000000 17 346.286283
0.449762 0.423613 10.491790 34.000000 30 346.286291
0.796365 0.790470 10.404976 10.000000 29 346.286293
0.897002 0.956822 5.083490 9.000000 26 346.286296
0.971147 1.058742 3.961109 9.000000 24 346.286299
1.003415 1.094294 3.132333 9.000000 22 346.286301
1.395106 1.521977 3.447294 17.000000 20 346.286304
1.602554 1.748284 3.214057 15.000000 18 346.286306
1.794134 1.957965 2.957223 14.000000 16 346.286309
1.802478 1.976746 2.708662 12.000000 15 346.286266
1.489269 1.633253 1.863976 17.000000 13 346.286269
1.509062 1.654381 1.552730 22.000000 11 346.286272
1.532574 1.680153 1.276464 18.000000 9 346.286274
1.262736 1.384332 0.845356 26.000000 7 346.286277
1.199891 1.314974 0.612854 76.000000 5 346.286279
1.215391 1.331494 0.433744 64.000000 3 346.286282
1.215474 1.331118 0.254459 66.000000 1 346.286284
1.527270 1.669657 2.095829 14.000000 14 346.286292
1.510414 1.651226 1.713008 22.000000 12 346.286295
1.517245 1.658694 1.406067 20.000000 10 346.286297
1.272003 1.390586 0.958668 23.000000 8 346.286300
1.205447 1.317364 0.710277 82.000000 6 346.286302
1.214406 1.326689 0.524511 74.000000 4 346.286305
1.237331 1.351260 0.347432 42.000000 2 346.286308
1.309154 1.429196 0.171859 13.000000 0 346.286310
0.126079 0.083644 15.798672 49.000000 31 346.286321
0.814764 0.843097 7.453764 11.000000 28 346.286323
0.595248 0.614828 4.137728 81.000000 27 346.286326
0.945168 1.015498 4.479484 9.000000 25 346.286328
0.989081 1.074518 3.500138 8.000000 23 346.286331
1.019000 1.107401 2.824017 13.000000 21 346.286334
1.452404 1.578391 3.222912 16.000000 19 346.286336
1.779190 1.933515 3.221380 13.000000 17 346.286339
0.451026 0.421843 10.486798 34.000000 30 346.286346
0.799120 0.787685 10.404976 10.000000 29 346.286349
0.897746 0.950942 5.068973 9.000000 26 346.286352
0.976008 1.056613 3.965802 9.000000 24 346.286354
1.008515 1.092561 3.136834 9.000000 22 346.286357
1.410757 1.528842 3.472890 16.000000 20 346.286359
1.608343 1.742960 3.214057 14.000000 18 346.286362
1.803256 1.954182 2.960898 14.000000 16 346.286364
1.787318 1.947113 2.677120 9.000000 15 346.286322
1.502574 1.636909 1.873390 18.000000 13 346.286325
1.514540 1.649367 1.552730 21.000000 11 346.286327
1.475213 1.606535 1.227785 14.000000 9 346.286330
1.267561 1.379915 0.845356 26.000000 7 346.286332
1.204474 1.310778 0.612854 80.000000 5 346.286335
1.219800 1.327456 0.433744 58.000000 3 346.286337
1.219881 1.327080 0.254459 64.000000 1 346.286340
1.512561 1.642607 2.069230 17.000000 14 346.286348
1.518619 1.649181 1.715951 22.000000 12 346.286350
1.525947 1.656558 1.408599 20.000000 10 346.286353
1.276849 1.386137 0.958668 23.000000 8 346.286355
1.213238 1.316620 0.711920 84.000000 6 346.286358
1.222324 1.326016 0.525683 74.000000 4 346.286360
1.242040 1.346933 0.347432 43.000000 2 346.286363
1.317523 1.428289 0.172061 13.000000 0 346.286366
0.126370 0.083204 15.798672 49.000000 31 346.286376
0.817702 0.840247 7.453764 11.000000 28 346.286379
0.597391 0.612747 4.137728 82.000000 27 346.286381
0.950750 1.014372 4.489028 9.000000 25 346.286384
0.994154 1.072492 3.504740 9.000000 23 346.286386
1.024488 1.105594 2.828406 13.000000 21 346.286389
1.457905 1.573311 3.222912 16.000000 19 346.286391
1.785928 1.927293 3.221380 12.000000 17 346.286394
0.452709 0.420463 10.491790 33.000000 30 346.286402
0.801864 0.784891 10.404976 10.000000 29 346.286404
0.898460 0.945068 5.054455 9.000000 26 346.286407
0.980865 1.054463 3.970495 9.000000 24 346.286409
1.013805 1.090629 3.141335 9.000000 22 346.286412
1.412535 1.520087 3.464358 13.000000 20 346.286414
1.614417 1.737335 3.214057 14.000000 18 346.286417
1.812374 1.950359 2.964574 14.000000 16 346.286420
1.752951 1.896343 2.617543 6.000000 15 346.286377
1.513564 1.637371 1.879665 18.000000 13 346.286380
1.523127 1.647141 1.555471 18.000000 11 346.286382
1.438702 1.555838 1.195333 13.000000 9 346.286385
1.272370 1.375482 0.845356 27.000000 7 346.286388
1.212301 1.310086 0.614263 80.000000 5 346.286390
1.227762 1.326795 0.434676 58.000000 3 346.286393
1.227889 1.326468 0.254906 66.000000 1 346.286395
1.487816 1.604458 2.029332 19.000000 14 346.286403
1.527115 1.646834 1.718895 22.000000 12 346.286406
1.534652 1.654382 1.411132 20.000000 10 346.286408
1.284767 1.384999 0.960766 25.000000 8 346.286411
1.217827 1.312377 0.711920 84.000000 6 346.286413
1.226945 1.321741 0.525683 77.000000 4 346.286416
1.246734 1.342589 0.347432 63.000000 2 346.286418
1.322500 1.423682 0.172061 13.000000 0 346.286421
0.126697 0.082785 15.803672 47.000000 31 346.286432
0.820630 0.837388 7.453764 11.000000 28 346.286434
0.599526 0.610658 4.137728 81.000000 27 346.286437
0.955310 1.012133 4.493799 9.000000 25 346.286439
0.999225 1.070443 3.509343 9.000000 23 346.286442
1.029975 1.103763 2.832794 13.000000 21 346.286444
1.463388 1.568213 3.222912 16.000000 19 346.286447
1.790458 1.918703 3.217543 11.000000 17 346.286449
0.454387 0.419076 10.496781 33.000000 30 346.286457
0.804216 0.781715 10.400004 10.000000 29 346.286460
0.895663 0.935567 5.020581 10.000000 26 346.286462
0.985720 1.052292 3.975188 9.000000 24 346.286465
1.017606 1.087083 3.141335 9.000000 22 346.286467
1.426742 1.524669 3.485688 9.000000 20 346.286470
1.620472 1.731689 3.214057 15.000000 18 346.286473
1.821488 1.946496 2.968249 14.000000 16 346.286475
1.754700 1.884992 2.610534 6.000000 15 346.286433
1.524575 1.637777 1.885941 18.000000 13 346.286435
1.531717 1.644874 1.558213 17.000000 11 346.286438
1.386761 1.489206 1.151290 14.000000 9 346.286440
1.277164 1.371033 0.845356 27.000000 7 346.286443
1.216866 1.305847 0.614263 77.000000 5 346.286446
1.232386 1.322502 0.434676 58.000000 3 346.286448
1.235908 1.325817 0.255352 62.000000 1 346.286451
1.493407 1.599254 2.029332 17.000000 14 346.286458
1.535613 1.644448 1.721838 22.000000 12 346.286461
1.543360 1.652166 1.413664 20.000000 10 346.286464
1.289593 1.380506 0.960766 26.000000 8 346.286466
1.225625 1.311569 0.713562 86.000000 6 346.286469
1.231552 1.317451 0.525683 77.000000 4 346.286471
1.251413 1.338229 0.347432 55.000000 2 346.286474
1.330875 1.422705 0.172262 13.000000 0 346.286476
0.126985 0.082342 15.803672 47.000000 31 346.286487
0.823548 0.834518 7.453764 11.000000 28 346.286490
0.601654 0.608561 4.137728 81.000000 27 346.286492
0.959866 1.009874 4.498570 9.000000 25 346.286495
1.002955 1.066949 3.509343 9.000000 23 346.286497
1.035462 1.101907 2.837183 12.000000 21 346.286500
1.466926 1.561044 3.218779 16.000000 19 346.286502
1.797144 1.912441 3.217543 11.000000 17 346.286505
0.456061 0.417682 10.501773 32.000000 30 346.286513
0.806940 0.778903 10.400004 10.000000 29 346.286515
0.893685 0.927002 4.991546 11.000000 26 346.286518
0.990571 1.050100 3.979880 9.000000 24 346.286520
1.022888 1.085109 3.145835 9.000000 22 346.286523
1.626507 1.726022 3.214057 15.000000 18 346.286528
1.830596 1.942593 2.971924 13.000000 16 346.286531
1.710050 1.824217 2.536939 7.000000 15 346.286488
1.535607 1.638125 1.892216 18.000000 13 346.286491
1.543170 1.645617 1.563696 17.000000 11 346.286493
1.361647 1.452040 1.128110 13.000000 9 346.286496
1.285113 1.369947 0.847229 27.000000 7 346.286499
1.224700 1.305089 0.615672 76.000000 5 346.286501
1.240357 1.321774 0.435609 58.000000 3 346.286504
1.247345 1.328756 0.256244 62.000000 1 346.286506
1.496422 1.591312 2.026007 17.000000 14 346.286514
1.541344 1.639077 1.721838 21.000000 12 346.286517
1.552072 1.649909 1.416197 20.000000 10 346.286519
1.297514 1.379302 0.962864 27.000000 8 346.286522
1.230195 1.307283 0.713562 86.000000 6 346.286524
1.236143 1.313144 0.525683 90.000000 4 346.286527
1.256077 1.333853 0.347432 55.000000 2 346.286529
1.335833 1.418051 0.172262 13.000000 0 346.286532
0.127309 0.081921 15.808670 46.000000 31 346.286543
0.827003 0.832189 7.458704 10.000000 28 346.286545
0.603774 0.606457 4.137728 80.000000 27 346.286548
0.965451 1.008676 4.508114 9.000000 25 346.286550
1.008017 1.064860 3.513946 9.000000 23 346.286553
1.044243 1.103506 2.850349 11.000000 21 346.286555
1.472366 1.555914 3.218779 16.000000 19 346.286558
1.801606 1.903828 3.213706 11.000000 17 346.286560
0.457945 0.416477 10.511756 33.000000 30 346.286568
0.809268 0.775712 10.395033 10.000000 29 346.286571
0.892534 0.919365 4.967350 12.000000 26 346.286573
0.995419 1.047887 3.984573 9.000000 24 346.286576
1.028169 1.083112 3.150336 9.000000 22 346.286578
1.630447 1.718148 3.210068 15.000000 18 346.286584
1.844367 1.943569 2.982949 13.000000 16 346.286586
1.677238 1.776744 2.480866 7.000000 15 346.286544
1.546660 1.638417 1.898492 17.000000 13 346.286546
1.551776 1.643261 1.566437 17.000000 11 346.286549
1.351498 1.431173 1.116520 12.000000 9 346.286552
1.289888 1.365453 0.847229 27.000000 7 346.286554
1.232543 1.304293 0.617082 76.000000 5 346.286557
1.248337 1.321006 0.436542 58.000000 3 346.286559
1.255397 1.328013 0.256690 64.000000 1 346.286562
1.509671 1.594213 2.035981 16.000000 14 346.286570
1.549835 1.636622 1.724781 21.000000 12 346.286572
1.557822 1.644481 1.416197 20.000000 10 346.286575
1.302321 1.374764 0.962864 27.000000 8 346.286577
1.234751 1.302980 0.713562 86.000000 6 346.286580
1.240719 1.308821 0.525683 90.000000 4 346.286582
1.264133 1.333054 0.348122 56.000000 2 346.286585
1.344213 1.417004 0.172464 13.000000 0 346.286587
0.127594 0.081476 15.808670 47.000000 31 346.286598
0.829903 0.829298 7.458704 10.000000 28 346.286601
0.605888 0.604346 4.137728 79.000000 27 346.286603
0.970002 1.006375 4.512886 9.000000 25 346.286606
1.014423 1.064163 3.523150 9.000000 23 346.286608
1.056352 1.108526 2.872293 9.000000 21 346.286611
1.475847 1.548728 3.214646 16.000000 19 346.286613
1.808240 1.897527 3.213706 10.000000 17 346.286616
0.459827 0.415263 10.521739 31.000000 30 346.286624
0.811971 0.772883 10.395033 10.000000 29 346.286626
0.889582 0.909949 4.933475 12.000000 26 346.286629
0.999071 1.044406 3.984573 9.000000 24 346.286631
1.033448 1.081090 3.154837 9.000000 22 346.286634
1.741735 1.822641 4.193833 7.000000 20 346.286637
1.636435 1.712446 3.210068 15.000000 18 346.286639
1.851140 1.937119 2.982949 13.000000 16 346.286642
1.641659 1.726938 2.421289 7.000000 15 346.286599
1.555052 1.635829 1.901630 17.000000 13 346.286602
1.560384 1.640864 1.569179 18.000000 11 346.286604
1.347327 1.416816 1.109566 12.000000 9 346.286607
1.297841 1.364301 0.849102 27.000000 7 346.286610
1.240395 1.303458 0.618491 80.000000 5 346.286612
1.256327 1.320199 0.437474 62.000000 3 346.286615
1.263458 1.327230 0.257137 59.000000 1 346.286617
1.525535 1.599743 2.049281 16.000000 14 346.286625
1.555539 1.631202 1.724781 21.000000 12 346.286628
1.566528 1.642152 1.418729 20.000000 10 346.286630
1.310244 1.373494 0.964962 27.000000 8 346.286633
1.239292 1.298662 0.713562 89.000000 6 346.286635
1.248636 1.307997 0.526855 90.000000 4 346.286638
1.272199 1.332214 0.348812 56.000000 2 346.286640
1.352602 1.415916 0.172666 13.000000 0 346.286643
0.127878 0.081030 15.808670 47.000000 31 346.286654
0.832793 0.826396 7.458704 10.000000 28 346.286656
0.608717 0.602944 4.142623 78.000000 27 346.286659
0.974550 1.004054 4.517657 9.000000 25 346.286661
1.019485 1.062025 3.527753 9.000000 23 346.286664
1.076803 1.122118 2.916179 8.000000 21 346.286666
1.481244 1.543567 3.214646 16.000000 19 346.286669
1.812633 1.888891 3.209869 10.000000 17 346.286672
0.461489 0.413848 10.526731 30.000000 30 346.286679
0.814664 0.770044 10.395033 11.000000 29 346.286682
0.890988 0.905046 4.923797 12.000000 26 346.286684
1.003908 1.042155 3.989266 9.000000 24 346.286687
1.038726 1.079045 3.159338 9.000000 22 346.286690
1.751704 1.820308 4.202365 7.000000 20 346.286692
1.640312 1.704552 3.206079 15.000000 18 346.286695
1.860241 1.933088 2.986624 13.000000 16 346.286697
1.605754 1.677403 2.361711 9.000000 15 346.286655
1.563445 1.633203 1.904768 15.000000 13 346.286657
1.568994 1.638428 1.571920 18.000000 11 346.286660
1.333880 1.392906 1.095657 13.000000 9 346.286663
1.305803 1.363110 0.850975 28.000000 7 346.286665
1.248257 1.302584 0.619900 80.000000 5 346.286668
1.264326 1.319352 0.438407 71.000000 3 346.286670
1.274976 1.330001 0.258029 52.000000 1 346.286673
1.541457 1.605183 2.062580 17.000000 14 346.286681
1.561223 1.625762 1.724781 19.000000 12 346.286683
1.569264 1.633565 1.416197 19.000000 10 346.286686
1.318175 1.372185 0.967060 27.000000 8 346.286688
1.243818 1.294329 0.713562 87.000000 6 346.286691
1.253194 1.303631 0.526855 92.000000 4 346.286693
1.280274 1.331335 0.349502 53.000000 2 346.286696
1.361000 1.414786 0.172867 14.000000 0 346.286698
0.128197 0.080606 15.813670 46.000000 31 346.286709
0.835673 0.823484 7.458704 10.000000 28 346.286712
0.610818 0.600815 4.142623 66.000000 27 346.286714
0.979093 1.001714 4.522429 8.000000 25 346.286717
1.024544 1.059865 3.532356 9.000000 23 346.286719
1.097362 1.135580 2.960066 8.000000 21 346.286722
1.486623 1.538387 3.214646 16.000000 19 346.286724
1.819216 1.882552 3.209869 10.000000 17 346.286727
0.463364 0.412619 10.536715 31.000000 30 346.286735
0.816957 0.766830 10.390061 11.000000 29 346.286737
0.892370 0.900144 4.914119 13.000000 26 346.286740
1.009943 1.041122 3.998652 9.000000 24 346.286742
1.044002 1.076976 3.163839 9.000000 22 346.286745
1.768937 1.825420 4.227960 7.000000 20 346.286748
1.646252 1.698815 3.206079 15.000000 18 346.286750
1.850463 1.909541 2.960898 11.000000 16 346.286753
1.574473 1.633275 2.309143 10.000000 15 346.286710
1.571838 1.630538 1.907905 15.000000 13 346.286713
1.577606 1.635951 1.574662 18.000000 11 346.286716
1.317207 1.365919 1.079431 17.000000 9 346.286718
1.313771 1.361880 0.852848 27.000000 7 346.286721
1.252796 1.298219 0.619900 82.000000 5 346.286723
1.268924 1.314931 0.438407 79.000000 3 346.286726
1.283070 1.329126 0.258475 50.000000 1 346.286728
1.554838 1.607845 2.072555 17.000000 14 346.286736
1.569698 1.623208 1.727724 18.000000 12 346.286739
1.586947 1.640472 1.426326 19.000000 10 346.286741
1.322957 1.367575 0.967060 27.000000 8 346.286744
1.248328 1.289979 0.713562 80.000000 6 346.286746
1.261118 1.302741 0.528027 92.000000 4 346.286749
1.284913 1.326858 0.349502 56.000000 2 346.286751
1.365930 1.410027 0.172867 14.000000 0 346.286754
0.128478 0.080158 15.813670 45.000000 31 346.286765
0.838542 0.820562 7.458704 10.000000 28 346.286767
0.612912 0.598679 4.142623 68.000000 27 346.286770
0.982583 0.998290 4.522429 8.000000 25 346.286772
1.030963 1.059082 3.541561 9.000000 23 346.286775
1.116357 1.147195 2.999564 7.000000 21 346.286777
1.491984 1.533188 3.214646 16.000000 19 346.286780
1.825776 1.876191 3.209869 10.000000 17 346.286783
0.465019 0.411191 10.541706 30.000000 30 346.286790
0.819629 0.763974 10.390061 11.000000 29 346.286793
0.893729 0.895243 4.904440 15.000000 26 346.286795
1.014776 1.038824 4.003345 9.000000 24 346.286798
1.049276 1.074884 3.168340 9.000000 22 346.286801
1.782584 1.826700 4.245024 7.000000 20 346.286803
1.650067 1.690902 3.202089 15.000000 18 346.286806
1.840543 1.886086 2.935172 9.000000 16 346.286808
1.552840 1.599622 2.270593 12.000000 15 346.286766
1.580232 1.627835 1.911043 16.000000 13 346.286768
1.583307 1.630434 1.574662 19.000000 11 346.286771
1.306535 1.345421 1.067841 24.000000 9 346.286774
1.321748 1.360611 0.854721 27.000000 7 346.286776
1.260664 1.297278 0.621309 82.000000 5 346.286779
1.276929 1.314016 0.439339 79.000000 3 346.286781
1.294644 1.331781 0.259368 45.000000 1 346.286784
1.568257 1.610434 2.082529 17.000000 14 346.286792
1.578175 1.620615 1.730667 18.000000 12 346.286794
1.610714 1.653451 1.441521 15.000000 10 346.286797
1.330889 1.366200 0.969158 27.000000 8 346.286799
1.252823 1.285614 0.713562 78.000000 6 346.286802
1.269051 1.301811 0.529200 93.000000 4 346.286804
1.292994 1.325910 0.350192 58.000000 2 346.286807
1.374332 1.408826 0.173069 14.000000 0 346.286810
0.128795 0.079731 15.818670 44.000000 31 346.286820
0.841401 0.817630 7.458704 10.000000 28 346.286823
0.614998 0.596536 4.142623 77.000000 27 346.286825
0.987113 0.995915 4.527201 8.000000 25 346.286828
1.036021 1.056871 3.546163 9.000000 23 346.286830
1.137122 1.160403 3.043450 7.000000 21 346.286833
1.499297 1.529981 3.218779 17.000000 19 346.286836
1.830070 1.867516 3.206032 10.000000 17 346.286838
0.466669 0.409755 10.546697 30.000000 30 346.286846
0.822291 0.761108 10.390061 11.000000 29 346.286848
0.895065 0.890344 4.894762 20.000000 26 346.286851
1.019607 1.036506 4.008038 9.000000 24 346.286854
1.054549 1.072768 3.172840 8.000000 22 346.286856
1.790778 1.822327 4.249290 8.000000 20 346.286859
1.655960 1.685132 3.202089 15.000000 18 346.286861
1.806720 1.838543 2.872694 7.000000 16 346.286864
1.538471 1.573791 2.242557 14.000000 15 346.286821
1.588625 1.625093 1.914181 16.000000 13 346.286824
1.591913 1.627887 1.577403 19.000000 11 346.286827
1.314321 1.344020 1.070159 24.000000 9 346.286829
1.326489 1.355989 0.854721 27.000000 7 346.286832
1.265184 1.292870 0.621309 82.000000 5 346.286834
1.281508 1.309551 0.439339 79.000000 3 346.286837
1.302769 1.330812 0.259814 42.000000 1 346.286839
1.573869 1.604950 2.082529 17.000000 14 346.286847
1.586652 1.617982 1.733610 19.000000 12 346.286850
1.525903 1.555490 1.365548 10.000000 10 346.286852
1.335650 1.361546 0.969158 27.000000 8 346.286855
1.260611 1.284603 0.715205 78.000000 6 346.286857
1.273587 1.297374 0.529200 93.000000 4 346.286860
1.297615 1.321388 0.350192 69.000000 2 346.286862
1.379242 1.404020 0.173069 14.000000 0 346.286865
0.129072 0.079281 15.818670 43.000000 31 346.286876
0.844250 0.814687 7.458704 10.000000 28 346.286878
0.617076 0.594386 4.142623 74.000000 27 346.286881
0.990584 0.992463 4.527201 8.000000 25 346.286883
1.041076 1.054639 3.550766 9.000000 23 346.286886
1.151263 1.166658 3.069782 8.000000 21 346.286888
1.504628 1.524738 3.218779 17.000000 19 346.286891
1.836578 1.861117 3.206032 10.000000 17 346.286894
0.468316 0.408314 10.551688 29.000000 30 346.286901
0.824943 0.758233 10.390061 11.000000 29 346.286904
0.896377 0.885447 4.885083 24.000000 26 346.286906
1.024433 1.034167 4.012730 9.000000 24 346.286909
1.059819 1.070628 3.177341 8.000000 22 346.286912
1.800797 1.819772 4.257822 8.000000 20 346.286914
1.661832 1.679341 3.202089 15.000000 18 346.286917
1.784512 1.803309 2.828593 7.000000 16 346.286919
1.526442 1.550620 2.218025 13.000000 15 346.286877
1.594288 1.619537 1.914181 16.000000 13 346.286880
1.597585 1.622320 1.577403 19.000000 11 346.286882
1.319004 1.339424 1.070159 24.000000 9 346.286885
1.334468 1.354653 0.856594 27.000000 7 346.286887
1.269690 1.288446 0.621309 79.000000 5 346.286890
1.286072 1.305070 0.439339 79.000000 3 346.286892
1.310902 1.329803 0.260260 40.000000 1 346.286895
1.582086 1.602104 2.085854 17.000000 14 346.286903
1.595130 1.615310 1.736554 19.000000 12 346.286905
1.494965 1.513349 1.335159 10.000000 10 346.286908
1.343584 1.360104 0.971256 26.000000 8 346.286910
1.265087 1.280195 0.715205 79.000000 6 346.286913
1.281525 1.296377 0.530372 93.000000 4 346.286915
1.302219 1.316851 0.350192 80.000000 2 346.286918
1.387648 1.402749 0.173270 13.000000 0 346.286921
0.129386 0.078852 15.823670 43.000000 31 346.286931
0.847089 0.811736 7.458704 10.000000 28 346.286934
0.618411 0.591525 4.137728 72.000000 27 346.286936
0.995101 0.990053 4.531973 9.000000 25 346.286939
1.044751 1.050998 3.550766 8.000000 23 346.286941
1.177282 1.184724 3.126835 9.000000 21 346.286944
1.511925 1.521473 3.222912 18.000000 19 346.286947
1.840803 1.852420 3.202195 10.000000 17 346.286949
0.469957 0.406866 10.556681 29.000000 30 346.286957
0.827584 0.755349 10.390061 11.000000 29 346.286959
0.897667 0.880551 4.875405 30.000000 26 346.286962
1.030474 1.033028 4.022116 9.000000 24 346.286965
1.065087 1.068464 3.181842 9.000000 22 346.286967
1.810820 1.817170 4.266354 9.000000 20 346.286970
1.665556 1.671395 3.198100 14.000000 18 346.286972
1.745328 1.751442 2.758764 8.000000 16 346.286975
1.531845 1.545283 2.218025 13.000000 15 346.286932
1.599932 1.613963 1.914181 16.000000 13 346.286935
1.603238 1.616734 1.577403 19.000000 11 346.286938
1.326791 1.337957 1.072477 25.000000 9 346.286940
1.339188 1.349987 0.856594 26.000000 7 346.286943
1.277559 1.287411 0.622718 77.000000 5 346.286945
1.290620 1.300573 0.439339 77.000000 3 346.286948
1.315536 1.325219 0.260260 40.000000 1 346.286950
1.587668 1.596571 2.085854 16.000000 14 346.286958
1.603609 1.612598 1.739497 20.000000 12 346.286961
1.424226 1.431710 1.271848 14.000000 10 346.286963
1.348324 1.355406 0.971256 25.000000 8 346.286966
1.272879 1.279119 0.716848 79.000000 6 346.286968
1.286043 1.291896 0.530372 92.000000 4 346.286971
1.306808 1.312297 0.350192 85.000000 2 346.286974
1.392536 1.397897 0.173270 13.000000 0 346.286976
0.129661 0.078399 15.823670 42.000000 31 346.286987
0.850480 0.809309 7.463644 10.000000 28 346.286989
0.620472 0.589363 4.137728 64.000000 27 346.286992
0.999613 0.987623 4.536744 8.000000 25 346.286994
1.049796 1.048726 3.555368 8.000000 23 346.286997
1.206830 1.206009 3.192665 11.000000 21 346.287000
1.519217 1.518175 3.227045 18.000000 19 346.287002
