# .PCD v.7 - Point Cloud Data file format
VERSION .7
FIELDS x y z intensity ring timestamp
SIZE 4 4 4 4 2 8
TYPE F F F F U D
COUNT 1 1 1 1 1 1
WIDTH 945
HEIGHT 1
VIEWPOINT 0 0 0 1 0 0 0
POINTS 945
DATA ascii
1.475546 1.333729 1.006923 24.000000 8 346.888889
1.468570 1.326958 0.777627 27.000000 6 346.888891
1.471778 1.329391 0.569059 28.000000 4 346.888894
1.492182 1.347348 0.372266 24.000000 2 346.888896
1.494380 1.348859 0.174882 12.000000 0 346.888899
0.019637 0.014227 1.209228 4.000000 31 346.888910
0.139113 0.119412 1.166089 6.000000 28 346.888912
0.905735 0.773009 5.748258 19.000000 27 346.888915
1.050583 0.933221 4.536744 93.000000 25 346.888917
1.394624 1.252671 4.475873 11.000000 23 346.888920
1.206717 1.084268 3.039062 14.000000 21 346.888922
1.434323 1.288771 2.904675 19.000000 19 346.888925
1.928249 1.732564 3.179174 10.000000 17 346.888927
0.062845 0.049721 1.222373 3.000000 30 346.888935
0.887322 0.777042 4.575374 37.000000 26 346.888940
1.224797 1.096281 4.524241 10.000000 24 346.888943
1.182171 1.058865 3.343872 10.000000 22 346.888945
1.294888 1.160223 2.914052 21.000000 20 346.888948
1.739401 1.558498 3.166184 14.000000 18 346.888951
2.096544 1.878491 3.129956 11.000000 16 346.888953
2.099002 1.890624 2.855852 12.000000 15 346.888911
1.208438 1.088471 1.393310 50.000000 13 346.888913
2.177269 1.960426 1.619532 17.000000 9 346.888919
1.465032 1.318661 0.884690 28.000000 7 346.888921
1.473096 1.325455 0.672040 25.000000 5 346.888924
1.478916 1.330691 0.469183 27.000000 3 346.888926
1.492007 1.341999 0.272754 16.000000 1 346.888929
2.111615 1.895985 2.607855 13.000000 14 346.888937
1.238045 1.111621 1.295079 32.000000 12 346.888939
2.154173 1.933515 1.785931 16.000000 10 346.888942
1.480192 1.328570 1.006923 24.000000 8 346.888944
1.473193 1.321824 0.777627 27.000000 6 346.888947
1.480028 1.327491 0.570231 28.000000 4 346.888949
1.500564 1.345437 0.372956 24.000000 2 346.888952
1.502799 1.346968 0.175084 12.000000 0 346.888954
0.019686 0.014158 1.209228 4.000000 31 346.888965
0.137751 0.117417 1.151271 6.000000 28 346.888968
0.909982 0.771158 5.758048 19.000000 27 346.888970
1.053834 0.929548 4.536744 93.000000 25 346.888973
1.394615 1.243894 4.462066 10.000000 23 346.888975
1.212282 1.081644 3.043450 14.000000 21 346.888978
1.438813 1.283756 2.904675 20.000000 19 346.888980
1.934285 1.725822 3.179174 10.000000 17 346.888983
0.062098 0.048799 1.202407 3.000000 30 346.888991
0.886232 0.770639 4.556017 44.000000 26 346.888996
1.228617 1.091999 4.524241 10.000000 24 346.888998
1.187487 1.056179 3.348373 9.000000 22 346.889001
1.298930 1.155696 2.914052 21.000000 20 346.889004
1.744830 1.552417 3.166184 14.000000 18 346.889006
2.108153 1.875668 3.137306 11.000000 16 346.889009
2.108247 1.885663 2.859357 12.000000 15 346.888966
1.212230 1.084246 1.393310 42.000000 13 346.888969
1.251606 1.119071 1.185374 38.000000 11 346.888971
2.187402 1.955767 1.621850 17.000000 9 346.888974
1.469626 1.313540 0.884690 27.000000 7 346.888977
1.477714 1.320305 0.672040 25.000000 5 346.888979
1.487215 1.328794 0.470116 27.000000 3 346.888982
1.500396 1.340100 0.273200 16.000000 1 346.888984
2.123795 1.893573 2.614505 13.000000 14 346.888992
1.244934 1.109983 1.298023 31.000000 12 346.888995
2.164128 1.928852 1.788463 16.000000 10 346.888997
1.488209 1.326415 1.009021 24.000000 8 346.889000
1.481324 1.319815 0.779270 27.000000 6 346.889002
1.484653 1.322316 0.570231 29.000000 4 346.889005
1.508949 1.343484 0.373645 24.000000 2 346.889007
1.511224 1.345036 0.175285 11.000000 0 346.889010
0.019775 0.014109 1.214227 4.000000 31 346.889021
0.137566 0.116435 1.146332 6.000000 28 346.889023
0.913448 0.768633 5.762943 19.000000 27 346.889026
1.055949 0.924879 4.531973 94.000000 25 346.889028
1.400411 1.240314 4.466668 10.000000 23 346.889031
1.219637 1.080583 3.052227 13.000000 21 346.889033
1.441179 1.276860 2.900542 20.000000 19 346.889036
1.940297 1.719060 3.179174 11.000000 17 346.889039
0.060883 0.047533 1.172457 3.000000 30 346.889046
0.886060 0.765075 4.541500 66.000000 26 346.889051
1.232421 1.087704 4.524241 10.000000 24 346.889054
1.192983 1.053261 3.352874 9.000000 22 346.889057
1.301203 1.149201 2.909786 21.000000 20 346.889059
1.750508 1.546012 3.166184 14.000000 18 346.889062
2.117555 1.870173 3.140981 11.000000 16 346.889064
2.120149 1.883029 2.866366 12.000000 15 346.889022
1.218918 1.082593 1.396448 42.000000 13 346.889024
1.233616 1.095263 1.166183 52.000000 11 346.889027
2.197529 1.951061 1.624168 16.000000 9 346.889030
1.477670 1.311479 0.886563 27.000000 7 346.889032
1.485903 1.318322 0.673449 25.000000 5 346.889035
1.492076 1.323334 0.470116 27.000000 3 346.889037
1.509025 1.337895 0.273646 15.000000 1 346.889040
2.133517 1.888251 2.617830 13.000000 14 346.889048
1.252021 1.108091 1.300966 31.000000 12 346.889050
2.177641 1.926621 1.793528 16.000000 10 346.889053
1.493060 1.320952 1.009021 25.000000 8 346.889055
1.489689 1.317505 0.780912 27.000000 6 346.889058
1.493131 1.320085 0.571403 29.000000 4 346.889060
1.513863 1.337944 0.373645 23.000000 2 346.889063
1.519653 1.343061 0.175487 11.000000 0 346.889065
0.019787 0.014017 1.209228 4.000000 31 346.889076
0.139184 0.116927 1.156210 7.000000 28 346.889079
0.917822 0.766584 5.772734 17.000000 27 346.889081
1.059332 0.921003 4.531973 93.000000 25 346.889084
1.397611 1.228723 4.443655 10.000000 23 346.889086
1.225388 1.077688 3.056616 12.000000 21 346.889089
1.445849 1.271569 2.900542 20.000000 19 346.889091
1.946585 1.711937 3.179174 10.000000 17 346.889094
0.888726 0.761977 4.541500 87.000000 26 346.889107
1.237508 1.084532 4.528934 10.000000 24 346.889109
1.199927 1.051961 3.361875 9.000000 22 346.889112
1.305206 1.144652 2.909786 22.000000 20 346.889115
1.755895 1.539892 3.166184 14.000000 18 346.889117
2.126294 1.865376 3.144657 11.000000 16 346.889120
2.129711 1.877604 2.869870 12.000000 15 346.889077
1.222878 1.078119 1.396448 46.000000 13 346.889080
1.234485 1.087969 1.163442 64.000000 11 346.889083
2.207988 1.945922 1.626486 16.000000 9 346.889085
1.485717 1.309378 0.888436 27.000000 7 346.889088
1.494095 1.316298 0.674859 25.000000 5 346.889090
1.500372 1.321364 0.471049 27.000000 3 346.889093
1.517423 1.335910 0.274093 15.000000 1 346.889095
2.145705 1.885722 2.624480 14.000000 14 346.889103
1.255882 1.103714 1.300966 31.000000 12 346.889106
2.187256 1.922235 1.796060 15.000000 10 346.889108
1.497433 1.315993 1.009021 25.000000 8 346.889111
1.494050 1.312558 0.780912 28.000000 6 346.889113
1.501153 1.318334 0.572576 29.000000 4 346.889116
1.522014 1.336184 0.374335 23.000000 2 346.889118
1.524332 1.337748 0.175487 13.000000 0 346.889121
0.019834 0.013951 1.209228 4.000000 31 346.889132
0.139571 0.116464 1.156210 6.000000 28 346.889134
0.921927 0.764836 5.782524 17.000000 27 346.889137
1.061250 0.916509 4.527201 93.000000 25 346.889139
1.382548 1.207376 4.383823 11.000000 23 346.889142
1.228955 1.073618 3.056616 11.000000 21 346.889144
1.447939 1.264916 2.896409 20.000000 19 346.889147
1.952251 1.705472 3.179174 10.000000 17 346.889150
0.891380 0.758870 4.541500 92.000000 26 346.889162
1.241287 1.080206 4.528934 9.000000 24 346.889165
1.205052 1.049407 3.366376 9.000000 22 346.889168
1.307028 1.138605 2.905520 22.000000 20 346.889170
1.760991 1.534061 3.166184 14.000000 18 346.889173
2.137904 1.862396 3.152007 11.000000 16 346.889175
2.141292 1.875230 2.876880 12.000000 15 346.889133
1.229375 1.076622 1.399585 66.000000 13 346.889135
1.244378 1.089378 1.168925 71.000000 11 346.889138
2.217763 1.941508 1.628804 16.000000 9 346.889141
1.490278 1.304184 0.888436 27.000000 7 346.889143
1.502291 1.314234 0.676268 25.000000 5 346.889146
1.508443 1.319616 0.471981 27.000000 3 346.889148
1.525594 1.334149 0.274539 16.000000 1 346.889151
2.154760 1.881052 2.627805 14.000000 14 346.889159
1.262580 1.102202 1.303909 30.000000 12 346.889161
2.200449 1.920257 1.801125 15.000000 10 346.889164
1.502017 1.310758 1.009021 25.000000 8 346.889166
1.502181 1.310439 0.782555 28.000000 6 346.889169
1.509409 1.316281 0.573748 29.000000 4 346.889171
1.530401 1.334117 0.375025 23.000000 2 346.889174
1.532759 1.335702 0.175688 13.000000 0 346.889177
0.019882 0.013882 1.209228 4.000000 31 346.889187
0.138179 0.114493 1.141393 5.000000 28 346.889190
0.925377 0.762260 5.787420 19.000000 27 346.889192
1.064443 0.912799 4.527201 90.000000 25 346.889195
1.373470 1.191024 4.342400 15.000000 23 346.889197
1.234505 1.070892 3.061005 10.000000 21 346.889200
1.452345 1.259854 2.896409 20.000000 19 346.889203
1.958192 1.698647 3.179174 10.000000 17 346.889205
0.062773 0.047927 1.202407 3.000000 30 346.889213
0.894024 0.755754 4.541500 95.000000 26 346.889218
1.243744 1.074738 4.524241 9.000000 24 346.889221
1.210355 1.046618 3.370877 9.000000 22 346.889223
1.310995 1.134035 2.905520 22.000000 20 346.889226
1.766335 1.527904 3.166184 15.000000 18 346.889228
2.146956 1.857140 3.155682 10.000000 16 346.889231
2.153207 1.872424 2.883889 12.000000 15 346.889188
1.236063 1.074879 1.402723 69.000000 13 346.889191
1.248174 1.085028 1.168925 71.000000 11 346.889194
2.227870 1.936661 1.631122 16.000000 9 346.889196
1.498321 1.302015 0.890309 27.000000 7 346.889199
1.506870 1.308982 0.676268 24.000000 5 346.889201
1.516749 1.317564 0.472914 27.000000 3 346.889204
1.534002 1.332081 0.274985 16.000000 1 346.889206
2.164135 1.875965 2.631129 14.000000 14 346.889214
1.266420 1.097788 1.303909 30.000000 12 346.889217
2.210397 1.915388 1.803658 15.000000 10 346.889219
1.510013 1.308479 1.011119 25.000000 8 346.889222
1.510315 1.308280 0.784198 28.000000 6 346.889224
1.517668 1.314186 0.574920 28.000000 4 346.889227
1.538793 1.332008 0.375715 23.000000 2 346.889229
1.541190 1.333612 0.175890 13.000000 0 346.889232
0.019930 0.013812 1.209228 4.000000 31 346.889243
0.862305 0.706796 7.088260 5.000000 28 346.889245
0.929609 0.760314 5.797210 19.000000 27 346.889248
1.066485 0.908109 4.522429 91.000000 25 346.889250
1.361334 1.172200 4.291772 15.000000 23 346.889253
1.238236 1.066576 3.061005 10.000000 21 346.889255
1.456734 1.254777 2.896409 19.000000 19 346.889258
1.961681 1.689709 3.175337 10.000000 17 346.889261
0.062473 0.047364 1.192424 3.000000 30 346.889268
0.895693 0.751820 4.536660 95.000000 26 346.889273
1.247488 1.070390 4.524241 9.000000 24 346.889276
1.215653 1.043806 3.375378 9.000000 22 346.889279
1.314945 1.129452 2.905520 22.000000 20 346.889281
1.771658 1.521729 3.166184 14.000000 18 346.889284
2.155998 1.851844 3.159357 10.000000 16 346.889286
2.162429 1.867228 2.887393 12.000000 15 346.889244
1.239807 1.070557 1.402723 67.000000 13 346.889247
1.255119 1.083396 1.171666 71.000000 11 346.889249
2.234617 1.928872 1.631122 15.000000 9 346.889252
1.502857 1.296777 0.890309 27.000000 7 346.889254
1.515062 1.306847 0.677677 24.000000 5 346.889257
1.525058 1.315470 0.473846 28.000000 3 346.889259
1.542414 1.329971 0.275431 17.000000 1 346.889262
2.173501 1.870836 2.634454 14.000000 14 346.889270
1.273307 1.095997 1.306852 30.000000 12 346.889272
2.220337 1.910473 1.806190 15.000000 10 346.889275
1.514572 1.303201 1.011119 25.000000 8 346.889277
1.514873 1.303000 0.784198 27.000000 6 346.889280
1.525932 1.312049 0.576092 28.000000 4 346.889282
1.547189 1.329856 0.376405 23.000000 2 346.889285
1.549625 1.331480 0.176092 13.000000 0 346.889288
0.019979 0.013743 1.209228 5.000000 31 346.889298
0.862355 0.701821 7.068502 12.000000 28 346.889301
0.933839 0.758348 5.807001 19.000000 27 346.889303
1.069649 0.904381 4.522429 93.000000 25 346.889306
1.357993 1.161093 4.268760 12.000000 23 346.889308
1.243772 1.063805 3.065393 10.000000 21 346.889311
1.461105 1.249684 2.896409 19.000000 19 346.889314
1.967567 1.682852 3.175337 10.000000 17 346.889316
0.898312 0.748689 4.536660 95.000000 26 346.889329
1.249903 1.064910 4.519548 9.000000 24 346.889332
1.220946 1.040969 3.379879 8.000000 22 346.889334
1.318880 1.124855 2.905520 21.000000 20 346.889337
1.776959 1.515536 3.166184 14.000000 18 346.889339
2.165028 1.846506 3.163032 11.000000 16 346.889342
2.171641 1.861989 2.890898 12.000000 15 346.889299
1.246492 1.068757 1.405861 67.000000 13 346.889302
1.258893 1.079009 1.171666 71.000000 11 346.889305
2.244699 1.923944 1.633440 15.000000 9 346.889307
1.510894 1.294539 0.892182 26.000000 7 346.889310
1.523258 1.304672 0.679086 24.000000 5 346.889312
1.533372 1.313334 0.474779 27.000000 3 346.889315
1.550830 1.327817 0.275877 17.000000 1 346.889317
2.185695 1.868090 2.641104 14.000000 14 346.889325
1.280198 1.094172 1.309795 28.000000 12 346.889328
2.226992 1.902711 1.806190 15.000000 10 346.889330
1.522562 1.300854 1.013217 26.000000 8 346.889333
1.523003 1.300771 0.785840 27.000000 6 346.889335
1.530503 1.306715 0.576092 28.000000 4 346.889338
1.555588 1.327662 0.377094 23.000000 2 346.889341
1.558064 1.329305 0.176293 13.000000 0 346.889343
0.020066 0.013691 1.214227 4.000000 31 346.889354
0.866613 0.700271 7.083320 12.000000 28 346.889356
0.938066 0.756361 5.816791 19.000000 27 346.889359
1.072799 0.900642 4.522429 93.000000 25 346.889361
1.359059 1.153817 4.259555 11.000000 23 346.889364
1.247478 1.059456 3.065393 11.000000 21 346.889367
1.463314 1.242755 2.892276 19.000000 19 346.889369
1.973429 1.675973 3.175337 10.000000 17 346.889372
0.900919 0.745549 4.536660 95.000000 26 346.889385
1.253613 1.060541 4.519548 9.000000 24 346.889387
1.226235 1.038108 3.384380 8.000000 22 346.889390
1.322798 1.120245 2.905520 22.000000 20 346.889392
1.782238 1.509324 3.166184 14.000000 18 346.889395
2.176635 1.843320 3.170383 11.000000 16 346.889397
2.180843 1.856709 2.894403 12.000000 15 346.889355
1.253179 1.066923 1.408999 67.000000 13 346.889358
1.265836 1.077318 1.174408 71.000000 11 346.889360
2.254775 1.918968 1.635758 15.000000 9 346.889363
1.518935 1.292261 0.894055 26.000000 7 346.889365
1.527803 1.299346 0.679086 25.000000 5 346.889368
1.541689 1.311155 0.475712 26.000000 3 346.889370
1.559250 1.325622 0.276324 16.000000 1 346.889373
2.195050 1.862865 2.644428 13.000000 14 346.889381
1.287091 1.092312 1.312738 28.000000 12 346.889383
2.236908 1.897714 1.808723 15.000000 10 346.889386
1.527094 1.295531 1.013217 25.000000 8 346.889388
1.531136 1.298501 0.787483 28.000000 6 346.889391
1.538762 1.304507 0.577265 28.000000 4 346.889393
1.563991 1.325426 0.377784 22.000000 2 346.889396
1.562694 1.323859 0.176293 13.000000 0 346.889399
0.020114 0.013621 1.214227 4.000000 31 346.889409
0.869659 0.697727 7.088260 12.000000 28 346.889412
0.942291 0.754355 5.826581 19.000000 27 346.889414
1.075936 0.896892 4.522429 93.000000 25 346.889417
1.352622 1.140251 4.227337 9.000000 23 346.889419
1.253000 1.056640 3.069782 12.000000 21 346.889422
1.467643 1.237639 2.892276 19.000000 19 346.889424
1.979267 1.669074 3.175337 10.000000 17 346.889427
0.063671 0.047215 1.207399 3.000000 30 346.889435
0.903516 0.742400 4.536660 95.000000 26 346.889440
1.255986 1.055048 4.514856 10.000000 24 346.889442
1.231518 1.035222 3.388880 8.000000 22 346.889445
1.324705 1.113942 2.901255 21.000000 20 346.889447
1.785190 1.501154 3.162194 14.000000 18 346.889450
2.185650 1.837892 3.174058 11.000000 16 346.889453
2.190034 1.851388 2.897907 12.000000 15 346.889410
1.259869 1.065055 1.412136 67.000000 13 346.889413
1.269589 1.072892 1.174408 73.000000 11 346.889415
2.264844 1.913945 1.638076 15.000000 9 346.889418
1.526978 1.289943 0.895928 27.000000 7 346.889421
1.535995 1.297101 0.680495 25.000000 5 346.889423
1.550009 1.308935 0.476644 27.000000 3 346.889426
1.567673 1.323383 0.276770 16.000000 1 346.889428
2.204395 1.857598 2.647753 13.000000 14 346.889436
1.290896 1.087813 1.312738 29.000000 12 346.889439
2.246816 1.892672 1.811255 14.000000 10 346.889441
1.535078 1.293117 1.015315 25.000000 8 346.889444
1.539272 1.296190 0.789126 27.000000 6 346.889446
1.547025 1.302258 0.578437 28.000000 4 346.889449
1.572397 1.323147 0.378474 22.000000 2 346.889451
1.571129 1.321612 0.176495 13.000000 0 346.889454
0.020201 0.013569 1.219227 4.000000 31 346.889465
0.873913 0.696139 7.103077 12.000000 28 346.889467
0.946513 0.752327 5.836371 20.000000 27 346.889470
1.079060 0.893131 4.522429 92.000000 25 346.889472
1.359590 1.138031 4.236542 8.000000 23 346.889475
1.258518 1.053798 3.074171 13.000000 21 346.889477
1.469797 1.230702 2.888143 18.000000 19 346.889480
1.985081 1.662155 3.175337 10.000000 17 346.889482
0.063600 0.046824 1.202407 3.000000 30 346.889490
0.906102 0.739241 4.536660 95.000000 26 346.889495
1.259661 1.050658 4.514856 10.000000 24 346.889498
1.236796 1.032313 3.393381 8.000000 22 346.889500
1.328585 1.109311 2.901255 21.000000 20 346.889503
1.790419 1.494913 3.162194 14.000000 18 346.889506
2.194655 1.832425 3.177733 11.000000 16 346.889508
2.199215 1.846025 2.901412 12.000000 15 346.889466
1.263579 1.060651 1.412136 66.000000 13 346.889468
1.276529 1.071142 1.177149 73.000000 11 346.889471
2.274905 1.908875 1.640394 15.000000 9 346.889473
1.535023 1.287584 0.897801 26.000000 7 346.889476
1.544189 1.294814 0.681905 23.000000 5 346.889479
1.558333 1.306673 0.477577 26.000000 3 346.889481
1.576099 1.321102 0.277216 16.000000 1 346.889484
2.216594 1.854685 2.654403 13.000000 14 346.889491
1.297786 1.085894 1.315682 28.000000 12 346.889494
2.256716 1.887584 1.813787 14.000000 10 346.889497
1.543063 1.290662 1.017413 25.000000 8 346.889499
1.543787 1.290810 0.789126 27.000000 6 346.889502
1.555291 1.299967 0.579609 27.000000 4 346.889504
1.580807 1.320826 0.379164 23.000000 2 346.889507
1.575733 1.316119 0.176495 12.000000 0 346.889509
0.020248 0.013499 1.219227 4.000000 31 346.889520
0.877557 0.694048 7.112956 12.000000 28 346.889523
0.949933 0.749649 5.841267 20.000000 27 346.889525
1.081017 0.888410 4.517657 92.000000 25 346.889528
1.365057 1.134527 4.241145 7.000000 23 346.889530
1.264030 1.050930 3.078559 14.000000 21 346.889533
1.471920 1.223765 2.884011 18.000000 19 346.889535
1.990871 1.655216 3.175337 10.000000 17 346.889538
0.908677 0.736074 4.536660 94.000000 26 346.889551
1.261992 1.045154 4.510163 10.000000 24 346.889553
1.243745 1.030768 3.402383 8.000000 22 346.889556
1.332449 1.104667 2.901255 21.000000 20 346.889559
1.795626 1.488654 3.162194 14.000000 18 346.889561
2.206258 1.829080 3.185083 11.000000 16 346.889564
2.211124 1.842903 2.908421 12.000000 15 346.889521
1.270264 1.058726 1.415274 66.000000 13 346.889524
1.280261 1.066680 1.177149 73.000000 11 346.889526
2.284958 1.903758 1.642712 15.000000 9 346.889529
1.543071 1.285185 0.899674 27.000000 7 346.889532
1.548699 1.289415 0.681905 23.000000 5 346.889534
1.566660 1.304369 0.478509 26.000000 3 346.889537
1.580701 1.315592 0.277216 17.000000 1 346.889539
2.225927 1.849323 2.657728 13.000000 14 346.889547
1.304677 1.083940 1.318625 28.000000 12 346.889550
2.266608 1.882449 1.816320 14.000000 10 346.889552
1.551051 1.288168 1.019511 24.000000 8 346.889555
1.551916 1.288429 0.790768 28.000000 6 346.889557
1.563560 1.297635 0.580782 27.000000 4 346.889560
1.589219 1.318461 0.379854 24.000000 2 346.889562
1.584163 1.313800 0.176696 12.000000 0 346.889565
0.020295 0.013428 1.219227 4.000000 31 346.889576
0.881196 0.691940 7.122834 12.000000 28 346.889578
0.954147 0.747584 5.851057 19.000000 27 346.889581
1.084112 0.884631 4.517657 92.000000 25 346.889583
1.370516 1.130998 4.245747 6.000000 23 346.889586
1.269539 1.048036 3.082948 13.000000 21 346.889588
1.476183 1.218620 2.884011 18.000000 19 346.889591
1.999109 1.650297 3.179174 10.000000 17 346.889593
0.910261 0.732109 4.531821 93.000000 26 346.889606
1.265632 1.040742 4.510163 9.000000 24 346.889609
1.249017 1.027804 3.406884 8.000000 22 346.889611
1.334283 1.098351 2.896989 22.000000 20 346.889614
1.800811 1.482377 3.162194 14.000000 18 346.889617
2.215246 1.823522 3.188759 11.000000 16 346.889619
2.220291 1.837447 2.911925 12.000000 15 346.889577
1.273952 1.054286 1.415274 66.000000 13 346.889579
1.287198 1.064870 1.179891 71.000000 11 346.889582
2.295003 1.898595 1.645030 15.000000 9 346.889585
1.547547 1.279791 0.899674 27.000000 7 346.889587
1.556888 1.287058 0.683314 24.000000 5 346.889590
1.574989 1.302022 0.479442 26.000000 3 346.889592
1.589123 1.313239 0.277662 16.000000 1 346.889595
2.238130 1.846295 2.664378 13.000000 14 346.889603
1.311571 1.081951 1.321568 28.000000 12 346.889605
2.279818 1.880011 1.821385 14.000000 10 346.889608
1.562541 1.288521 1.023707 24.000000 8 346.889610
1.560048 1.286008 0.792411 28.000000 6 346.889613
1.568080 1.292169 0.580782 27.000000 4 346.889615
1.597634 1.316055 0.380544 23.000000 2 346.889618
1.588740 1.308263 0.176696 12.000000 0 346.889620
0.020342 0.013357 1.219227 4.000000 31 346.889631
0.884832 0.689815 7.132713 13.000000 28 346.889634
0.957555 0.744874 5.855952 19.000000 27 346.889636
1.086033 0.879902 4.512886 92.000000 25 346.889639
1.374455 1.126207 4.245747 6.000000 23 346.889641
1.275042 1.045117 3.087337 11.000000 21 346.889644
1.478251 1.211675 2.879877 18.000000 19 346.889646
2.004858 1.643309 3.179174 10.000000 17 346.889649
0.062662 0.045161 1.172457 3.000000 30 346.889657
0.912811 0.728927 4.531821 93.000000 26 346.889662
1.267920 1.035227 4.505470 9.000000 24 346.889664
1.255970 1.026194 3.415885 8.000000 22 346.889667
1.338109 1.093687 2.896989 22.000000 20 346.889670
1.805975 1.476082 3.162194 14.000000 18 346.889672
2.224223 1.817924 3.192434 11.000000 16 346.889675
2.232202 1.834214 2.918934 12.000000 15 346.889632
1.280632 1.052304 1.418412 66.000000 13 346.889635
1.290907 1.060370 1.179891 73.000000 11 346.889637
2.305039 1.893384 1.647348 15.000000 9 346.889640
1.555588 1.277323 0.901547 26.000000 7 346.889643
1.565080 1.284660 0.684723 24.000000 5 346.889645
1.579525 1.296516 0.479442 27.000000 3 346.889648
1.597547 1.310843 0.278108 16.000000 1 346.889650
2.247450 1.840837 2.667703 13.000000 14 346.889658
1.315340 1.077367 1.321568 29.000000 12 346.889661
2.289702 1.874773 1.823917 13.000000 10 346.889663
1.567029 1.283059 1.023707 25.000000 8 346.889666
1.568182 1.283546 0.794054 27.000000 6 346.889668
1.576342 1.289765 0.581954 27.000000 4 346.889671
1.606051 1.313605 0.381233 23.000000 2 346.889673
1.597164 1.305871 0.176898 12.000000 0 346.889676
0.020348 0.013268 1.214227 4.000000 31 346.889687
0.888464 0.687673 7.142591 13.000000 28 346.889689
0.961761 0.742771 5.865743 19.000000 27 346.889692
1.089098 0.876105 4.512886 93.000000 25 346.889694
1.379894 1.122636 4.250350 6.000000 23 346.889697
1.280541 1.042172 3.091726 11.000000 21 346.889699
1.482471 1.206508 2.879877 18.000000 19 346.889702
2.010582 1.636301 3.179174 10.000000 17 346.889705
0.063295 0.045272 1.182441 3.000000 30 346.889712
0.915350 0.725737 4.531821 94.000000 26 346.889717
1.270186 1.029708 4.500778 9.000000 24 346.889720
1.263106 1.024327 3.424887 8.000000 22 346.889723
1.340083 1.087132 2.892723 21.000000 20 346.889725
1.811373 1.469453 3.162194 14.000000 18 346.889728
2.230871 1.809759 3.192434 11.000000 16 346.889730
2.244117 1.830920 2.925943 12.000000 15 346.889688
1.287313 1.050288 1.421550 66.000000 13 346.889690
1.297841 1.058500 1.182632 71.000000 11 346.889693
2.315068 1.888126 1.649666 14.000000 9 346.889696
1.563630 1.274815 0.903420 26.000000 7 346.889698
1.573273 1.282219 0.686132 24.000000 5 346.889701
1.588074 1.293821 0.480375 27.000000 3 346.889703
1.602341 1.304979 0.278108 14.000000 1 346.889706
2.259977 1.837298 2.674352 13.000000 14 346.889714
1.322416 1.075088 1.324511 29.000000 12 346.889716
2.299903 1.869087 1.826450 13.000000 10 346.889719
1.589332 1.291618 1.034198 22.000000 8 346.889721
1.576542 1.280767 0.795696 26.000000 6 346.889724
1.584832 1.287043 0.583126 28.000000 4 346.889726
1.610855 1.307710 0.381233 23.000000 2 346.889729
1.605592 1.303437 0.177099 12.000000 0 346.889731
0.020397 0.013193 1.214227 4.000000 31 346.889742
0.891595 0.684885 7.147531 13.000000 28 346.889745
0.965285 0.739860 5.870638 19.000000 27 346.889747
1.092302 0.872108 4.512886 92.000000 25 346.889750
1.385519 1.118798 4.254952 7.000000 23 346.889752
1.284352 1.037472 3.091726 11.000000 21 346.889755
1.486884 1.201066 2.879877 19.000000 19 346.889757
2.016566 1.628921 3.179174 10.000000 17 346.889760
0.063461 0.045039 1.182441 3.000000 30 346.889768
0.918004 0.722377 4.531821 94.000000 26 346.889773
1.273951 1.025045 4.500778 9.000000 24 346.889775
1.270066 1.022643 3.433889 9.000000 22 346.889778
1.343870 1.082448 2.892723 21.000000 20 346.889781
1.816491 1.463121 3.162194 14.000000 18 346.889783
2.239815 1.804088 3.196109 11.000000 16 346.889786
2.253585 1.824927 2.929448 12.000000 15 346.889743
1.294180 1.048013 1.424688 66.000000 13 346.889746
1.304962 1.056367 1.185374 71.000000 11 346.889749
2.328859 1.885203 1.654302 14.000000 9 346.889751
1.568292 1.269075 0.903420 26.000000 7 346.889754
1.581692 1.279462 0.687541 24.000000 5 346.889756
1.596400 1.291359 0.481307 27.000000 3 346.889759
1.610759 1.302509 0.278555 14.000000 1 346.889761
2.269282 1.831744 2.677677 13.000000 14 346.889769
1.329306 1.073004 1.327454 29.000000 12 346.889772
2.309769 1.863755 1.828982 14.000000 10 346.889774
1.611491 1.300313 1.044688 17.000000 8 346.889777
1.581003 1.275256 0.795696 26.000000 6 346.889779
1.593099 1.284554 0.584299 28.000000 4 346.889782
1.619266 1.305187 0.381923 23.000000 2 346.889784
1.614248 1.300678 0.177301 13.000000 0 346.889787
0.020443 0.013122 1.214227 4.000000 31 346.889798
0.895216 0.682710 7.157409 13.000000 28 346.889800
0.969483 0.737719 5.880429 19.000000 27 346.889803
1.095339 0.868290 4.512886 92.000000 25 346.889805
1.390940 1.115177 4.259555 8.000000 23 346.889808
1.289834 1.034481 3.096114 11.000000 21 346.889810
1.488872 1.194108 2.875745 19.000000 19 346.889813
2.022239 1.621872 3.179174 10.000000 17 346.889816
0.064574 0.045471 1.202407 3.000000 30 346.889823
0.919528 0.718394 4.526982 94.000000 26 346.889828
1.277522 1.020592 4.500778 9.000000 24 346.889831
1.277030 1.020923 3.442891 9.000000 22 346.889834
1.345603 1.076122 2.888457 21.000000 20 346.889836
1.823941 1.458654 3.166184 14.000000 18 346.889839
2.246099 1.796258 3.196109 11.000000 16 346.889841
2.262721 1.819284 2.932952 12.000000 15 346.889799
1.300864 1.045928 1.427825 66.000000 13 346.889801
1.311901 1.054425 1.188115 71.000000 11 346.889804
2.338879 1.879838 1.656620 15.000000 9 346.889807
1.576327 1.266497 0.905293 26.000000 7 346.889809
1.589889 1.276937 0.688951 24.000000 5 346.889812
1.600898 1.285779 0.481307 27.000000 3 346.889814
1.619179 1.299996 0.279001 16.000000 1 346.889817
2.281491 1.828482 2.684327 13.000000 14 346.889825
1.336197 1.070885 1.330397 30.000000 12 346.889827
2.319625 1.858377 1.831514 14.000000 10 346.889830
1.623104 1.300355 1.048884 12.000000 8 346.889832
1.589131 1.272682 0.797339 26.000000 6 346.889835
1.601368 1.282023 0.585471 27.000000 4 346.889837
1.627678 1.302621 0.382613 23.000000 2 346.889840
1.618779 1.295035 0.177301 14.000000 0 346.889843
0.020488 0.013051 1.214227 5.000000 31 346.889853
0.898833 0.680519 7.167288 11.000000 28 346.889856
0.971239 0.733717 5.875534 19.000000 27 346.889858
1.098363 0.864461 4.512886 92.000000 25 346.889861
1.397882 1.112748 4.268760 7.000000 23 346.889863
1.295312 1.031465 3.100503 11.000000 21 346.889866
1.493031 1.188904 2.875745 19.000000 19 346.889869
2.027889 1.614803 3.179174 10.000000 17 346.889871
0.063774 0.044595 1.182441 4.000000 30 346.889879
0.111249 0.080836 1.237695 4.000000 29 346.889881
0.922030 0.715180 4.526982 95.000000 26 346.889884
1.281076 1.016126 4.500778 9.000000 24 346.889887
1.283997 1.019167 3.451892 9.000000 22 346.889889
1.349352 1.071418 2.888457 21.000000 20 346.889892
1.829022 1.452278 3.166184 14.000000 18 346.889894
2.252355 1.788407 3.196109 11.000000 16 346.889897
2.274632 1.815824 2.939961 12.000000 15 346.889854
1.307549 1.043810 1.430963 66.000000 13 346.889857
1.318842 1.052447 1.190856 71.000000 11 346.889860
2.348889 1.874426 1.658938 15.000000 9 346.889862
1.584362 1.263878 0.907166 27.000000 7 346.889865
1.598087 1.274370 0.690360 24.000000 5 346.889867
1.609217 1.283245 0.482240 27.000000 3 346.889870
1.627601 1.297441 0.279447 15.000000 1 346.889872
2.290781 1.822832 2.687652 13.000000 14 346.889880
1.339927 1.066215 1.330397 30.000000 12 346.889883
2.329472 1.852952 1.834047 14.000000 10 346.889885
1.597260 1.270066 0.798982 27.000000 6 346.889890
1.609638 1.279450 0.586643 27.000000 4 346.889893
1.636093 1.300012 0.383303 23.000000 2 346.889895
1.627201 1.292484 0.177502 16.000000 0 346.889898
0.020534 0.012979 1.214227 4.000000 31 346.889909
0.902446 0.678310 7.177166 10.000000 28 346.889911
0.971350 0.728490 5.860848 16.000000 27 346.889914
1.100197 0.859702 4.508114 92.000000 25 346.889916
1.404823 1.110285 4.277965 7.000000 23 346.889919
1.302663 1.029909 3.109280 11.000000 21 346.889921
1.494964 1.181940 2.871612 19.000000 19 346.889924
2.033513 1.607714 3.179174 10.000000 17 346.889927
0.063929 0.044372 1.182441 4.000000 30 346.889934
0.110661 0.079827 1.227752 8.000000 29 346.889937
0.924521 0.711957 4.526982 94.000000 26 346.889939
1.284615 1.011648 4.500778 9.000000 24 346.889942
1.289258 1.016027 3.456393 9.000000 22 346.889945
1.353083 1.066701 2.888457 21.000000 20 346.889947
1.836447 1.447751 3.170173 15.000000 18 346.889950
2.258584 1.780534 3.196109 10.000000 16 346.889952
2.283751 1.810088 2.943466 12.000000 15 346.889910
1.314236 1.041657 1.434101 66.000000 13 346.889913
1.325785 1.050434 1.193598 69.000000 11 346.889915
2.358890 1.868967 1.661256 14.000000 9 346.889918
1.592398 1.261218 0.909039 28.000000 7 346.889920
1.606287 1.271762 0.691769 23.000000 5 346.889923
1.617538 1.280670 0.483173 26.000000 3 346.889925
1.636025 1.294842 0.279893 15.000000 1 346.889928
2.302991 1.819455 2.694301 13.000000 14 346.889936
1.346812 1.064037 1.333341 30.000000 12 346.889938
2.339309 1.847482 1.836579 14.000000 10 346.889941
1.605390 1.267409 0.800624 27.000000 6 346.889946
1.617910 1.276835 0.587816 27.000000 4 346.889948
1.644508 1.297360 0.383993 22.000000 2 346.889951
1.631703 1.286796 0.177502 16.000000 0 346.889954
0.020539 0.012890 1.209228 5.000000 31 346.889964
0.906054 0.676085 7.187045 7.000000 28 346.889967
0.973887 0.725095 5.860848 14.000000 27 346.889969
1.103191 0.855856 4.508114 92.000000 25 346.889972
1.411764 1.107786 4.287170 7.000000 23 346.889974
1.308135 1.026835 3.113669 12.000000 21 346.889977
1.496868 1.174977 2.867479 20.000000 19 346.889980
2.039113 1.600606 3.179174 10.000000 17 346.889982
0.063843 0.043988 1.177449 4.000000 30 346.889990
0.112246 0.080366 1.242666 10.000000 29 346.889992
0.927001 0.708725 4.526982 94.000000 26 346.889995
1.288139 1.007158 4.500778 10.000000 24 346.889998
1.296227 1.014204 3.465394 9.000000 22 346.890000
1.354745 1.060364 2.884191 22.000000 20 346.890003
1.843863 1.443190 3.174163 15.000000 18 346.890005
2.264786 1.772639 3.196109 10.000000 16 346.890008
2.292858 1.804311 2.946970 12.000000 15 346.889965
1.317864 1.037063 1.434101 64.000000 13 346.889968
1.329443 1.045800 1.193598 69.000000 11 346.889971
2.368882 1.863460 1.663574 14.000000 9 346.889973
1.600435 1.258517 0.910912 28.000000 7 346.889976
1.610716 1.266147 0.691769 23.000000 5 346.889978
1.625860 1.278051 0.484105 26.000000 3 346.889981
1.644450 1.292200 0.280340 16.000000 1 346.889983
2.312266 1.813710 2.697626 13.000000 14 346.889991
1.353699 1.061823 1.336284 30.000000 12 346.889994
2.352529 1.844625 1.841644 14.000000 10 346.889996
2.397366 1.879779 1.495769 16.000000 8 346.889999
1.613521 1.264711 0.802267 26.000000 6 346.890001
1.626183 1.274177 0.588988 27.000000 4 346.890004
1.652926 1.294666 0.384682 21.000000 2 346.890007
1.640118 1.284172 0.177704 16.000000 0 346.890009
0.020584 0.012819 1.209228 5.000000 31 346.890020
0.909657 0.673843 7.196923 6.000000 28 346.890022
1.106172 0.852000 4.508114 94.000000 25 346.890027
1.420245 1.106453 4.300977 7.000000 23 346.890030
1.315490 1.025208 3.122446 12.000000 21 346.890033
1.500960 1.169744 2.867479 20.000000 19 346.890035
2.044687 1.593479 3.179174 10.000000 17 346.890038
0.063996 0.043765 1.177449 4.000000 30 346.890045
0.112526 0.079974 1.242666 10.000000 29 346.890048
0.928467 0.704725 4.522143 94.000000 26 346.890051
1.291647 1.002656 4.500778 10.000000 24 346.890053
1.301479 1.011009 3.469896 9.000000 22 346.890056
1.358438 1.055629 2.884191 22.000000 20 346.890058
1.851269 1.438594 3.178152 16.000000 18 346.890061
2.270960 1.764723 3.196109 10.000000 16 346.890063
2.304763 1.800688 2.953980 12.000000 15 346.890021
1.336814 1.044440 1.449790 67.000000 13 346.890024
1.336381 1.043727 1.196339 69.000000 11 346.890026
2.382355 1.860634 1.668210 14.000000 9 346.890029
1.608473 1.255776 0.912785 28.000000 7 346.890031
1.618908 1.263468 0.693178 24.000000 5 346.890034
1.634184 1.275391 0.485038 26.000000 3 346.890036
1.652877 1.289515 0.280786 17.000000 1 346.890039
2.324476 1.810217 2.704276 13.000000 14 346.890047
1.360586 1.059575 1.339227 31.000000 12 346.890049
2.362356 1.839050 1.844177 14.000000 10 346.890052
2.407495 1.874187 1.497867 16.000000 8 346.890054
1.621653 1.261971 0.803910 26.000000 6 346.890057
1.634457 1.271478 0.590160 27.000000 4 346.890059
1.661344 1.291928 0.385372 21.000000 2 346.890062
1.644591 1.278440 0.177704 16.000000 0 346.890065
0.020588 0.012730 1.204228 5.000000 31 346.890075
0.913256 0.671584 7.206802 6.000000 28 346.890078
1.107953 0.847227 4.503342 93.000000 25 346.890083
1.428735 1.105075 4.314785 7.000000 23 346.890085
1.320956 1.022075 3.126835 12.000000 21 346.890088
1.502808 1.162776 2.863346 19.000000 19 346.890090
2.050237 1.586332 3.179174 10.000000 17 346.890093
0.064148 0.043541 1.177449 4.000000 30 346.890101
0.112805 0.079580 1.242666 15.000000 29 346.890103
0.930921 0.701480 4.522143 94.000000 26 346.890106
1.293772 0.997087 4.496085 10.000000 24 346.890108
1.308449 1.009120 3.478897 9.000000 22 346.890111
1.360049 1.049287 2.879925 22.000000 20 346.890113
1.858665 1.433964 3.182142 16.000000 18 346.890116
2.279790 1.758856 3.199784 10.000000 16 346.890119
2.316670 1.797003 2.960989 12.000000 15 346.890076
1.371211 1.063627 1.481168 71.000000 13 346.890079
1.346625 1.044180 1.201822 69.000000 11 346.890081
2.392336 1.855021 1.670528 14.000000 9 346.890084
1.616511 1.252994 0.914658 26.000000 7 346.890087
1.627101 1.260748 0.694587 24.000000 5 346.890089
1.638626 1.269678 0.485038 26.000000 3 346.890092
1.661306 1.286788 0.281232 19.000000 1 346.890094
2.333735 1.804376 2.707601 13.000000 14 346.890102
1.364276 1.054819 1.339227 31.000000 12 346.890105
2.372172 1.833429 1.846709 14.000000 10 346.890107
2.414022 1.865771 1.497867 16.000000 8 346.890110
1.629785 1.259190 0.805553 26.000000 6 346.890112
1.642733 1.268736 0.591333 27.000000 4 346.890115
1.669764 1.289147 0.386062 22.000000 2 346.890117
1.649044 1.272691 0.177704 16.000000 0 346.890120
0.020632 0.012658 1.204228 5.000000 31 346.890131
0.916850 0.669307 7.216681 7.000000 28 346.890133
0.797025 0.580635 4.764317 4.000000 27 346.890136
1.110904 0.843354 4.503342 93.000000 25 346.890138
1.437232 1.103651 4.328592 7.000000 23 346.890141
1.326416 1.018918 3.131223 12.000000 21 346.890143
1.504627 1.155809 2.859213 20.000000 19 346.890146
2.055762 1.579165 3.179174 10.000000 17 346.890148
0.064542 0.043475 1.182441 4.000000 30 346.890156
0.113082 0.079186 1.242666 16.000000 29 346.890159
0.933364 0.698226 4.522143 94.000000 26 346.890161
1.295874 0.991517 4.491392 9.000000 24 346.890164
1.313692 1.005870 3.483398 9.000000 22 346.890166
1.361634 1.042948 2.875659 23.000000 20 346.890169
1.868445 1.431132 3.190121 17.000000 18 346.890172
2.285916 1.750887 3.199784 10.000000 16 346.890174
2.325754 1.791081 2.964493 12.000000 15 346.890132
1.359494 1.046958 1.465479 16.000000 13 346.890134
1.356889 1.044574 1.207305 61.000000 11 346.890137
2.405818 1.852064 1.675164 14.000000 9 346.890139
1.620875 1.247344 0.914658 27.000000 7 346.890142
1.635294 1.257986 0.695997 24.000000 5 346.890145
1.646942 1.266946 0.485970 25.000000 3 346.890147
1.669735 1.284016 0.281678 20.000000 1 346.890150
2.345943 1.800766 2.714250 12.000000 14 346.890157
1.371156 1.052512 1.342170 31.000000 12 346.890160
2.388819 1.833011 1.854306 14.000000 10 346.890163
2.431322 1.865622 1.504161 16.000000 8 346.890165
1.637918 1.256368 0.807195 26.000000 6 346.890168
1.651008 1.265951 0.592505 27.000000 4 346.890170
1.674254 1.283311 0.386062 22.000000 2 346.890173
1.653476 1.266927 0.177704 14.000000 0 346.890175
0.020676 0.012586 1.204228 5.000000 31 346.890186
0.920440 0.667014 7.226559 8.000000 28 346.890189
0.795745 0.575464 4.744736 9.000000 27 346.890191
1.113841 0.839471 4.503342 93.000000 25 346.890194
1.447291 1.103365 4.347003 9.000000 23 346.890196
1.333774 1.017187 3.140001 12.000000 21 346.890199
1.508652 1.150550 2.859213 20.000000 19 346.890201
2.061262 1.571980 3.179174 10.000000 17 346.890204
0.064937 0.043407 1.187432 4.000000 30 346.890212
0.113797 0.079093 1.247637 39.000000 29 346.890214
0.935796 0.694964 4.522143 96.000000 26 346.890217
1.297953 0.985943 4.486700 10.000000 24 346.890219
1.318929 1.002596 3.487899 9.000000 22 346.890222
1.363190 1.036610 2.871393 23.000000 20 346.890225
1.875829 1.426426 3.194110 17.000000 18 346.890227
2.292013 1.742897 3.199784 10.000000 16 346.890230
2.337658 1.787284 2.971503 12.000000 15 346.890187
2.355847 1.801188 2.472705 12.000000 13 346.890190
1.367171 1.044910 1.212788 40.000000 11 346.890192
2.415788 1.846345 1.677482 14.000000 9 346.890195
1.628902 1.244492 0.916531 26.000000 7 346.890198
1.643488 1.255182 0.697406 23.000000 5 346.890200
1.655258 1.264171 0.486903 25.000000 3 346.890203
1.674207 1.278180 0.281678 21.000000 1 346.890205
2.355185 1.794830 2.717575 12.000000 14 346.890213
1.374822 1.047719 1.342170 31.000000 12 346.890216
2.398632 1.827274 1.856839 14.000000 10 346.890218
2.437819 1.857124 1.504161 16.000000 8 346.890221
1.642293 1.250642 0.807195 26.000000 6 346.890223
1.659285 1.263124 0.593677 27.000000 4 346.890226
1.682664 1.280458 0.386752 22.000000 2 346.890228
1.661865 1.264172 0.177905 14.000000 0 346.890231
0.020761 0.012530 1.209228 5.000000 31 346.890242
0.923393 0.664251 7.231498 8.000000 28 346.890244
0.798576 0.573276 4.749631 13.000000 27 346.890247
1.116764 0.835578 4.503342 94.000000 25 346.890249
1.455807 1.101843 4.360810 9.000000 23 346.890252
1.339227 1.013971 3.144389 12.000000 21 346.890254
1.512659 1.145277 2.859213 20.000000 19 346.890257
2.066736 1.564775 3.179174 10.000000 17 346.890259
0.064844 0.043024 1.182441 4.000000 30 346.890267
0.114073 0.078696 1.247637 62.000000 29 346.890270
0.938216 0.691693 4.522143 96.000000 26 346.890272
1.301387 0.981407 4.486700 9.000000 24 346.890275
1.325898 1.000610 3.496901 9.000000 22 346.890277
1.366800 1.031845 2.871393 25.000000 20 346.890280
1.888013 1.425317 3.206079 17.000000 18 346.890283
2.298083 1.734886 3.199784 10.000000 16 346.890285
2.349564 1.783426 2.978511 11.000000 15 346.890243
2.365221 1.795307 2.475843 13.000000 13 346.890245
1.377472 1.045186 1.218271 30.000000 11 346.890248
2.429277 1.843257 1.682118 14.000000 9 346.890251
1.636930 1.241601 0.918404 26.000000 7 346.890253
1.651682 1.252335 0.698815 23.000000 5 346.890256
1.667489 1.264321 0.488768 25.000000 3 346.890258
1.678658 1.272328 0.281678 21.000000 1 346.890261
2.367392 1.791104 2.724225 12.000000 14 346.890269
1.381694 1.045353 1.345113 31.000000 12 346.890271
2.387803 1.805887 1.844177 13.000000 10 346.890274
2.451527 1.854078 1.508357 16.000000 8 346.890276
1.650416 1.247750 0.808838 26.000000 6 346.890279
1.667562 1.260255 0.594850 26.000000 4 346.890281
1.687123 1.274576 0.386752 22.000000 2 346.890284
1.666268 1.258364 0.177905 14.000000 0 346.890286
0.020804 0.012458 1.209228 5.000000 31 346.890297
0.926971 0.661926 7.241376 8.000000 28 346.890300
0.801402 0.571075 4.754526 19.000000 27 346.890302
1.119674 0.831675 4.503342 94.000000 25 346.890305
1.467454 1.102622 4.383823 9.000000 23 346.890307
1.344673 1.010730 3.148778 11.000000 21 346.890310
1.514398 1.138299 2.855080 20.000000 19 346.890312
2.072186 1.557551 3.179174 10.000000 17 346.890315
0.064994 0.042797 1.182441 4.000000 30 346.890323
0.114347 0.078297 1.247637 63.000000 29 346.890325
0.940625 0.688414 4.522143 95.000000 26 346.890328
1.303423 0.975824 4.482007 10.000000 24 346.890330
1.331125 0.997281 3.501401 10.000000 22 346.890333
1.368307 1.025504 2.867127 25.000000 20 346.890336
1.895388 1.420526 3.210068 16.000000 18 346.890338
2.304125 1.726854 3.199784 10.000000 16 346.890341
2.358623 1.777360 2.982016 11.000000 15 346.890298
2.387018 1.798754 2.491532 13.000000 13 346.890301
1.387792 1.045403 1.223754 25.000000 11 346.890303
2.439235 1.837431 1.684436 14.000000 9 346.890306
1.644957 1.238668 0.920277 25.000000 7 346.890309
1.659876 1.249448 0.700224 23.000000 5 346.890311
1.675817 1.261447 0.489701 25.000000 3 346.890314
1.687069 1.269455 0.282124 20.000000 1 346.890316
2.376616 1.785072 2.727550 12.000000 14 346.890324
1.385335 1.040523 1.345113 31.000000 12 346.890327
2.461613 1.848235 1.510455 16.000000 8 346.890332
1.658538 1.244816 0.810481 26.000000 6 346.890334
1.675839 1.257344 0.596022 26.000000 4 346.890337
1.691562 1.268679 0.386752 25.000000 2 346.890339
1.674647 1.255537 0.178107 15.000000 0 346.890342
0.020888 0.012401 1.214227 5.000000 31 346.890353
0.930544 0.659585 7.251255 8.000000 28 346.890355
0.799233 0.565336 4.730050 20.000000 27 346.890358
1.121368 0.826875 4.498570 94.000000 25 346.890360
1.479123 1.103334 4.406836 10.000000 23 346.890363
1.350113 1.007463 3.153167 11.000000 21 346.890365
1.518362 1.133005 2.855080 20.000000 19 346.890368
2.077610 1.550309 3.179174 10.000000 17 346.890371
0.064899 0.042415 1.177449 4.000000 30 346.890378
0.114176 0.077599 1.242666 69.000000 29 346.890381
0.943022 0.685126 4.522143 94.000000 26 346.890383
1.306821 0.971268 4.482007 9.000000 24 346.890386
1.338093 0.995228 3.510403 11.000000 22 346.890389
1.373970 1.022278 2.871393 23.000000 20 346.890391
1.897917 1.412102 3.206079 16.000000 18 346.890394
2.310139 1.718800 3.199784 10.000000 16 346.890396
2.370524 1.773388 2.989025 11.000000 15 346.890354
2.396399 1.792742 2.494670 13.000000 13 346.890356
1.398130 1.045561 1.229237 23.000000 11 346.890359
2.452729 1.834212 1.689072 14.000000 9 346.890362
1.652984 1.235694 0.922151 25.000000 7 346.890364
1.668070 1.246517 0.701633 23.000000 5 346.890367
1.684145 1.258530 0.490634 25.000000 3 346.890369
1.691490 1.263559 0.282124 20.000000 1 346.890372
2.388820 1.781230 2.734200 13.000000 14 346.890380
1.388958 1.035681 1.345113 32.000000 12 346.890382
1.401380 1.044563 1.112305 6.000000 10 346.890385
2.471689 1.842343 1.512553 16.000000 8 346.890387
1.666660 1.241841 0.812123 26.000000 6 346.890390
1.680217 1.251487 0.596022 26.000000 4 346.890392
1.695980 1.262767 0.386752 24.000000 2 346.890395
1.679019 1.249683 0.178107 14.000000 0 346.890397
0.020931 0.012328 1.214227 5.000000 31 346.890408
0.934112 0.657226 7.261133 9.000000 28 346.890411
0.799535 0.561374 4.720260 20.000000 27 346.890413
1.124248 0.822956 4.498570 93.000000 25 346.890416
1.493956 1.106302 4.439053 10.000000 23 346.890418
1.357472 1.005596 3.161944 12.000000 21 346.890421
1.522308 1.127698 2.855080 20.000000 19 346.890423
2.083009 1.543047 3.179174 10.000000 17 346.890426
0.065046 0.042188 1.177449 4.000000 30 346.890434
0.114446 0.077200 1.242666 74.000000 29 346.890436
0.944387 0.681095 4.517303 94.000000 26 346.890439
1.310204 0.966700 4.482007 9.000000 24 346.890441
1.343311 0.991845 3.514904 11.000000 22 346.890444
1.377530 1.017476 2.871393 20.000000 20 346.890447
1.885864 1.392933 3.178152 16.000000 18 346.890449
2.316125 1.710726 3.199784 10.000000 16 346.890452
2.379563 1.767229 2.992530 11.000000 15 346.890409
2.405768 1.786687 2.497808 13.000000 13 346.890412
1.405129 1.043167 1.231978 23.000000 11 346.890415
2.462674 1.828280 1.691390 14.000000 9 346.890417
1.661010 1.232679 0.924024 25.000000 7 346.890420
1.676264 1.243545 0.703042 23.000000 5 346.890422
1.688528 1.252643 0.490634 25.000000 3 346.890425
1.695890 1.257646 0.282124 17.000000 1 346.890427
2.398024 1.775102 2.737525 13.000000 14 346.890435
1.389316 1.028422 1.342170 34.000000 12 346.890438
1.422346 1.052487 1.124967 30.000000 10 346.890440
2.481753 1.836404 1.514652 16.000000 8 346.890443
1.674782 1.238824 0.813766 26.000000 6 346.890445
1.688484 1.248504 0.597194 26.000000 4 346.890448
1.700378 1.256839 0.386752 24.000000 2 346.890450
1.687390 1.246784 0.178308 15.000000 0 346.890453
0.021015 0.012270 1.219227 5.000000 31 346.890464
0.937675 0.654851 7.271012 9.000000 28 346.890466
0.798983 0.556834 4.705575 19.000000 27 346.890469
1.125905 0.818148 4.493799 93.000000 25 346.890471
1.496235 1.099923 4.434450 10.000000 23 346.890474
1.362904 1.002271 3.166333 12.000000 21 346.890476
1.523968 1.120711 2.850947 20.000000 19 346.890479
2.088382 1.535766 3.179174 10.000000 17 346.890482
0.065193 0.041961 1.177449 4.000000 30 346.890489
0.114715 0.076800 1.242666 75.000000 29 346.890492
0.946759 0.677794 4.517303 95.000000 26 346.890494
1.314962 0.963141 4.486700 10.000000 24 346.890497
1.348521 0.988437 3.519405 11.000000 22 346.890500
1.383177 1.014203 2.875659 17.000000 20 346.890502
1.854256 1.359610 3.118310 14.000000 18 346.890505
2.322082 1.702631 3.199784 10.000000 16 346.890507
2.391458 1.763144 2.999539 11.000000 15 346.890465
2.418257 1.782899 2.504083 13.000000 13 346.890467
1.412127 1.040736 1.234720 23.000000 11 346.890470
2.472608 1.822301 1.693708 14.000000 9 346.890473
1.669036 1.229623 0.925897 25.000000 7 346.890475
1.684458 1.240532 0.704452 23.000000 5 346.890478
1.692890 1.246742 0.490634 26.000000 3 346.890480
1.700270 1.251719 0.282124 17.000000 1 346.890483
2.410224 1.771143 2.744174 13.000000 14 346.890491
1.392898 1.023566 1.342170 36.000000 12 346.890493
1.408638 1.034754 1.112305 40.000000 10 346.890496
2.491806 1.830416 1.516750 16.000000 8 346.890498
1.682902 1.235765 0.815409 26.000000 6 346.890501
1.692832 1.242602 0.597194 26.000000 4 346.890503
1.704754 1.250896 0.386752 24.000000 2 346.890506
1.691731 1.240886 0.178308 15.000000 0 346.890509
0.021058 0.012197 1.219227 5.000000 31 346.890519
0.941233 0.652459 7.280890 9.000000 28 346.890522
0.798408 0.552305 4.690888 19.000000 27 346.890524
1.128754 0.814213 4.493799 92.000000 25 346.890527
1.498487 1.093542 4.429848 10.000000 23 346.890529
1.368329 0.998920 3.170721 12.000000 21 346.890532
1.527871 1.115384 2.850947 20.000000 19 346.890535
2.093731 1.528467 3.179174 10.000000 17 346.890537
0.065339 0.041733 1.177449 4.000000 30 346.890545
0.114983 0.076400 1.242666 73.000000 29 346.890547
0.949119 0.674485 4.517303 95.000000 26 346.890550
1.318316 0.958545 4.486700 9.000000 24 346.890553
1.353724 0.985005 3.523906 10.000000 22 346.890555
1.386709 1.009369 2.875659 15.000000 20 346.890558
1.790761 1.303466 3.006604 14.000000 18 346.890560
2.328011 1.694515 3.199784 10.000000 16 346.890563
2.400476 1.756892 3.003043 11.000000 15 346.890520
2.427607 1.776746 2.507221 13.000000 13 346.890523
1.419127 1.038270 1.237461 23.000000 11 346.890526
2.482529 1.816275 1.696026 14.000000 9 346.890528
1.677059 1.226526 0.927770 24.000000 7 346.890531
1.692650 1.237475 0.705861 23.000000 5 346.890533
1.701197 1.243724 0.491566 28.000000 3 346.890536
1.708650 1.248715 0.282571 18.000000 1 346.890538
2.422426 1.767121 2.750824 13.000000 14 346.890546
1.393197 1.016315 1.339227 39.000000 12 346.890549
1.405275 1.024750 1.107241 61.000000 10 346.890551
2.501847 1.824381 1.518848 16.000000 8 346.890554
1.691022 1.232665 0.817051 26.000000 6 346.890556
1.701087 1.239548 0.598366 26.000000 4 346.890559
1.709111 1.244938 0.386752 26.000000 2 346.890561
1.700091 1.237914 0.178510 15.000000 0 346.890564
0.021100 0.012123 1.219227 5.000000 31 346.890575
0.944785 0.650050 7.290769 10.000000 28 346.890577
0.796973 0.547210 4.671308 21.000000 27 346.890580
1.130375 0.809399 4.489028 94.000000 25 346.890582
1.502295 1.088305 4.429848 10.000000 23 346.890585
1.373747 0.995543 3.175110 12.000000 21 346.890587
1.529476 1.108393 2.846814 21.000000 19 346.890590
2.096457 1.519268 3.175337 10.000000 17 346.890593
0.065484 0.041505 1.177449 4.000000 30 346.890600
