# .PCD v.7 - Point Cloud Data file format
VERSION .7
FIELDS x y z intensity ring timestamp
SIZE 4 4 4 4 2 8
TYPE F F F F U D
COUNT 1 1 1 1 1 1
WIDTH 907
HEIGHT 1
VIEWPOINT 0 0 0 1 0 0 0
POINTS 907
DATA ascii
-0.179403 -1.178056 3.294737 6.000000 24 347.827171
-0.212880 -1.401106 2.992807 26.000000 22 347.827174
-0.205696 -1.355384 2.312556 36.000000 20 347.827176
-0.199382 -1.313770 1.833691 38.000000 18 347.827179
-0.195001 -1.284886 1.487157 39.000000 16 347.827181
-0.191487 -1.284385 1.355907 40.000000 15 347.827139
-0.188162 -1.262067 1.110910 39.000000 13 347.827141
-0.186135 -1.246981 0.911227 42.000000 11 347.827144
-0.185309 -1.241434 0.743317 42.000000 9 347.827147
-0.183076 -1.225008 0.588751 42.000000 7 347.827149
-0.181076 -1.210180 0.449387 35.000000 5 347.827152
-0.179547 -1.199961 0.321829 14.000000 3 347.827154
-0.177042 -1.181814 0.200022 14.000000 1 347.827157
-0.191392 -1.270070 1.224718 44.000000 14 347.827165
-0.187708 -1.245604 1.000763 42.000000 12 347.827167
-0.186789 -1.238045 0.821076 45.000000 10 347.827170
-0.187044 -1.239715 0.667038 45.000000 8 347.827172
-0.184886 -1.223961 0.519725 40.000000 6 347.827175
-0.181002 -1.196834 0.382660 27.000000 4 347.827177
-0.180134 -1.189695 0.259826 9.000000 2 347.827180
-0.183413 -1.209924 0.143040 28.000000 0 347.827182
-0.015214 -0.043689 3.749131 97.000000 31 347.827193
-0.101681 -0.569037 3.675232 98.000000 28 347.827196
-0.134046 -0.745036 3.662891 86.000000 27 347.827198
-0.176403 -1.104456 3.620573 95.000000 25 347.827201
-0.210199 -1.364237 3.311435 7.000000 23 347.827203
-0.211056 -1.371353 2.608973 30.000000 21 347.827206
-0.204281 -1.327322 2.045022 37.000000 19 347.827208
-0.200722 -1.304179 1.655906 39.000000 17 347.827211
-0.050196 -0.219833 3.728161 98.000000 30 347.827219
-0.080266 -0.395343 3.713457 98.000000 29 347.827221
-0.154255 -0.923917 3.641407 94.000000 26 347.827224
-0.192019 -1.231985 3.444905 10.000000 24 347.827226
-0.217435 -1.398203 2.988306 28.000000 22 347.827229
-0.210025 -1.352081 2.308290 36.000000 20 347.827232
-0.203504 -1.310087 1.829702 38.000000 18 347.827234
-0.199485 -1.284198 1.487157 39.000000 16 347.827237
-0.195430 -1.280183 1.352402 40.000000 15 347.827194
-0.192566 -1.261402 1.110910 39.000000 13 347.827197
-0.189855 -1.242190 0.908485 42.000000 11 347.827200
-0.189642 -1.240780 0.743317 42.000000 9 347.827202
-0.187351 -1.224361 0.588751 42.000000 7 347.827205
-0.185299 -1.209540 0.449387 35.000000 5 347.827207
-0.182991 -1.194471 0.320897 14.000000 3 347.827210
-0.180412 -1.176267 0.199576 14.000000 1 347.827212
-0.195255 -1.265703 1.221394 44.000000 14 347.827220
-0.192054 -1.244941 1.000763 42.000000 12 347.827223
-0.191110 -1.237386 0.821076 45.000000 10 347.827225
-0.191370 -1.239055 0.667038 47.000000 8 347.827228
-0.189157 -1.223308 0.519725 40.000000 6 347.827230
-0.184435 -1.191392 0.381488 27.000000 4 347.827233
-0.184286 -1.189059 0.259826 9.000000 2 347.827235
-0.187635 -1.209276 0.143040 28.000000 0 347.827238
-0.015366 -0.043636 3.749131 97.000000 31 347.827249
-0.103667 -0.568678 3.675232 98.000000 28 347.827251
-0.136646 -0.744564 3.662891 87.000000 27 347.827254
-0.180498 -1.105307 3.625345 95.000000 25 347.827256
-0.214960 -1.363495 3.311435 8.000000 23 347.827259
-0.215469 -1.368241 2.604584 31.000000 21 347.827261
-0.208913 -1.326601 2.045022 37.000000 19 347.827264
-0.205273 -1.303470 1.655906 39.000000 17 347.827267
-0.050963 -0.219656 3.728161 98.000000 30 347.827274
-0.081537 -0.394538 3.708486 97.000000 29 347.827277
-0.157479 -0.923373 3.641407 95.000000 26 347.827279
-0.204471 -1.282432 3.585688 10.000000 24 347.827282
-0.221972 -1.395285 2.983805 28.000000 22 347.827285
-0.214744 -1.351340 2.308290 35.000000 20 347.827287
-0.208076 -1.309369 1.829702 38.000000 18 347.827290
-0.203435 -1.280146 1.483482 39.000000 16 347.827292
-0.199898 -1.279493 1.352402 39.000000 15 347.827250
-0.196367 -1.256876 1.107772 40.000000 13 347.827252
-0.194190 -1.241520 0.908485 42.000000 11 347.827255
-0.193287 -1.235733 0.740999 42.000000 9 347.827258
-0.191624 -1.223700 0.588751 42.000000 7 347.827260
-0.189520 -1.208886 0.449387 35.000000 5 347.827263
-0.187159 -1.193825 0.320897 14.000000 3 347.827265
-0.184517 -1.175630 0.199576 14.000000 1 347.827268
-0.199672 -1.265014 1.221394 44.000000 14 347.827276
-0.196399 -1.244263 1.000763 42.000000 12 347.827278
-0.194755 -1.232452 0.818544 44.000000 10 347.827281
-0.194986 -1.233896 0.664940 47.000000 8 347.827283
-0.193426 -1.222640 0.519725 40.000000 6 347.827286
-0.188592 -1.190741 0.381488 27.000000 4 347.827288
-0.187660 -1.183517 0.259136 9.000000 2 347.827291
-0.191856 -1.208614 0.143040 28.000000 0 347.827294
-0.015518 -0.043582 3.749131 97.000000 31 347.827304
-0.105651 -0.568313 3.675232 98.000000 28 347.827307
-0.139244 -0.744082 3.662891 90.000000 27 347.827309
-0.184355 -1.104670 3.625345 91.000000 25 347.827312
-0.220340 -1.366593 3.320639 9.000000 23 347.827314
-0.220243 -1.367481 2.604584 30.000000 21 347.827317
-0.213095 -1.323085 2.040889 37.000000 19 347.827320
-0.209822 -1.302746 1.655906 39.000000 17 347.827322
-0.051729 -0.219477 3.728161 98.000000 30 347.827330
-0.082913 -0.394251 3.708486 97.000000 29 347.827332
-0.160701 -0.922818 3.641407 95.000000 26 347.827335
-0.208946 -1.281710 3.585688 10.000000 24 347.827338
-0.226841 -1.394501 2.983805 28.000000 22 347.827340
-0.219041 -1.348008 2.304024 35.000000 20 347.827343
-0.212162 -1.305660 1.825712 38.000000 18 347.827345
-0.207902 -1.279428 1.483482 39.000000 16 347.827348
-0.203800 -1.275266 1.348898 39.000000 15 347.827305
-0.200753 -1.256183 1.107772 40.000000 13 347.827308
-0.198522 -1.240834 0.908485 42.000000 11 347.827311
-0.197599 -1.235051 0.740999 42.000000 9 347.827313
-0.195161 -1.218446 0.586878 40.000000 7 347.827316
-0.193739 -1.208217 0.449387 34.000000 5 347.827318
-0.191325 -1.193165 0.320897 13.000000 3 347.827321
-0.188619 -1.174978 0.199576 14.000000 1 347.827323
-0.204086 -1.264309 1.221394 44.000000 14 347.827331
-0.200741 -1.243570 1.000763 42.000000 12 347.827334
-0.199056 -1.231765 0.818544 44.000000 10 347.827336
-0.199292 -1.233208 0.664940 47.000000 8 347.827339
-0.197692 -1.221958 0.519725 40.000000 6 347.827341
-0.192748 -1.190075 0.381488 27.000000 4 347.827344
-0.191790 -1.182855 0.259136 9.000000 2 347.827346
-0.196073 -1.207937 0.143040 28.000000 0 347.827349
-0.015671 -0.043527 3.749131 97.000000 31 347.827360
-0.107780 -0.568704 3.680171 98.000000 28 347.827362
-0.142032 -0.744592 3.667786 90.000000 27 347.827365
-0.188461 -1.105492 3.630117 92.000000 25 347.827367
-0.224474 -1.361961 3.311435 7.000000 23 347.827370
-0.224626 -1.364340 2.600195 31.000000 21 347.827372
-0.217712 -1.322333 2.040889 37.000000 19 347.827375
-0.213847 -1.298843 1.652070 39.000000 17 347.827378
-0.052495 -0.219295 3.728161 98.000000 30 347.827385
-0.084289 -0.393959 3.708486 96.000000 29 347.827388
-0.163921 -0.922251 3.641407 94.000000 26 347.827390
-0.215971 -1.296293 3.627923 18.000000 24 347.827393
-0.231350 -1.391553 2.979305 28.000000 22 347.827396
-0.223745 -1.347235 2.304024 36.000000 20 347.827398
-0.216718 -1.304911 1.825712 38.000000 18 347.827401
-0.211811 -1.275350 1.479807 39.000000 16 347.827403
-0.208250 -1.274547 1.348898 39.000000 15 347.827361
-0.204509 -1.251633 1.104634 40.000000 13 347.827364
-0.202852 -1.240134 0.908485 42.000000 11 347.827366
-0.201194 -1.229982 0.738681 42.000000 9 347.827369
-0.199413 -1.217757 0.586878 40.000000 7 347.827371
-0.197955 -1.207533 0.449387 34.000000 5 347.827374
-0.195489 -1.192490 0.320897 14.000000 3 347.827376
-0.191913 -1.169399 0.199129 14.000000 1 347.827379
-0.207890 -1.259905 1.218069 44.000000 14 347.827387
-0.204423 -1.238873 0.997820 44.000000 12 347.827389
-0.203354 -1.231063 0.818544 44.000000 10 347.827392
-0.202856 -1.228027 0.662842 49.000000 8 347.827394
-0.201186 -1.216601 0.518083 40.000000 6 347.827397
-0.196901 -1.189395 0.381488 27.000000 4 347.827399
-0.195918 -1.182178 0.259136 9.000000 2 347.827402
-0.199471 -1.202316 0.142839 28.000000 0 347.827405
-0.015822 -0.043472 3.749131 97.000000 31 347.827415
-0.109764 -0.568325 3.680171 98.000000 28 347.827418
-0.144630 -0.744091 3.667786 90.000000 27 347.827420
-0.192319 -1.104828 3.630117 92.000000 25 347.827423
-0.231173 -1.372728 3.339050 6.000000 23 347.827425
-0.229387 -1.363547 2.600195 31.000000 21 347.827428
-0.222327 -1.321565 2.040889 37.000000 19 347.827431
-0.218380 -1.298088 1.652070 39.000000 17 347.827433
-0.053260 -0.219111 3.728161 98.000000 30 347.827441
-0.085664 -0.393662 3.708486 97.000000 29 347.827443
-0.167140 -0.921674 3.641407 95.000000 26 347.827446
-0.219337 -1.288726 3.609152 48.000000 24 347.827449
-0.236206 -1.390736 2.979305 27.000000 22 347.827451
-0.228446 -1.346446 2.304024 36.000000 20 347.827454
-0.221272 -1.304147 1.825712 38.000000 18 347.827456
-0.216262 -1.274603 1.479807 39.000000 16 347.827459
-0.212698 -1.273812 1.348898 39.000000 15 347.827416
-0.208877 -1.250911 1.104634 40.000000 13 347.827419
-0.207180 -1.239418 0.908485 42.000000 11 347.827422
-0.205486 -1.229272 0.738681 42.000000 9 347.827424
-0.203662 -1.217054 0.586878 40.000000 7 347.827427
-0.202169 -1.206835 0.449387 34.000000 5 347.827429
-0.198839 -1.186955 0.319964 13.000000 3 347.827432
-0.195994 -1.168722 0.199129 13.000000 1 347.827434
-0.212287 -1.259171 1.218069 44.000000 14 347.827442
-0.208746 -1.238152 0.997820 44.000000 12 347.827445
-0.207650 -1.230345 0.818544 45.000000 10 347.827447
-0.207141 -1.227312 0.662842 49.000000 8 347.827450
-0.205432 -1.215891 0.518083 39.000000 6 347.827452
-0.201051 -1.188701 0.381488 27.000000 4 347.827455
-0.200043 -1.181487 0.259136 9.000000 2 347.827458
-0.203666 -1.201613 0.142839 28.000000 0 347.827460
-0.015974 -0.043417 3.749131 97.000000 31 347.827471
-0.111747 -0.567938 3.680171 98.000000 28 347.827473
-0.147226 -0.743582 3.667786 91.000000 27 347.827476
-0.196436 -1.105620 3.634888 92.000000 25 347.827478
-0.235632 -1.369987 3.334447 6.000000 23 347.827481
-0.233740 -1.360377 2.595807 31.000000 21 347.827484
-0.226462 -1.318008 2.036756 37.000000 19 347.827486
-0.222910 -1.297318 1.652070 39.000000 17 347.827489
-0.054025 -0.218923 3.728161 98.000000 30 347.827496
-0.087037 -0.393361 3.708486 97.000000 29 347.827499
-0.170585 -0.922321 3.646246 96.000000 26 347.827502
-0.224129 -1.289653 3.613845 90.000000 24 347.827504
-0.240687 -1.387758 2.974804 27.000000 22 347.827507
-0.233145 -1.345640 2.304024 36.000000 20 347.827509
-0.225308 -1.300397 1.821723 38.000000 18 347.827512
-0.220710 -1.273840 1.479807 39.000000 16 347.827514
-0.216544 -1.269547 1.345393 40.000000 15 347.827472
-0.213242 -1.250175 1.104634 42.000000 13 347.827475
-0.210801 -1.234566 0.905744 42.000000 11 347.827477
-0.209776 -1.228547 0.738681 42.000000 9 347.827480
-0.207909 -1.216336 0.586878 40.000000 7 347.827482
-0.206380 -1.206122 0.449387 34.000000 5 347.827485
-0.202981 -1.186254 0.319964 13.000000 3 347.827487
-0.200072 -1.168030 0.199129 13.000000 1 347.827490
-0.216681 -1.258422 1.218069 44.000000 14 347.827498
-0.213066 -1.237416 0.997820 44.000000 12 347.827500
-0.211212 -1.225365 0.816011 45.000000 10 347.827503
-0.211424 -1.226581 0.662842 49.000000 8 347.827505
-0.209675 -1.215167 0.518083 39.000000 6 347.827508
-0.205199 -1.187992 0.381488 26.000000 4 347.827510
-0.204166 -1.180782 0.259136 9.000000 2 347.827513
-0.207008 -1.195972 0.142637 28.000000 0 347.827516
-0.016125 -0.043361 3.749131 97.000000 31 347.827527
-0.113729 -0.567544 3.680171 98.000000 28 347.827530
-0.149821 -0.743064 3.667786 91.000000 27 347.827532
-0.200294 -1.104928 3.634888 92.000000 25 347.827535
-0.242778 -1.382626 3.366665 9.000000 23 347.827537
-0.238487 -1.359553 2.595807 30.000000 21 347.827540
-0.231061 -1.317209 2.036756 37.000000 19 347.827542
-0.226883 -1.293374 1.648233 39.000000 17 347.827545
-0.054750 -0.218743 3.728161 98.000000 30 347.827553
-0.088459 -0.393591 3.713457 97.000000 29 347.827555
-0.173642 -0.921751 3.646246 96.000000 26 347.827558
-0.228104 -1.287204 3.609152 92.000000 24 347.827560
-0.245150 -1.384765 2.970303 28.000000 22 347.827563
-0.237841 -1.344818 2.304024 36.000000 20 347.827565
-0.229846 -1.299602 1.821723 38.000000 18 347.827568
-0.224343 -1.269763 1.476132 39.000000 16 347.827571
-0.220974 -1.268783 1.345393 40.000000 15 347.827528
-0.217605 -1.249423 1.104634 42.000000 13 347.827531
-0.215109 -1.233822 0.905744 44.000000 11 347.827533
-0.214063 -1.227807 0.738681 42.000000 9 347.827536
-0.211146 -1.211072 0.585005 40.000000 7 347.827539
-0.209554 -1.200705 0.447978 34.000000 5 347.827541
-0.206275 -1.180699 0.319031 13.000000 3 347.827544
-0.204148 -1.167325 0.199129 13.000000 1 347.827546
-0.221072 -1.257658 1.218069 44.000000 14 347.827554
-0.217385 -1.236665 0.997820 44.000000 12 347.827557
-0.215274 -1.224658 0.816011 45.000000 10 347.827559
-0.215490 -1.225873 0.662842 49.000000 8 347.827562
-0.213703 -1.214465 0.518083 39.000000 6 347.827564
-0.209138 -1.187304 0.381488 26.000000 4 347.827567
-0.207221 -1.175221 0.258446 8.000000 2 347.827569
-0.210972 -1.195279 0.142637 28.000000 0 347.827572
-0.016269 -0.043307 3.749131 97.000000 31 347.827583
-0.115611 -0.567164 3.680171 98.000000 28 347.827585
-0.152284 -0.742563 3.667786 90.000000 27 347.827588
-0.203957 -1.104258 3.634888 91.000000 25 347.827590
-0.250116 -1.397198 3.403485 14.000000 23 347.827593
-0.242994 -1.358755 2.595807 30.000000 21 347.827595
-0.235428 -1.316435 2.036756 37.000000 19 347.827598
-0.231170 -1.292615 1.648233 39.000000 17 347.827600
-0.055514 -0.218550 3.728161 98.000000 30 347.827608
-0.089833 -0.393280 3.713457 97.000000 29 347.827611
-0.176859 -0.921139 3.646246 96.000000 26 347.827613
-0.232595 -1.286399 3.609152 93.000000 24 347.827616
-0.249741 -1.383944 2.970303 26.000000 22 347.827618
-0.241836 -1.341455 2.299758 36.000000 20 347.827621
-0.234155 -1.298833 1.821723 38.000000 18 347.827624
-0.228774 -1.268972 1.476132 39.000000 16 347.827626
-0.225180 -1.268043 1.345393 40.000000 15 347.827584
-0.221066 -1.244861 1.101497 42.000000 13 347.827586
-0.219200 -1.233102 0.905744 42.000000 11 347.827589
-0.217358 -1.222729 0.736363 42.000000 9 347.827591
-0.215372 -1.210328 0.585005 40.000000 7 347.827594
-0.213744 -1.199967 0.447978 33.000000 5 347.827597
-0.210189 -1.180009 0.319031 13.000000 3 347.827599
-0.208018 -1.166641 0.199129 14.000000 1 347.827602
-0.225242 -1.256918 1.218069 44.000000 14 347.827609
-0.221484 -1.235937 0.997820 44.000000 12 347.827612
-0.219547 -1.223899 0.816011 45.000000 10 347.827615
-0.218967 -1.220647 0.660744 49.000000 8 347.827617
-0.217107 -1.209063 0.516440 40.000000 6 347.827620
-0.213281 -1.186567 0.381488 25.000000 4 347.827622
-0.211322 -1.174491 0.258446 8.000000 2 347.827625
-0.215143 -1.194535 0.142637 28.000000 0 347.827627
-0.016420 -0.043250 3.749131 97.000000 31 347.827638
-0.117590 -0.566757 3.680171 98.000000 28 347.827641
-0.154875 -0.742026 3.667786 90.000000 27 347.827643
-0.207810 -1.103539 3.634888 92.000000 25 347.827646
-0.258853 -1.417457 3.454113 15.000000 23 347.827648
-0.247306 -1.355542 2.591418 31.000000 21 347.827651
-0.239517 -1.312837 2.032623 37.000000 19 347.827653
-0.235681 -1.291800 1.648233 39.000000 17 347.827656
-0.056276 -0.218355 3.728161 98.000000 30 347.827664
-0.091205 -0.392964 3.713457 97.000000 29 347.827666
-0.180073 -0.920516 3.646246 96.000000 26 347.827669
-0.237084 -1.285580 3.609152 93.000000 24 347.827671
-0.254176 -1.380922 2.965802 23.000000 22 347.827674
-0.246517 -1.340603 2.299758 36.000000 20 347.827677
-0.238142 -1.295043 1.817733 38.000000 18 347.827679
-0.233202 -1.268166 1.476132 39.000000 16 347.827682
-0.228969 -1.263741 1.341888 40.000000 15 347.827639
-0.225410 -1.244082 1.101497 42.000000 13 347.827642
-0.222756 -1.228215 0.903003 42.000000 11 347.827644
-0.221625 -1.221963 0.736363 42.000000 9 347.827647
-0.219595 -1.209569 0.585005 40.000000 7 347.827650
-0.217931 -1.199213 0.447978 33.000000 5 347.827652
-0.214307 -1.179268 0.319031 13.000000 3 347.827655
-0.212089 -1.165908 0.199129 13.000000 1 347.827657
-0.229628 -1.256124 1.218069 44.000000 14 347.827665
-0.225797 -1.235156 0.997820 44.000000 12 347.827668
-0.223042 -1.218884 0.813479 45.000000 10 347.827670
-0.223226 -1.219875 0.660744 50.000000 8 347.827673
-0.221326 -1.208298 0.516440 40.000000 6 347.827675
-0.216545 -1.181035 0.380315 25.000000 4 347.827678
-0.215420 -1.173746 0.258446 9.000000 2 347.827680
-0.219312 -1.193777 0.142637 28.000000 0 347.827683
-0.016571 -0.043193 3.749131 97.000000 31 347.827694
-0.119567 -0.566343 3.680171 98.000000 28 347.827696
-0.157465 -0.741481 3.667786 90.000000 27 347.827699
-0.211379 -1.101340 3.630117 91.000000 25 347.827701
-0.264514 -1.420386 3.463318 15.000000 23 347.827704
-0.252036 -1.354670 2.591418 31.000000 21 347.827706
-0.244098 -1.311993 2.032623 37.000000 19 347.827709
-0.239602 -1.287817 1.644396 39.000000 17 347.827711
-0.057038 -0.218158 3.728161 98.000000 30 347.827719
-0.092453 -0.392124 3.708486 97.000000 29 347.827722
-0.183285 -0.919882 3.646246 96.000000 26 347.827724
-0.241570 -1.284744 3.609152 93.000000 24 347.827727
-0.258995 -1.380027 2.965802 23.000000 22 347.827729
-0.251195 -1.339734 2.299758 36.000000 20 347.827732
-0.242661 -1.294204 1.817733 38.000000 18 347.827735
-0.237627 -1.267344 1.476132 39.000000 16 347.827737
-0.233379 -1.262934 1.341888 39.000000 15 347.827695
-0.229751 -1.243288 1.101497 42.000000 13 347.827697
-0.227042 -1.227430 0.903003 42.000000 11 347.827700
-0.225889 -1.221182 0.736363 42.000000 9 347.827703
-0.223816 -1.208795 0.585005 40.000000 7 347.827705
-0.222116 -1.198445 0.447978 34.000000 5 347.827708
-0.218422 -1.178513 0.319031 13.000000 3 347.827710
-0.216158 -1.165161 0.199129 13.000000 1 347.827713
-0.233327 -1.251644 1.214744 44.000000 14 347.827721
-0.229367 -1.230387 0.994877 44.000000 12 347.827723
-0.227296 -1.218098 0.813479 45.000000 10 347.827726
-0.227483 -1.219088 0.660744 49.000000 8 347.827728
-0.225542 -1.207518 0.516440 39.000000 6 347.827731
-0.220666 -1.180272 0.380315 26.000000 4 347.827733
-0.219516 -1.172987 0.258446 9.000000 2 347.827736
-0.223478 -1.193004 0.142637 28.000000 0 347.827738
-0.016722 -0.043134 3.749131 97.000000 31 347.827749
-0.121544 -0.565922 3.680171 99.000000 28 347.827752
-0.160052 -0.740927 3.667786 88.000000 27 347.827754
-0.215222 -1.100596 3.630117 91.000000 25 347.827757
-0.269471 -1.419454 3.463318 15.000000 23 347.827759
-0.256317 -1.351428 2.587029 31.000000 21 347.827762
-0.248152 -1.308369 2.028490 37.000000 19 347.827764
-0.244096 -1.286973 1.644396 39.000000 17 347.827767
-0.057799 -0.217957 3.728161 98.000000 30 347.827775
-0.093821 -0.391798 3.708486 97.000000 29 347.827777
-0.186495 -0.919236 3.646246 96.000000 26 347.827780
-0.246054 -1.283893 3.609152 92.000000 24 347.827782
-0.263810 -1.379114 2.965802 23.000000 22 347.827785
-0.255381 -1.336287 2.295492 36.000000 20 347.827788
-0.247177 -1.293349 1.817733 38.000000 18 347.827790
-0.241413 -1.263177 1.472457 39.000000 16 347.827793
-0.237126 -1.258607 1.338384 39.000000 15 347.827750
-0.233369 -1.238653 1.098359 42.000000 13 347.827753
-0.231326 -1.226630 0.903003 42.000000 11 347.827755
-0.230150 -1.220386 0.736363 42.000000 9 347.827758
-0.227174 -1.203451 0.583132 40.000000 7 347.827761
-0.225407 -1.192949 0.446569 34.000000 5 347.827763
-0.221622 -1.172916 0.318099 13.000000 3 347.827766
-0.220223 -1.164399 0.199129 13.000000 1 347.827768
-0.237694 -1.250822 1.214744 44.000000 14 347.827776
-0.233660 -1.229579 0.994877 44.000000 12 347.827779
-0.230740 -1.213062 0.810947 45.000000 10 347.827781
-0.231737 -1.218287 0.660744 49.000000 8 347.827784
-0.229756 -1.206723 0.516440 39.000000 6 347.827786
-0.224785 -1.179494 0.380315 25.000000 4 347.827789
-0.224537 -1.177078 0.259136 9.000000 2 347.827791
-0.227641 -1.192217 0.142637 27.000000 0 347.827794
-0.016872 -0.043076 3.749131 97.000000 31 347.827805
-0.123518 -0.565495 3.680171 98.000000 28 347.827807
-0.162637 -0.740364 3.667786 90.000000 27 347.827810
-0.219063 -1.099838 3.630117 91.000000 25 347.827812
-0.274795 -1.420423 3.467920 16.000000 23 347.827815
-0.261032 -1.350525 2.587029 31.000000 21 347.827817
-0.252717 -1.307494 2.028490 37.000000 19 347.827820
-0.248587 -1.286113 1.644396 39.000000 17 347.827823
-0.058560 -0.217754 3.728161 98.000000 30 347.827830
-0.095188 -0.391469 3.708486 97.000000 29 347.827833
-0.189703 -0.918580 3.646246 96.000000 26 347.827835
-0.250534 -1.283026 3.609152 92.000000 24 347.827838
-0.268206 -1.376047 2.961301 23.000000 22 347.827841
-0.260044 -1.335388 2.295492 36.000000 20 347.827843
-0.251114 -1.289520 1.813744 38.000000 18 347.827846
-0.245821 -1.262326 1.472457 39.000000 16 347.827848
-0.241518 -1.257771 1.338384 40.000000 15 347.827806
-0.237691 -1.237830 1.098359 42.000000 13 347.827808
-0.235606 -1.225815 0.903003 44.000000 11 347.827811
-0.234409 -1.219575 0.736363 42.000000 9 347.827814
-0.231374 -1.202651 0.583132 40.000000 7 347.827816
-0.229570 -1.192154 0.446569 34.000000 5 347.827819
-0.225715 -1.172135 0.318099 13.000000 3 347.827821
-0.223344 -1.158733 0.198683 12.000000 1 347.827824
-0.241349 -1.246319 1.211419 44.000000 14 347.827832
-0.237951 -1.228756 0.994877 44.000000 12 347.827834
-0.234973 -1.212249 0.810947 45.000000 10 347.827837
-0.235988 -1.217470 0.660744 49.000000 8 347.827839
-0.233966 -1.205914 0.516440 39.000000 6 347.827842
-0.227974 -1.173931 0.379143 25.000000 4 347.827844
-0.228644 -1.176287 0.259136 9.000000 2 347.827847
-0.231801 -1.191415 0.142637 27.000000 0 347.827849
-0.017023 -0.043017 3.749131 95.000000 31 347.827860
-0.125491 -0.565060 3.680171 98.000000 28 347.827863
-0.165221 -0.739792 3.667786 90.000000 27 347.827865
-0.222901 -1.099066 3.630117 90.000000 25 347.827868
-0.280129 -1.421372 3.472523 17.000000 23 347.827870
-0.265282 -1.347255 2.582641 31.000000 21 347.827873
-0.256736 -1.303843 2.024357 37.000000 19 347.827875
-0.252456 -1.282092 1.640559 39.000000 17 347.827878
-0.059319 -0.217548 3.728161 98.000000 30 347.827886
-0.096554 -0.391134 3.708486 96.000000 29 347.827888
-0.192908 -0.917912 3.646246 96.000000 26 347.827891
-0.255011 -1.282144 3.609152 92.000000 24 347.827893
-0.273008 -1.375103 2.961301 23.000000 22 347.827896
-0.264196 -1.331914 2.291226 36.000000 20 347.827899
-0.255614 -1.288636 1.813744 38.000000 18 347.827901
-0.250226 -1.261461 1.472457 39.000000 16 347.827904
-0.245907 -1.256921 1.338384 40.000000 15 347.827861
-0.242011 -1.236993 1.098359 42.000000 13 347.827864
-0.239883 -1.224985 0.903003 44.000000 11 347.827867
-0.237813 -1.214401 0.734045 42.000000 9 347.827869
-0.235570 -1.201836 0.583132 40.000000 7 347.827872
-0.233730 -1.191346 0.446569 34.000000 5 347.827874
-0.228860 -1.166520 0.317166 12.000000 3 347.827877
-0.227387 -1.157947 0.198683 12.000000 1 347.827879
-0.245698 -1.245469 1.211419 44.000000 14 347.827887
-0.241456 -1.223952 0.991934 44.000000 12 347.827890
-0.239204 -1.211421 0.810947 45.000000 10 347.827892
-0.240236 -1.216639 0.660744 49.000000 8 347.827895
-0.238175 -1.205090 0.516440 39.000000 6 347.827897
-0.232070 -1.173128 0.379143 25.000000 4 347.827900
-0.232749 -1.175482 0.259136 8.000000 2 347.827902
-0.235958 -1.190598 0.142637 27.000000 0 347.827905
-0.017173 -0.042957 3.749131 95.000000 31 347.827916
-0.127463 -0.564618 3.680171 98.000000 28 347.827918
-0.167802 -0.739211 3.667786 88.000000 27 347.827921
-0.226736 -1.098282 3.630117 91.000000 25 347.827923
-0.285089 -1.420385 3.472523 17.000000 23 347.827926
-0.269983 -1.346321 2.582641 31.000000 21 347.827928
-0.261286 -1.302939 2.024357 37.000000 19 347.827931
-0.256929 -1.281203 1.640559 39.000000 17 347.827934
-0.060079 -0.217340 3.728161 98.000000 30 347.827941
-0.097918 -0.390794 3.708486 96.000000 29 347.827944
-0.196111 -0.917233 3.646246 96.000000 26 347.827946
-0.259827 -1.282938 3.613845 92.000000 24 347.827949
-0.277374 -1.372007 2.956800 24.000000 22 347.827952
-0.268844 -1.330984 2.291226 36.000000 20 347.827954
-0.259514 -1.284781 1.809754 38.000000 18 347.827957
-0.253956 -1.257257 1.468782 39.000000 16 347.827959
-0.250293 -1.256055 1.338384 39.000000 15 347.827917
-0.246327 -1.236141 1.098359 42.000000 13 347.827919
-0.243340 -1.220040 0.900261 44.000000 11 347.827922
-0.242051 -1.213564 0.734045 42.000000 9 347.827925
-0.239764 -1.201006 0.583132 40.000000 7 347.827927
-0.236947 -1.185818 0.445160 34.000000 5 347.827930
-0.232930 -1.165714 0.317166 12.000000 3 347.827932
-0.231428 -1.157146 0.198683 13.000000 1 347.827935
-0.250044 -1.244603 1.211419 44.000000 14 347.827943
-0.245727 -1.223102 0.991934 44.000000 12 347.827945
-0.243431 -1.210579 0.810947 45.000000 10 347.827948
-0.243587 -1.211344 0.658646 49.000000 8 347.827950
-0.242380 -1.204251 0.516440 39.000000 6 347.827953
-0.236164 -1.172311 0.379143 25.000000 4 347.827955
-0.235872 -1.169808 0.258446 8.000000 2 347.827958
-0.240113 -1.189767 0.142637 27.000000 0 347.827961
-0.017322 -0.042897 3.749131 97.000000 31 347.827971
-0.129433 -0.564170 3.680171 95.000000 28 347.827974
-0.170381 -0.738620 3.667786 88.000000 27 347.827976
-0.230568 -1.097483 3.630117 91.000000 25 347.827979
-0.290046 -1.419381 3.472523 17.000000 23 347.827981
-0.274681 -1.345370 2.582641 31.000000 21 347.827984
-0.265269 -1.299262 2.020224 37.000000 19 347.827987
-0.260759 -1.277158 1.636722 39.000000 17 347.827989
-0.060837 -0.217129 3.728161 98.000000 30 347.827997
-0.099282 -0.390450 3.708486 96.000000 29 347.827999
-0.199311 -0.916543 3.646246 96.000000 26 347.828002
-0.264304 -1.282023 3.613845 93.000000 24 347.828005
-0.281723 -1.368897 2.952300 23.000000 22 347.828007
-0.272963 -1.327482 2.286960 36.000000 20 347.828010
-0.263997 -1.283868 1.809754 38.000000 18 347.828012
-0.258343 -1.256362 1.468782 39.000000 16 347.828015
-0.254676 -1.255173 1.338384 39.000000 15 347.827972
-0.250641 -1.235274 1.098359 42.000000 13 347.827975
-0.247597 -1.219183 0.900261 42.000000 11 347.827978
-0.246286 -1.212712 0.734045 44.000000 9 347.827980
-0.243031 -1.195619 0.581259 40.000000 7 347.827983
-0.241085 -1.184984 0.445160 34.000000 5 347.827985
-0.236998 -1.164894 0.317166 12.000000 3 347.827988
-0.234472 -1.151451 0.198237 14.000000 1 347.827990
-0.254387 -1.243723 1.211419 42.000000 14 347.827998
-0.249995 -1.222237 0.991934 44.000000 12 347.828001
-0.246790 -1.205498 0.808414 45.000000 10 347.828003
-0.247814 -1.210486 0.658646 49.000000 8 347.828006
-0.245634 -1.198772 0.514797 39.000000 6 347.828008
-0.239278 -1.166717 0.377971 25.000000 4 347.828011
-0.239954 -1.168977 0.258446 9.000000 2 347.828013
-0.244264 -1.188922 0.142637 27.000000 0 347.828016
-0.017472 -0.042836 3.749131 97.000000 31 347.828027
-0.131402 -0.563715 3.680171 95.000000 28 347.828029
-0.172959 -0.738021 3.667786 90.000000 27 347.828032
-0.234710 -1.098132 3.634888 91.000000 25 347.828034
-0.294998 -1.418360 3.472523 17.000000 23 347.828037
-0.278888 -1.342058 2.578252 31.000000 21 347.828039
-0.269803 -1.298328 2.020224 37.000000 19 347.828042
-0.265215 -1.276240 1.636722 39.000000 17 347.828045
-0.061594 -0.216915 3.728161 98.000000 30 347.828052
-0.100644 -0.390101 3.708486 96.000000 29 347.828055
-0.202510 -0.915842 3.646246 96.000000 26 347.828057
-0.268777 -1.281093 3.613845 93.000000 24 347.828060
-0.286500 -1.367906 2.952300 23.000000 22 347.828063
-0.277595 -1.326521 2.286960 36.000000 20 347.828065
-0.267859 -1.279988 1.805765 38.000000 18 347.828068
-0.262033 -1.252135 1.465106 39.000000 16 347.828070
-0.259055 -1.254277 1.338384 39.000000 15 347.828028
-0.254951 -1.234391 1.098359 40.000000 13 347.828031
-0.251851 -1.218311 0.900261 42.000000 11 347.828033
-0.249620 -1.207506 0.731727 40.000000 9 347.828036
-0.247203 -1.194763 0.581259 40.000000 7 347.828038
-0.245220 -1.184135 0.445160 34.000000 5 347.828041
-0.241063 -1.164060 0.317166 12.000000 3 347.828043
-0.238490 -1.150626 0.198237 14.000000 1 347.828046
-0.258727 -1.242827 1.211419 46.000000 14 347.828054
-0.254260 -1.221357 0.991934 44.000000 12 347.828056
-0.250997 -1.204629 0.808414 45.000000 10 347.828059
-0.252038 -1.209614 0.658646 49.000000 8 347.828061
-0.249817 -1.197907 0.514797 39.000000 6 347.828064
-0.243349 -1.165875 0.377971 25.000000 4 347.828066
-0.243020 -1.163285 0.257756 9.000000 2 347.828069
-0.248413 -1.188062 0.142637 27.000000 0 347.828072
-0.017621 -0.042775 3.749131 97.000000 31 347.828082
-0.133369 -0.563253 3.680171 98.000000 28 347.828085
-0.175534 -0.737413 3.667786 87.000000 27 347.828087
-0.238542 -1.097306 3.634888 91.000000 25 347.828090
-0.299543 -1.415411 3.467920 17.000000 23 347.828092
-0.283571 -1.341076 2.578252 31.000000 21 347.828095
-0.274333 -1.297378 2.020224 37.000000 19 347.828098
-0.269005 -1.272169 1.632885 39.000000 17 347.828100
-0.062351 -0.216699 3.728161 98.000000 30 347.828108
-0.102005 -0.389748 3.708486 97.000000 29 347.828110
-0.205705 -0.915129 3.646246 95.000000 26 347.828113
-0.273248 -1.280146 3.613845 93.000000 24 347.828116
-0.291273 -1.366897 2.952300 23.000000 22 347.828118
-0.282224 -1.325544 2.286960 36.000000 20 347.828121
-0.272326 -1.279046 1.805765 38.000000 18 347.828123
-0.266402 -1.251212 1.465106 39.000000 16 347.828126
-0.263432 -1.253365 1.338384 40.000000 15 347.828083
-0.258457 -1.229684 1.095221 42.000000 13 347.828086
-0.256103 -1.217425 0.900261 44.000000 11 347.828089
-0.253834 -1.206627 0.731727 40.000000 9 347.828091
-0.251372 -1.193893 0.581259 40.000000 7 347.828094
-0.249352 -1.183272 0.445160 34.000000 5 347.828096
-0.245124 -1.163211 0.317166 12.000000 3 347.828099
-0.242505 -1.149786 0.198237 13.000000 1 347.828101
-0.262290 -1.238263 1.208094 46.000000 14 347.828109
-0.258521 -1.220462 0.991934 44.000000 12 347.828112
-0.255200 -1.203746 0.808414 45.000000 10 347.828114
-0.256259 -1.208727 0.658646 49.000000 8 347.828117
-0.253997 -1.197027 0.514797 39.000000 6 347.828119
-0.247417 -1.165019 0.377971 25.000000 4 347.828122
-0.247079 -1.162430 0.257756 10.000000 2 347.828125
-0.252558 -1.187188 0.142637 27.000000 0 347.828127
-0.017771 -0.042713 3.749131 97.000000 31 347.828138
-0.135334 -0.562784 3.680171 99.000000 28 347.828140
-0.178346 -0.737785 3.672681 87.000000 27 347.828143
-0.242371 -1.096467 3.634888 91.000000 25 347.828145
-0.304482 -1.414356 3.467920 17.000000 23 347.828148
-0.287747 -1.337736 2.573864 31.000000 21 347.828151
-0.278860 -1.296413 2.020224 37.000000 19 347.828153
-0.273444 -1.271222 1.632885 39.000000 17 347.828156
-0.063107 -0.216480 3.728161 98.000000 30 347.828163
-0.103503 -0.389905 3.713457 97.000000 29 347.828166
-0.208898 -0.914405 3.646246 95.000000 26 347.828169
-0.277715 -1.279185 3.613845 92.000000 24 347.828171
-0.296042 -1.365872 2.952300 23.000000 22 347.828174
-0.286849 -1.324551 2.286960 36.000000 20 347.828176
-0.276789 -1.278087 1.805765 38.000000 18 347.828179
-0.270768 -1.250275 1.465106 39.000000 16 347.828181
-0.267060 -1.248950 1.334879 40.000000 15 347.828139
-0.262748 -1.228774 1.095221 42.000000 13 347.828142
-0.260351 -1.216523 0.900261 44.000000 11 347.828144
-0.258044 -1.205734 0.731727 42.000000 9 347.828147
-0.255538 -1.193008 0.581259 40.000000 7 347.828149
-0.253481 -1.182395 0.445160 34.000000 5 347.828152
-0.249183 -1.162348 0.317166 12.000000 3 347.828154
-0.246517 -1.148933 0.198237 14.000000 1 347.828157
-0.266610 -1.237340 1.208094 42.000000 14 347.828165
-0.261929 -1.215600 0.988991 44.000000 12 347.828167
-0.259400 -1.202848 0.808414 45.000000 10 347.828170
-0.260476 -1.207825 0.658646 49.000000 8 347.828172
-0.258174 -1.196134 0.514797 39.000000 6 347.828175
-0.251482 -1.164148 0.377971 25.000000 4 347.828177
-0.250089 -1.156720 0.257067 9.000000 2 347.828180
-0.255644 -1.181416 0.142436 27.000000 0 347.828183
-0.017920 -0.042651 3.749131 97.000000 31 347.828193
-0.137298 -0.562308 3.680171 98.000000 28 347.828196
-0.180921 -0.737158 3.672681 91.000000 27 347.828198
-0.246197 -1.095614 3.634888 90.000000 25 347.828201
-0.309417 -1.413285 3.467920 17.000000 23 347.828203
-0.292415 -1.336723 2.573864 31.000000 21 347.828206
-0.283384 -1.295431 2.020224 37.000000 19 347.828208
-0.277880 -1.270260 1.632885 39.000000 17 347.828211
-0.063946 -0.216536 3.733152 98.000000 30 347.828219
-0.104864 -0.389541 3.713457 97.000000 29 347.828221
-0.212089 -0.913671 3.646246 95.000000 26 347.828224
-0.282550 -1.279893 3.618537 92.000000 24 347.828226
-0.301277 -1.366957 2.956800 24.000000 22 347.828229
-0.290910 -1.320995 2.282694 36.000000 20 347.828231
-0.281248 -1.277113 1.805765 38.000000 18 347.828234
-0.275131 -1.249322 1.465106 39.000000 16 347.828237
-0.271418 -1.248010 1.334879 40.000000 15 347.828194
-0.267036 -1.227850 1.095221 42.000000 13 347.828197
-0.264596 -1.215607 0.900261 44.000000 11 347.828199
-0.262251 -1.204826 0.731727 42.000000 9 347.828202
-0.259701 -1.192109 0.581259 40.000000 7 347.828205
-0.257607 -1.181502 0.445160 34.000000 5 347.828207
-0.252193 -1.156672 0.316234 12.000000 3 347.828210
-0.250526 -1.148065 0.198237 13.000000 1 347.828212
-0.270928 -1.236402 1.208094 42.000000 14 347.828220
-0.266170 -1.214679 0.988991 44.000000 12 347.828223
-0.263598 -1.201935 0.808414 45.000000 10 347.828225
-0.264691 -1.206908 0.658646 49.000000 8 347.828228
-0.262347 -1.195225 0.514797 39.000000 6 347.828230
-0.255544 -1.163263 0.377971 24.000000 4 347.828233
-0.254125 -1.155839 0.257067 9.000000 2 347.828235
-0.259767 -1.180517 0.142436 27.000000 0 347.828238
-0.018068 -0.042588 3.749131 97.000000 31 347.828249
-0.139260 -0.561825 3.680171 98.000000 28 347.828251
-0.183493 -0.736522 3.672681 91.000000 27 347.828254
-0.250019 -1.094748 3.634888 91.000000 25 347.828256
-0.313924 -1.410289 3.463318 17.000000 23 347.828259
-0.297079 -1.335694 2.573864 31.000000 21 347.828261
-0.287293 -1.291688 2.016091 37.000000 19 347.828264
-0.281616 -1.266153 1.629048 39.000000 17 347.828266
-0.064701 -0.216311 3.733152 98.000000 30 347.828274
-0.106223 -0.389173 3.713457 97.000000 29 347.828277
-0.215277 -0.912925 3.646246 95.000000 26 347.828279
-0.287016 -1.278898 3.618537 92.000000 24 347.828282
-0.306523 -1.368022 2.961301 25.000000 22 347.828284
-0.295519 -1.319971 2.282694 36.000000 20 347.828287
-0.285705 -1.276124 1.805765 38.000000 18 347.828290
-0.279490 -1.248354 1.465106 39.000000 16 347.828292
-0.275773 -1.247055 1.334879 40.000000 15 347.828250
-0.271320 -1.226910 1.095221 44.000000 13 347.828252
-0.268837 -1.214676 0.900261 44.000000 11 347.828255
-0.265498 -1.199578 0.729409 40.000000 9 347.828257
-0.262858 -1.186669 0.579386 39.000000 7 347.828260
-0.261729 -1.180596 0.445160 34.000000 5 347.828263
-0.256229 -1.155785 0.316234 12.000000 3 347.828265
-0.254532 -1.147184 0.198237 13.000000 1 347.828268
-0.275242 -1.235449 1.208094 44.000000 14 347.828275
-0.269530 -1.209797 0.986048 44.000000 12 347.828278
-0.267792 -1.201007 0.808414 45.000000 10 347.828281
-0.267914 -1.201547 0.656548 49.000000 8 347.828283
-0.266518 -1.194302 0.514797 39.000000 6 347.828286
-0.259603 -1.162364 0.377971 24.000000 4 347.828288
-0.258158 -1.154945 0.257067 10.000000 2 347.828291
-0.262795 -1.174727 0.142234 27.000000 0 347.828293
-0.018217 -0.042525 3.749131 96.000000 31 347.828304
-0.141220 -0.561336 3.680171 98.000000 28 347.828307
-0.186063 -0.735877 3.672681 91.000000 27 347.828309
-0.253839 -1.093869 3.634888 91.000000 25 347.828312
-0.318414 -1.407279 3.458715 15.000000 23 347.828314
-0.301211 -1.332312 2.569475 32.000000 21 347.828317
-0.291800 -1.290677 2.016091 37.000000 19 347.828319
-0.286034 -1.265163 1.629048 39.000000 17 347.828322
-0.065456 -0.216084 3.733152 98.000000 30 347.828330
-0.107580 -0.388800 3.713457 97.000000 29 347.828332
-0.218756 -0.913391 3.651086 96.000000 26 347.828335
-0.291478 -1.277889 3.618537 92.000000 24 347.828337
-0.312263 -1.371191 2.970303 27.000000 22 347.828340
-0.299546 -1.316389 2.278428 37.000000 20 347.828343
-0.289489 -1.272180 1.801775 38.000000 18 347.828345
-0.283846 -1.247371 1.465106 39.000000 16 347.828348
-0.279342 -1.242606 1.331375 40.000000 15 347.828305
-0.275601 -1.225955 1.095221 44.000000 13 347.828308
-0.272158 -1.209651 0.897520 43.000000 11 347.828310
-0.269684 -1.198644 0.729409 42.000000 9 347.828313
-0.266999 -1.185744 0.579386 39.000000 7 347.828316
-0.265849 -1.179675 0.445160 34.000000 5 347.828318
-0.260262 -1.154883 0.316234 12.000000 3 347.828321
-0.258535 -1.146288 0.198237 14.000000 1 347.828323
-0.278728 -1.230838 1.204769 42.000000 14 347.828331
-0.273751 -1.208849 0.986048 44.000000 12 347.828334
-0.271029 -1.195861 0.805882 45.000000 10 347.828336
-0.272107 -1.200604 0.656548 49.000000 8 347.828339
-0.270685 -1.193365 0.514797 39.000000 6 347.828341
-0.263659 -1.161451 0.377971 24.000000 4 347.828344
-0.261091 -1.149208 0.256377 10.000000 2 347.828346
-0.266894 -1.173803 0.142234 28.000000 0 347.828349
-0.018365 -0.042461 3.749131 96.000000 31 347.828360
-0.143178 -0.560839 3.680171 98.000000 28 347.828362
-0.188630 -0.735223 3.672681 90.000000 27 347.828365
-0.257656 -1.092976 3.634888 91.000000 25 347.828367
-0.323324 -1.406159 3.458715 15.000000 23 347.828370
-0.305860 -1.331253 2.569475 32.000000 21 347.828372
-0.296304 -1.289650 2.016091 37.000000 19 347.828375
-0.290449 -1.264156 1.629048 39.000000 17 347.828377
-0.066210 -0.215854 3.733152 98.000000 30 347.828385
-0.108937 -0.388422 3.713457 97.000000 29 347.828388
-0.221943 -0.912622 3.651086 96.000000 26 347.828390
-0.295937 -1.276864 3.618537 92.000000 24 347.828393
-0.317539 -1.372214 2.974804 27.000000 22 347.828395
-0.303552 -1.312794 2.274162 37.000000 20 347.828398
-0.293928 -1.271162 1.801775 38.000000 18 347.828401
-0.288198 -1.246372 1.465106 39.000000 16 347.828403
-0.283678 -1.241623 1.331375 40.000000 15 347.828361
-0.279012 -1.221191 1.092083 42.000000 13 347.828363
-0.276378 -1.208694 0.897520 43.000000 11 347.828366
-0.273866 -1.197695 0.729409 42.000000 9 347.828369
-0.271136 -1.184805 0.579386 39.000000 7 347.828371
-0.269965 -1.178740 0.445160 33.000000 5 347.828374
-0.263195 -1.149179 0.315301 12.000000 3 347.828376
-0.262534 -1.145379 0.198237 14.000000 1 347.828379
-0.283023 -1.229858 1.204769 42.000000 14 347.828387
-0.277969 -1.207886 0.986048 44.000000 12 347.828389
-0.275202 -1.194908 0.805882 45.000000 10 347.828392
-0.276296 -1.199647 0.656548 49.000000 8 347.828394
-0.274849 -1.192412 0.514797 39.000000 6 347.828397
-0.267712 -1.160523 0.377971 24.000000 4 347.828399
-0.265101 -1.148290 0.256377 10.000000 2 347.828402
-0.270990 -1.172864 0.142234 27.000000 0 347.828404
-0.018513 -0.042396 3.749131 97.000000 31 347.828415
-0.145135 -0.560336 3.680171 98.000000 28 347.828418
-0.191195 -0.734560 3.672681 90.000000 27 347.828420
-0.261470 -1.092070 3.634888 91.000000 25 347.828423
-0.328231 -1.405022 3.458715 17.000000 23 347.828425
-0.310505 -1.330177 2.569475 31.000000 21 347.828428
-0.300804 -1.288608 2.016091 37.000000 19 347.828430
-0.294860 -1.263135 1.629048 39.000000 17 347.828433
-0.066838 -0.215357 3.728161 98.000000 30 347.828441
-0.110224 -0.388058 3.713457 97.000000 29 347.828443
-0.224968 -0.911881 3.651086 96.000000 26 347.828446
-0.300170 -1.275875 3.618537 92.000000 24 347.828448
-0.322327 -1.371097 2.974804 28.000000 22 347.828451
-0.308133 -1.311726 2.274162 36.000000 20 347.828454
-0.297674 -1.267194 1.797786 38.000000 18 347.828456
-0.291555 -1.242109 1.461431 39.000000 16 347.828459
-0.288010 -1.240625 1.331375 40.000000 15 347.828416
-0.283273 -1.220209 1.092083 42.000000 13 347.828419
-0.280596 -1.207721 0.897520 43.000000 11 347.828421
-0.278045 -1.196732 0.729409 42.000000 9 347.828424
-0.275064 -1.183899 0.579386 39.000000 7 347.828427
-0.272786 -1.173166 0.443751 33.000000 5 347.828429
-0.267204 -1.148254 0.315301 12.000000 3 347.828432
-0.266531 -1.144455 0.198237 13.000000 1 347.828434
-0.287314 -1.228863 1.204769 42.000000 14 347.828442
-0.282184 -1.206908 0.986048 44.000000 12 347.828445
-0.279163 -1.193988 0.805882 45.000000 10 347.828447
-0.280273 -1.198724 0.656548 49.000000 8 347.828450
-0.277726 -1.186896 0.513155 39.000000 6 347.828452
-0.271559 -1.159629 0.377971 24.000000 4 347.828455
-0.268907 -1.147404 0.256377 9.000000 2 347.828457
-0.274878 -1.171959 0.142234 27.000000 0 347.828460
-0.018654 -0.042335 3.749131 97.000000 31 347.828471
-0.146993 -0.559852 3.680171 98.000000 28 347.828473
-0.193630 -0.733922 3.672681 91.000000 27 347.828476
-0.265442 -1.092648 3.639660 91.000000 25 347.828478
-0.332437 -1.402025 3.454113 17.000000 23 347.828481
-0.315467 -1.331471 2.573864 31.000000 21 347.828483
-0.305075 -1.287604 2.016091 37.000000 19 347.828486
-0.298308 -1.259031 1.625211 39.000000 17 347.828489
-0.067589 -0.215123 3.728161 98.000000 30 347.828496
-0.111578 -0.387671 3.713457 98.000000 29 347.828499
-0.228149 -0.911090 3.651086 96.000000 26 347.828501
-0.304622 -1.274820 3.618537 92.000000 24 347.828504
-0.327377 -1.372139 2.979305 27.000000 22 347.828507
-0.311876 -1.308161 2.269897 36.000000 20 347.828509
-0.301874 -1.266200 1.797786 38.000000 18 347.828512
-0.295889 -1.241084 1.461431 39.000000 16 347.828514
-0.292122 -1.239663 1.331375 40.000000 15 347.828472
-0.287318 -1.219263 1.092083 42.000000 13 347.828474
-0.284599 -1.206784 0.897520 44.000000 11 347.828477
-0.282012 -1.195803 0.729409 42.000000 9 347.828480
-0.279195 -1.182932 0.579386 39.000000 7 347.828482
-0.276879 -1.172207 0.443751 32.000000 5 347.828485
-0.271011 -1.147361 0.315301 12.000000 3 347.828487
-0.270325 -1.143565 0.198237 13.000000 1 347.828490
-0.290525 -1.224270 1.201445 42.000000 14 347.828498
-0.286184 -1.205966 0.986048 44.000000 12 347.828500
-0.283329 -1.193007 0.805882 45.000000 10 347.828503
-0.284455 -1.197739 0.656548 49.000000 8 347.828505
-0.281867 -1.185920 0.513155 39.000000 6 347.828508
-0.275605 -1.158674 0.377971 23.000000 4 347.828510
-0.272911 -1.146459 0.256377 9.000000 2 347.828513
-0.278967 -1.170992 0.142234 27.000000 0 347.828515
-0.018802 -0.042269 3.749131 97.000000 31 347.828526
-0.149146 -0.560086 3.685111 98.000000 28 347.828529
-0.196191 -0.733242 3.672681 91.000000 27 347.828531
-0.269255 -1.091715 3.639660 91.000000 25 347.828534
-0.337329 -1.400856 3.454113 17.000000 23 347.828536
-0.320113 -1.330362 2.573864 32.000000 21 347.828539
-0.308910 -1.283795 2.011958 37.000000 19 347.828541
-0.302701 -1.257982 1.625211 39.000000 17 347.828544
-0.068340 -0.214885 3.728161 98.000000 30 347.828552
-0.112931 -0.387280 3.713457 98.000000 29 347.828554
-0.231328 -0.910288 3.651086 96.000000 26 347.828557
-0.309070 -1.273749 3.618537 92.000000 24 347.828559
-0.331652 -1.368871 2.974804 27.000000 22 347.828562
-0.316440 -1.307064 2.269897 36.000000 20 347.828565
-0.306292 -1.265138 1.797786 38.000000 18 347.828567
-0.300219 -1.240044 1.461431 39.000000 16 347.828570
-0.296448 -1.238636 1.331375 40.000000 15 347.828527
-0.291572 -1.218253 1.092083 42.000000 13 347.828530
-0.288810 -1.205783 0.897520 44.000000 11 347.828533
-0.286185 -1.194811 0.729409 42.000000 9 347.828535
-0.282241 -1.177442 0.577513 39.000000 7 347.828538
-0.280969 -1.171233 0.443751 32.000000 5 347.828540
-0.275014 -1.146408 0.315301 11.000000 3 347.828543
-0.274315 -1.142614 0.198237 13.000000 1 347.828545
-0.294797 -1.223248 1.201445 44.000000 14 347.828553
-0.290392 -1.204960 0.986048 46.000000 12 347.828556
-0.286481 -1.187819 0.803349 47.000000 10 347.828558
-0.288635 -1.196738 0.656548 49.000000 8 347.828561
-0.286005 -1.184928 0.513155 39.000000 6 347.828563
-0.279648 -1.157705 0.377971 23.000000 4 347.828566
-0.276911 -1.145499 0.256377 10.000000 2 347.828568
-0.284228 -1.174867 0.142436 26.000000 0 347.828571
-0.018949 -0.042203 3.749131 97.000000 31 347.828582
-0.151101 -0.559562 3.685111 98.000000 28 347.828584
-0.198749 -0.732553 3.672681 91.000000 27 347.828587
-0.273064 -1.090768 3.639660 91.000000 25 347.828589
-0.342217 -1.399670 3.454113 17.000000 23 347.828592
-0.325323 -1.331564 2.578252 33.000000 21 347.828594
-0.313389 -1.282709 2.011958 37.000000 19 347.828597
-0.306329 -1.253803 1.621374 39.000000 17 347.828600
-0.069090 -0.214646 3.728161 98.000000 30 347.828607
-0.114282 -0.386883 3.713457 98.000000 29 347.828610
-0.234504 -0.909475 3.651086 96.000000 26 347.828612
-0.313514 -1.272662 3.618537 93.000000 24 347.828615
-0.336428 -1.367705 2.974804 28.000000 22 347.828618
-0.321001 -1.305951 2.269897 37.000000 20 347.828620
-0.310707 -1.264061 1.797786 38.000000 18 347.828623
-0.304546 -1.238988 1.461431 39.000000 16 347.828625
-0.300770 -1.237594 1.331375 42.000000 15 347.828583
-0.295823 -1.217228 1.092083 42.000000 13 347.828585
-0.293017 -1.204768 0.897520 45.000000 11 347.828588
-0.290354 -1.193805 0.729409 42.000000 9 347.828591
-0.286350 -1.176449 0.577513 39.000000 7 347.828593
-0.283921 -1.165584 0.442341 33.000000 5 347.828596
-0.277851 -1.140669 0.314368 11.000000 3 347.828598
-0.278302 -1.141650 0.198237 13.000000 1 347.828601
-0.299065 -1.222211 1.201445 42.000000 14 347.828609
-0.293636 -1.200012 0.983104 44.000000 12 347.828611
-0.290625 -1.186812 0.803349 47.000000 10 347.828614
-0.291731 -1.191315 0.654450 49.000000 8 347.828616
-0.289015 -1.179336 0.511512 39.000000 6 347.828619
-0.283687 -1.156722 0.377971 24.000000 4 347.828621
-0.280908 -1.144526 0.256377 8.000000 2 347.828624
-0.288327 -1.173868 0.142436 27.000000 0 347.828627
-0.019096 -0.042137 3.749131 97.000000 31 347.828637
-0.153053 -0.559031 3.685111 98.000000 28 347.828640
-0.201305 -0.731854 3.672681 91.000000 27 347.828642
-0.276870 -1.089809 3.639660 91.000000 25 347.828645
-0.347101 -1.398467 3.454113 17.000000 23 347.828647
-0.330546 -1.332746 2.582641 35.000000 21 347.828650
-0.317865 -1.281607 2.011958 37.000000 19 347.828653
-0.310704 -1.252726 1.621374 39.000000 17 347.828655
-0.069838 -0.214403 3.728161 98.000000 30 347.828663
-0.115632 -0.386482 3.713457 97.000000 29 347.828665
-0.237678 -0.908651 3.651086 96.000000 26 347.828668
-0.317955 -1.271560 3.618537 92.000000 24 347.828671
-0.340673 -1.364410 2.970303 27.000000 22 347.828673
-0.325558 -1.304823 2.269897 37.000000 20 347.828676
-0.315117 -1.262969 1.797786 38.000000 18 347.828678
-0.308048 -1.234628 1.457756 40.000000 16 347.828681
-0.305088 -1.236536 1.331375 40.000000 15 347.828638
-0.300070 -1.216188 1.092083 42.000000 13 347.828641
-0.297221 -1.203738 0.897520 45.000000 11 347.828644
-0.293457 -1.188483 0.727091 40.000000 9 347.828646
-0.290455 -1.175443 0.577513 40.000000 7 347.828649
-0.287987 -1.164586 0.442341 33.000000 5 347.828651
-0.281831 -1.139692 0.314368 11.000000 3 347.828654
-0.281089 -1.135837 0.197791 13.000000 1 347.828656
-0.303330 -1.221160 1.201445 42.000000 14 347.828664
-0.297823 -1.198980 0.983104 44.000000 12 347.828667
-0.294766 -1.185790 0.803349 45.000000 10 347.828669
-0.295887 -1.190290 0.654450 50.000000 8 347.828672
-0.293130 -1.178320 0.511512 39.000000 6 347.828674
-0.287723 -1.155724 0.377971 23.000000 4 347.828677
-0.284901 -1.143538 0.256377 8.000000 2 347.828679
-0.292423 -1.172854 0.142436 26.000000 0 347.828682
-0.019243 -0.042070 3.749131 97.000000 31 347.828693
-0.155003 -0.558493 3.685111 98.000000 28 347.828695
-0.203858 -0.731147 3.672681 91.000000 27 347.828698
-0.280672 -1.088836 3.639660 91.000000 25 347.828700
-0.351980 -1.397247 3.454113 17.000000 23 347.828703
-0.335196 -1.331583 2.582641 35.000000 21 347.828705
-0.322336 -1.280490 2.011958 37.000000 19 347.828708
-0.315075 -1.251634 1.621374 39.000000 17 347.828711
-0.070586 -0.214158 3.728161 98.000000 30 347.828718
-0.116980 -0.386076 3.713457 97.000000 29 347.828721
-0.240848 -0.907816 3.651086 96.000000 26 347.828723
-0.322816 -1.272115 3.623230 92.000000 24 347.828726
-0.345434 -1.363212 2.970303 28.000000 22 347.828729
-0.330110 -1.303679 2.269897 37.000000 20 347.828731
-0.318784 -1.258940 1.793796 38.000000 18 347.828734
-0.312356 -1.233545 1.457756 40.000000 16 347.828736
-0.308536 -1.232004 1.327870 40.000000 15 347.828694
-0.303368 -1.211357 1.088945 44.000000 13 347.828697
-0.301421 -1.202693 0.897520 43.000000 11 347.828699
-0.297604 -1.187452 0.727091 40.000000 9 347.828702
-0.294556 -1.174422 0.577513 40.000000 7 347.828704
-0.290883 -1.158920 0.440932 33.000000 5 347.828707
