# .PCD v.7 - Point Cloud Data file format
VERSION .7
FIELDS x y z intensity ring timestamp
SIZE 4 4 4 4 2 8
TYPE F F F F U D
COUNT 1 1 1 1 1 1
WIDTH 905
HEIGHT 1
VIEWPOINT 0 0 0 1 0 0 0
POINTS 905
DATA ascii
-0.396803 -0.560502 3.325120 60.000000 27 347.434061
-0.733137 -1.079777 4.217039 93.000000 25 347.434064
-0.758173 -1.130021 3.265409 5.000000 23 347.434066
-0.751501 -1.120490 2.538754 31.000000 21 347.434069
-0.732365 -1.091955 2.003692 37.000000 19 347.434071
-0.715356 -1.066590 1.613700 39.000000 17 347.434074
-0.157532 -0.201658 4.252280 101.000000 30 347.434082
-0.274198 -0.369351 4.240427 99.000000 29 347.434084
-0.617301 -0.895493 4.222112 22.000000 26 347.434087
-0.823740 -1.223127 4.064351 18.000000 24 347.434089
-0.776644 -1.154059 2.938797 25.000000 22 347.434092
-0.744820 -1.107179 2.252833 35.000000 20 347.434095
-0.721520 -1.072540 1.785817 38.000000 18 347.434097
-0.710265 -1.055805 1.457756 40.000000 16 347.434100
-0.702183 -1.049715 1.320861 39.000000 15 347.434057
-0.692152 -1.034715 1.085808 42.000000 13 347.434060
-0.684910 -1.023502 0.892037 43.000000 11 347.434063
-0.678361 -1.013711 0.724773 42.000000 9 347.434065
-0.670980 -1.002303 0.575639 39.000000 7 347.434068
-0.664871 -0.992802 0.440932 31.000000 5 347.434070
-0.650538 -0.971400 0.313436 9.000000 3 347.434073
-0.654031 -0.976248 0.198237 9.000000 1 347.434075
-0.697078 -1.038549 1.194795 40.000000 14 347.434083
-0.686253 -1.022418 0.980161 44.000000 12 347.434086
-0.678735 -1.010835 0.800817 47.000000 10 347.434088
-0.681195 -1.014495 0.652352 52.000000 8 347.434091
-0.677055 -1.007948 0.511512 38.000000 6 347.434093
-0.664273 -0.988547 0.377971 18.000000 4 347.434096
-0.655012 -0.974031 0.141025 16.000000 0 347.434101
-0.035802 -0.035896 4.259111 100.000000 31 347.434112
-0.299942 -0.421643 3.289970 19.000000 28 347.434114
-0.398758 -0.559113 3.325120 47.000000 27 347.434117
-0.736902 -1.077211 4.217039 92.000000 25 347.434119
-0.766490 -1.133841 3.283819 6.000000 23 347.434122
-0.756749 -1.119845 2.543143 31.000000 21 347.434124
-0.736172 -1.089391 2.003692 37.000000 19 347.434127
-0.719075 -1.064087 1.613700 39.000000 17 347.434130
-0.158235 -0.201106 4.252280 101.000000 30 347.434137
-0.275486 -0.368391 4.240427 99.000000 29 347.434140
-0.620423 -0.893333 4.222112 32.000000 26 347.434142
-0.828974 -1.221673 4.069043 17.000000 24 347.434145
-0.780668 -1.151341 2.938797 25.000000 22 347.434148
-0.750143 -1.106731 2.257098 36.000000 20 347.434150
-0.725259 -1.070014 1.785817 38.000000 18 347.434153
-0.713946 -1.053319 1.457756 39.000000 16 347.434155
-0.705843 -1.047257 1.320861 40.000000 15 347.434113
-0.695760 -1.032293 1.085808 42.000000 13 347.434115
-0.688478 -1.021105 0.892037 43.000000 11 347.434118
-0.684372 -1.015010 0.727091 42.000000 9 347.434121
-0.674475 -0.999954 0.575639 39.000000 7 347.434123
-0.668332 -0.990475 0.440932 32.000000 5 347.434126
-0.653925 -0.969123 0.313436 11.000000 3 347.434128
-0.660221 -0.978086 0.198683 4.000000 1 347.434131
-0.700699 -1.036110 1.194795 40.000000 14 347.434139
-0.689818 -1.020016 0.980161 46.000000 12 347.434141
-0.682259 -1.008460 0.800817 45.000000 10 347.434144
-0.684732 -1.012111 0.652352 49.000000 8 347.434146
-0.680569 -1.005579 0.511512 38.000000 6 347.434149
-0.667720 -0.986222 0.377971 21.000000 4 347.434151
-0.035927 -0.035771 4.259111 100.000000 31 347.434167
-0.300506 -0.419331 3.280091 11.000000 28 347.434170
-0.400112 -0.556891 3.320225 47.000000 27 347.434172
-0.741505 -1.075862 4.221810 93.000000 25 347.434175
-0.770443 -1.131159 3.283819 6.000000 23 347.434177
-0.760653 -1.117197 2.543143 31.000000 21 347.434180
-0.739971 -1.086815 2.003692 37.000000 19 347.434183
-0.724589 -1.064220 1.617537 39.000000 17 347.434185
-0.158936 -0.200553 4.252280 101.000000 30 347.434193
-0.276770 -0.367427 4.240427 99.000000 29 347.434195
-0.623537 -0.891162 4.222112 88.000000 26 347.434198
-0.835181 -1.221620 4.078429 16.000000 24 347.434201
-0.784682 -1.148609 2.938797 25.000000 22 347.434203
-0.754002 -1.104106 2.257098 36.000000 20 347.434206
-0.730690 -1.069965 1.789807 38.000000 18 347.434208
-0.717619 -1.050821 1.457756 40.000000 16 347.434211
-0.709494 -1.044787 1.320861 40.000000 15 347.434168
-0.699359 -1.029858 1.085808 40.000000 13 347.434171
-0.692038 -1.018695 0.892037 43.000000 11 347.434174
-0.687911 -1.012615 0.727091 42.000000 9 347.434176
-0.677961 -0.997594 0.575639 39.000000 7 347.434179
-0.671786 -0.988136 0.440932 32.000000 5 347.434181
-0.657304 -0.966834 0.313436 10.000000 3 347.434184
-0.704311 -1.033657 1.194795 42.000000 14 347.434194
-0.695650 -1.020942 0.983104 46.000000 12 347.434197
-0.685775 -1.006072 0.800817 47.000000 10 347.434199
-0.690817 -1.013465 0.654450 49.000000 8 347.434202
-0.684075 -1.003197 0.511512 38.000000 6 347.434204
-0.671158 -0.983885 0.377971 21.000000 4 347.434207
-0.036052 -0.035645 4.259111 100.000000 31 347.434223
-0.301058 -0.417020 3.270213 10.000000 28 347.434225
-0.402054 -0.555491 3.320225 35.000000 27 347.434228
-0.745256 -1.073267 4.221810 93.000000 25 347.434230
-0.775492 -1.130073 3.288422 7.000000 23 347.434233
-0.765904 -1.116510 2.547531 31.000000 21 347.434235
-0.745352 -1.086546 2.007825 37.000000 19 347.434238
-0.728300 -1.061684 1.617537 39.000000 17 347.434241
-0.159635 -0.199997 4.252280 101.000000 30 347.434248
-0.278374 -0.366884 4.245398 99.000000 29 347.434251
-0.626644 -0.888980 4.222112 96.000000 26 347.434253
-0.840419 -1.220119 4.083121 15.000000 24 347.434256
-0.787452 -1.144070 2.934296 24.000000 22 347.434259
-0.759329 -1.103616 2.261364 36.000000 20 347.434261
-0.734420 -1.067408 1.789807 38.000000 18 347.434264
-0.721282 -1.048309 1.457756 40.000000 16 347.434266
-0.715151 -1.045247 1.324366 40.000000 15 347.434224
-0.702950 -1.027410 1.085808 42.000000 13 347.434227
-0.697952 -1.019724 0.894778 43.000000 11 347.434229
-0.691441 -1.010207 0.727091 42.000000 9 347.434232
-0.681439 -0.995221 0.575639 39.000000 7 347.434234
-0.675231 -0.985785 0.440932 32.000000 5 347.434237
-0.663450 -0.968587 0.314368 9.000000 3 347.434239
-0.710029 -1.034271 1.198120 40.000000 14 347.434250
-0.699210 -1.018508 0.983104 44.000000 12 347.434252
-0.691724 -1.007226 0.803349 45.000000 10 347.434255
-0.694351 -1.011047 0.654450 50.000000 8 347.434257
-0.687573 -1.000803 0.511512 39.000000 6 347.434260
-0.671835 -0.977531 0.376798 22.000000 4 347.434262
-0.036176 -0.035519 4.259111 96.000000 31 347.434278
-0.302054 -0.415339 3.265274 9.000000 28 347.434281
-0.403990 -0.554084 3.320225 33.000000 27 347.434283
-0.748998 -1.070659 4.221810 93.000000 25 347.434286
-0.778321 -1.125753 3.283819 7.000000 23 347.434288
-0.769796 -1.113830 2.547531 31.000000 21 347.434291
-0.749140 -1.083938 2.007825 37.000000 19 347.434294
-0.732001 -1.059136 1.617537 39.000000 17 347.434296
-0.160332 -0.199438 4.252280 101.000000 30 347.434304
-0.279653 -0.365910 4.245398 99.000000 29 347.434306
-0.629744 -0.886787 4.222112 96.000000 26 347.434309
-0.845657 -1.218596 4.087814 15.000000 24 347.434312
-0.791441 -1.141314 2.934296 23.000000 22 347.434314
-0.763177 -1.100958 2.261364 35.000000 20 347.434317
-0.739859 -1.067315 1.793796 38.000000 18 347.434319
-0.726869 -1.048572 1.461431 39.000000 16 347.434322
-0.718795 -1.042745 1.324366 40.000000 15 347.434279
-0.706532 -1.024950 1.085808 42.000000 13 347.434282
-0.701507 -1.017281 0.894778 43.000000 11 347.434285
-0.694963 -1.007787 0.727091 42.000000 9 347.434287
-0.687541 -0.996653 0.577513 39.000000 7 347.434290
-0.681393 -0.987371 0.442341 32.000000 5 347.434292
-0.669617 -0.970308 0.315301 8.000000 3 347.434295
-0.713634 -1.031786 1.198120 40.000000 14 347.434305
-0.702761 -1.016061 0.983104 44.000000 12 347.434308
-0.695235 -1.004805 0.803349 45.000000 10 347.434310
-0.697876 -1.008617 0.654450 50.000000 8 347.434313
-0.691062 -0.998397 0.511512 39.000000 6 347.434315
-0.675243 -0.975180 0.376798 22.000000 4 347.434318
-0.036300 -0.035393 4.259111 97.000000 31 347.434334
-0.303042 -0.413656 3.260334 6.000000 28 347.434336
-0.405922 -0.552671 3.320225 23.000000 27 347.434339
-0.752731 -1.068038 4.221810 92.000000 25 347.434341
-0.784479 -1.126235 3.293024 8.000000 23 347.434344
-0.775049 -1.113102 2.551920 31.000000 21 347.434347
-0.754527 -1.083626 2.011958 37.000000 19 347.434349
-0.737526 -1.059205 1.621374 38.000000 17 347.434352
-0.161027 -0.198877 4.252280 101.000000 30 347.434359
-0.280929 -0.364931 4.245398 99.000000 29 347.434362
-0.632835 -0.884583 4.222112 96.000000 26 347.434365
-0.851883 -1.218465 4.097200 14.000000 24 347.434367
-0.795420 -1.138544 2.934296 23.000000 22 347.434370
-0.768509 -1.100426 2.265630 35.000000 20 347.434372
-0.743580 -1.064726 1.793796 38.000000 18 347.434375
-0.730524 -1.046028 1.461431 39.000000 16 347.434377
-0.724465 -1.043159 1.327870 39.000000 15 347.434335
-0.712326 -1.025675 1.088945 42.000000 13 347.434338
-0.705054 -1.014826 0.894778 43.000000 11 347.434340
-0.701005 -1.008994 0.729409 40.000000 9 347.434343
-0.691016 -0.994247 0.577513 39.000000 7 347.434345
-0.684835 -0.984986 0.442341 32.000000 5 347.434348
-0.673000 -0.967964 0.315301 4.000000 3 347.434350
-0.719367 -1.032353 1.201445 40.000000 14 347.434361
-0.708614 -1.016918 0.986048 44.000000 12 347.434363
-0.698738 -1.002373 0.803349 44.000000 10 347.434366
-0.701392 -1.006175 0.654450 49.000000 8 347.434368
-0.694543 -0.995979 0.511512 39.000000 6 347.434371
-0.681424 -0.976803 0.377971 22.000000 4 347.434373
-0.036423 -0.035266 4.259111 100.000000 31 347.434389
-0.304023 -0.411970 3.255395 5.000000 28 347.434392
-0.407849 -0.551251 3.320225 9.000000 27 347.434394
-0.756454 -1.065404 4.221810 92.000000 25 347.434397
-0.783917 -1.117093 3.274614 7.000000 23 347.434399
-0.780305 -1.112351 2.556309 31.000000 21 347.434402
-0.758305 -1.080985 2.011958 37.000000 19 347.434404
-0.741219 -1.056624 1.621374 38.000000 17 347.434407
-0.161720 -0.198314 4.252280 101.000000 30 347.434415
-0.282529 -0.364370 4.250370 99.000000 29 347.434417
-0.636655 -0.883389 4.226952 96.000000 26 347.434420
-0.857125 -1.216895 4.101892 14.000000 24 347.434422
-0.799389 -1.135761 2.934296 23.000000 22 347.434425
-0.772345 -1.097736 2.265630 35.000000 20 347.434427
-0.747292 -1.062124 1.793796 38.000000 18 347.434430
-0.734171 -1.043472 1.461431 39.000000 16 347.434433
-0.728102 -1.040623 1.327870 39.000000 15 347.434390
-0.715902 -1.023182 1.088945 42.000000 13 347.434393
-0.710990 -1.015785 0.897520 43.000000 11 347.434395
-0.704522 -1.006541 0.729409 42.000000 9 347.434398
-0.697142 -0.995626 0.579386 39.000000 7 347.434401
-0.688269 -0.982590 0.442341 33.000000 5 347.434403
-0.722966 -1.029836 1.201445 40.000000 14 347.434416
-0.712159 -1.014438 0.986048 44.000000 12 347.434419
-0.702233 -0.999927 0.803349 45.000000 10 347.434421
-0.704900 -1.003721 0.654450 50.000000 8 347.434424
-0.700730 -0.997412 0.513155 39.000000 6 347.434426
-0.684830 -0.974419 0.377971 22.000000 4 347.434429
-0.036512 -0.035111 4.254112 100.000000 31 347.434445
-0.304995 -0.410283 3.250456 5.000000 28 347.434447
-0.410379 -0.550640 3.325120 5.000000 27 347.434450
-0.760169 -1.062757 4.221810 93.000000 25 347.434452
-0.801345 -1.133493 3.329844 6.000000 23 347.434455
-0.785566 -1.111577 2.560698 31.000000 21 347.434457
-0.763698 -1.080630 2.016091 37.000000 19 347.434460
-0.746753 -1.056648 1.625211 39.000000 17 347.434462
-0.162412 -0.197748 4.252280 100.000000 30 347.434470
-0.283799 -0.363382 4.250370 99.000000 29 347.434473
-0.639734 -0.881162 4.226952 96.000000 26 347.434475
-0.862366 -1.215303 4.106586 14.000000 24 347.434478
-0.803349 -1.132963 2.934296 23.000000 22 347.434480
-0.777681 -1.097162 2.269897 35.000000 20 347.434483
-0.752738 -1.061968 1.797786 38.000000 18 347.434486
-0.739770 -1.043668 1.465106 39.000000 16 347.434488
-0.731730 -1.038075 1.327870 40.000000 15 347.434446
-0.719469 -1.020677 1.088945 40.000000 13 347.434448
-0.714531 -1.013297 0.897520 43.000000 11 347.434451
-0.708032 -1.004075 0.729409 42.000000 9 347.434453
-0.700613 -0.993186 0.579386 39.000000 7 347.434456
-0.694461 -0.984101 0.443751 33.000000 5 347.434459
-0.726556 -1.027306 1.201445 40.000000 14 347.434471
-0.715696 -1.011946 0.986048 44.000000 12 347.434474
-0.708209 -1.000989 0.805882 45.000000 10 347.434477
-0.711021 -1.004959 0.656548 50.000000 8 347.434479
-0.704207 -0.994960 0.513155 39.000000 6 347.434482
-0.688227 -0.972022 0.377971 22.000000 4 347.434484
-0.036635 -0.034983 4.254112 100.000000 31 347.434500
-0.305959 -0.408595 3.245517 4.000000 28 347.434503
-0.412299 -0.549204 3.325120 3.000000 27 347.434505
-0.763874 -1.060097 4.221810 91.000000 25 347.434508
-0.805297 -1.130689 3.329844 6.000000 23 347.434510
-0.789442 -1.108828 2.560698 31.000000 21 347.434513
-0.767465 -1.077957 2.016091 37.000000 19 347.434515
-0.750437 -1.054035 1.625211 39.000000 17 347.434518
-0.163101 -0.197180 4.252280 100.000000 30 347.434526
-0.285066 -0.362389 4.250370 100.000000 29 347.434528
-0.642806 -0.878923 4.226952 95.000000 26 347.434531
-0.867606 -1.213689 4.111278 14.000000 24 347.434533
-0.808564 -1.131924 2.938797 23.000000 22 347.434536
-0.781506 -1.094440 2.269897 36.000000 20 347.434539
-0.756440 -1.059334 1.797786 38.000000 18 347.434541
-0.743408 -1.041080 1.465106 40.000000 16 347.434544
-0.735349 -1.035515 1.327870 40.000000 15 347.434501
-0.725281 -1.021334 1.092083 40.000000 13 347.434504
-0.718064 -1.010796 0.897520 43.000000 11 347.434506
-0.711532 -1.001598 0.729409 42.000000 9 347.434509
-0.704075 -0.990735 0.579386 39.000000 7 347.434512
-0.697892 -0.981671 0.443751 33.000000 5 347.434514
-0.732305 -1.027805 1.204769 40.000000 14 347.434527
-0.719224 -1.009441 0.986048 42.000000 12 347.434530
-0.711699 -0.998511 0.805882 45.000000 10 347.434532
-0.714525 -1.002471 0.656548 49.000000 8 347.434535
-0.707676 -0.992496 0.513155 39.000000 6 347.434537
-0.694438 -0.973571 0.379143 22.000000 4 347.434540
-0.036757 -0.034855 4.254112 100.000000 31 347.434556
-0.306915 -0.406904 3.240577 4.000000 28 347.434558
-0.414213 -0.547761 3.325120 3.000000 27 347.434561
-0.768447 -1.058633 4.226583 91.000000 25 347.434563
-0.827462 -1.153268 3.403485 9.000000 23 347.434566
-0.794703 -1.108012 2.565086 31.000000 21 347.434568
-0.772863 -1.077558 2.020224 37.000000 19 347.434571
-0.755980 -1.054015 1.629048 39.000000 17 347.434573
-0.163788 -0.196610 4.252280 101.000000 30 347.434581
-0.286329 -0.361391 4.250370 100.000000 29 347.434584
-0.646617 -0.877687 4.231791 95.000000 26 347.434586
-0.872846 -1.212053 4.115971 14.000000 24 347.434589
-0.813783 -1.130863 2.943298 24.000000 22 347.434591
-0.786844 -1.093823 2.274162 36.000000 20 347.434594
-0.761893 -1.059134 1.801775 38.000000 18 347.434597
-0.747038 -1.038478 1.465106 40.000000 16 347.434599
-0.741034 -1.035842 1.331375 39.000000 15 347.434557
-0.728842 -1.018795 1.092083 42.000000 13 347.434559
-0.724021 -1.011684 0.900261 44.000000 11 347.434562
-0.717602 -1.002710 0.731727 40.000000 9 347.434565
-0.710228 -0.992040 0.581259 39.000000 7 347.434567
-0.704107 -0.983129 0.445160 33.000000 5 347.434570
-0.735888 -1.025242 1.204769 42.000000 14 347.434583
-0.722743 -1.006925 0.986048 44.000000 12 347.434585
-0.715180 -0.996021 0.805882 45.000000 10 347.434588
-0.718019 -0.999970 0.656548 49.000000 8 347.434590
-0.711136 -0.990020 0.513155 39.000000 6 347.434593
-0.697833 -0.971141 0.379143 23.000000 4 347.434595
-0.036878 -0.034726 4.254112 100.000000 31 347.434611
-0.307863 -0.405212 3.235638 4.000000 28 347.434614
-0.416123 -0.546312 3.325120 3.000000 27 347.434616
-0.772138 -1.055944 4.226583 91.000000 25 347.434619
-0.846360 -1.170956 3.463318 16.000000 23 347.434621
-0.798566 -1.105232 2.565086 31.000000 21 347.434624
-0.776620 -1.074854 2.020224 37.000000 19 347.434626
-0.759654 -1.051369 1.629048 39.000000 17 347.434629
-0.164473 -0.196037 4.252280 101.000000 30 347.434637
-0.287589 -0.360390 4.250370 101.000000 29 347.434639
-0.650426 -0.876434 4.236629 96.000000 26 347.434642
-0.879098 -1.211793 4.125357 14.000000 24 347.434644
-0.819003 -1.129778 2.947799 22.000000 22 347.434647
-0.792188 -1.093181 2.278428 36.000000 20 347.434650
-0.765586 -1.056468 1.801775 38.000000 18 347.434652
-0.752647 -1.038610 1.468782 39.000000 16 347.434655
-0.744645 -1.033249 1.331375 39.000000 15 347.434612
-0.732394 -1.016245 1.092083 42.000000 13 347.434615
-0.727548 -1.009151 0.900261 44.000000 11 347.434617
-0.721098 -1.000200 0.731727 42.000000 9 347.434620
-0.713687 -0.989555 0.581259 39.000000 7 347.434623
-0.707535 -0.980665 0.445160 33.000000 5 347.434625
-0.739462 -1.022667 1.204769 42.000000 14 347.434638
-0.728622 -1.007671 0.988991 44.000000 12 347.434641
-0.718653 -0.993518 0.805882 45.000000 10 347.434643
-0.721506 -0.997458 0.656548 50.000000 8 347.434646
-0.717356 -0.991357 0.514797 39.000000 6 347.434648
-0.701218 -0.968699 0.379143 23.000000 4 347.434651
-0.267140 -0.368908 0.155664 5.000000 2 347.434653
-0.036999 -0.034597 4.254112 100.000000 31 347.434667
-0.308803 -0.403518 3.230699 4.000000 28 347.434669
-0.417407 -0.544049 3.320225 3.000000 27 347.434672
-0.775819 -1.053242 4.226583 92.000000 25 347.434674
-0.857342 -1.177471 3.490933 17.000000 23 347.434677
-0.803829 -1.104374 2.569475 31.000000 21 347.434679
-0.780367 -1.072137 2.020224 37.000000 19 347.434682
-0.765206 -1.051303 1.632885 39.000000 17 347.434685
-0.165157 -0.195462 4.252280 100.000000 30 347.434692
-0.288845 -0.359384 4.250370 103.000000 29 347.434695
-0.654235 -0.875165 4.241469 96.000000 26 347.434697
-0.884341 -1.210110 4.130049 15.000000 24 347.434700
-0.824226 -1.128671 2.952300 21.000000 22 347.434703
-0.795999 -1.090409 2.278428 36.000000 20 347.434705
-0.769269 -1.053789 1.801775 38.000000 18 347.434708
-0.756268 -1.035976 1.468782 40.000000 16 347.434710
-0.748247 -1.030644 1.331375 40.000000 15 347.434668
-0.735937 -1.013682 1.092083 42.000000 13 347.434670
-0.733524 -1.009988 0.903003 44.000000 11 347.434673
-0.727188 -1.001261 0.734045 42.000000 9 347.434676
-0.717137 -0.987058 0.581259 40.000000 7 347.434678
-0.713774 -0.982070 0.446569 33.000000 5 347.434681
-0.743028 -1.020080 1.204769 40.000000 14 347.434694
-0.732135 -1.005122 0.988991 44.000000 12 347.434696
-0.724655 -0.994488 0.808414 45.000000 10 347.434699
-0.727656 -0.998602 0.658646 50.000000 8 347.434701
-0.720812 -0.988847 0.514797 39.000000 6 347.434704
-0.704595 -0.966246 0.379143 23.000000 4 347.434706
-0.259671 -0.355971 0.153594 8.000000 2 347.434709
-0.037119 -0.034468 4.254112 100.000000 31 347.434722
-0.310209 -0.402438 3.230699 5.000000 28 347.434725
-0.419304 -0.542588 3.320225 4.000000 27 347.434727
-0.779491 -1.050528 4.226583 93.000000 25 347.434730
-0.854514 -1.165019 3.463318 14.000000 23 347.434732
-0.807679 -1.101562 2.569475 31.000000 21 347.434735
-0.785769 -1.071675 2.024357 37.000000 19 347.434737
-0.770767 -1.051211 1.636722 39.000000 17 347.434740
-0.166027 -0.195104 4.257272 101.000000 30 347.434748
-0.290098 -0.358373 4.250370 103.000000 29 347.434750
-0.658043 -0.873881 4.246308 97.000000 26 347.434753
-0.891629 -1.211185 4.144128 16.000000 24 347.434755
-0.829452 -1.127541 2.956800 21.000000 22 347.434758
-0.801346 -1.089725 2.282694 35.000000 20 347.434761
-0.774728 -1.053525 1.805765 38.000000 18 347.434763
-0.759880 -1.033330 1.468782 40.000000 16 347.434766
-0.753946 -1.030904 1.334879 40.000000 15 347.434723
-0.741769 -1.014250 1.095221 42.000000 13 347.434726
-0.737045 -1.007422 0.903003 42.000000 11 347.434729
-0.730679 -0.998716 0.734045 42.000000 9 347.434731
-0.723316 -0.988290 0.583132 39.000000 7 347.434734
-0.717198 -0.979572 0.446569 33.000000 5 347.434736
-0.746584 -1.017480 1.204769 40.000000 14 347.434749
-0.738030 -1.005819 0.991934 44.000000 12 347.434752
-0.728122 -0.991952 0.808414 45.000000 10 347.434754
-0.731137 -0.996056 0.658646 50.000000 8 347.434757
-0.724260 -0.986325 0.514797 39.000000 6 347.434759
-0.710841 -0.967698 0.380315 23.000000 4 347.434762
-0.260912 -0.355063 0.153594 10.000000 2 347.434764
-0.037240 -0.034338 4.254112 100.000000 31 347.434778
-0.311135 -0.400739 3.225760 5.000000 28 347.434780
-0.420569 -0.540318 3.315330 5.000000 27 347.434783
-0.783153 -1.047800 4.226583 93.000000 25 347.434785
-0.857415 -1.160458 3.458715 14.000000 23 347.434788
-0.812943 -1.100663 2.573864 31.000000 21 347.434790
-0.789505 -1.068926 2.024357 37.000000 19 347.434793
-0.774432 -1.048514 1.636722 39.000000 17 347.434796
-0.166517 -0.194304 4.252280 101.000000 30 347.434803
-0.291347 -0.357358 4.250370 102.000000 29 347.434806
-0.662610 -0.873583 4.255986 97.000000 26 347.434808
-0.897907 -1.210837 4.153513 17.000000 24 347.434811
-0.834679 -1.126389 2.961301 21.000000 22 347.434814
-0.805145 -1.086921 2.282694 35.000000 20 347.434816
-0.778401 -1.050815 1.805765 37.000000 18 347.434819
-0.765500 -1.033395 1.472457 39.000000 16 347.434821
-0.757540 -1.028266 1.334879 40.000000 15 347.434779
-0.745304 -1.011654 1.095221 42.000000 13 347.434781
-0.740557 -1.004843 0.903003 44.000000 11 347.434784
-0.734161 -0.996160 0.734045 42.000000 9 347.434787
-0.726761 -0.985759 0.583132 39.000000 7 347.434789
-0.720613 -0.977063 0.446569 33.000000 5 347.434792
-0.752351 -1.017871 1.208094 40.000000 14 347.434805
-0.741537 -1.003236 0.991934 44.000000 12 347.434807
-0.731580 -0.989405 0.808414 45.000000 10 347.434810
-0.734610 -0.993497 0.658646 50.000000 8 347.434812
-0.727698 -0.983791 0.514797 39.000000 6 347.434815
-0.714215 -0.965211 0.380315 23.000000 4 347.434817
-0.262149 -0.354150 0.153594 10.000000 2 347.434820
-0.037359 -0.034208 4.254112 100.000000 31 347.434833
-0.312532 -0.399651 3.225760 5.000000 28 347.434836
-0.423081 -0.539648 3.320225 8.000000 27 347.434838
-0.787704 -1.046253 4.231354 94.000000 25 347.434841
-0.861461 -1.157458 3.458715 14.000000 23 347.434843
-0.816780 -1.097818 2.573864 28.000000 21 347.434846
-0.793231 -1.066164 2.024357 37.000000 19 347.434849
-0.780001 -1.048377 1.640559 39.000000 17 347.434851
-0.167195 -0.193721 4.252280 101.000000 30 347.434859
-0.292592 -0.356339 4.250370 102.000000 29 347.434861
-0.666419 -0.872264 4.260826 97.000000 26 347.434864
-0.906259 -1.213225 4.172284 18.000000 24 347.434867
-0.839909 -1.125214 2.965802 22.000000 22 347.434869
-0.810493 -1.086195 2.286960 35.000000 20 347.434872
-0.783867 -1.050506 1.809754 37.000000 18 347.434874
-0.769103 -1.030717 1.472457 40.000000 16 347.434877
-0.763250 -1.028479 1.338384 40.000000 15 347.434834
-0.751151 -1.012173 1.098359 42.000000 13 347.434837
-0.744060 -1.002252 0.903003 44.000000 11 347.434840
-0.737634 -0.993591 0.734045 42.000000 9 347.434842
-0.730197 -0.983216 0.583132 39.000000 7 347.434845
-0.724019 -0.974541 0.446569 33.000000 5 347.434847
-0.755899 -1.015238 1.208094 40.000000 14 347.434860
-0.747448 -1.003884 0.994877 44.000000 12 347.434863
-0.737605 -0.990303 0.810947 45.000000 10 347.434865
-0.738073 -0.990927 0.658646 49.000000 8 347.434868
-0.731128 -0.981245 0.514797 39.000000 6 347.434870
-0.717580 -0.962712 0.380315 24.000000 4 347.434873
-0.257464 -0.345292 0.152215 7.000000 2 347.434875
-0.037478 -0.034077 4.254112 100.000000 31 347.434889
-0.313925 -0.398557 3.225760 6.000000 28 347.434891
-0.450853 -0.570916 3.520929 11.000000 27 347.434894
-0.791351 -1.043497 4.231354 94.000000 25 347.434896
-0.864324 -1.152881 3.454113 14.000000 23 347.434899
-0.822044 -1.096878 2.578252 28.000000 21 347.434901
-0.798636 -1.065640 2.028490 37.000000 19 347.434904
-0.783655 -1.045648 1.640559 39.000000 17 347.434907
-0.168061 -0.193354 4.257272 101.000000 30 347.434914
-0.294175 -0.355727 4.255341 101.000000 29 347.434917
-0.670227 -0.870929 4.265665 96.000000 26 347.434919
-0.913602 -1.214191 4.186363 21.000000 24 347.434922
-0.845140 -1.124015 2.970303 21.000000 22 347.434925
-0.814280 -1.083359 2.286960 35.000000 20 347.434927
-0.787529 -1.047764 1.809754 38.000000 18 347.434930
-0.772696 -1.028026 1.472457 39.000000 16 347.434932
-0.766835 -1.025809 1.338384 40.000000 15 347.434890
-0.754680 -1.009544 1.098359 40.000000 13 347.434893
-0.747554 -0.999648 0.903003 44.000000 11 347.434895
-0.741097 -0.991010 0.734045 44.000000 9 347.434898
-0.733625 -0.980661 0.583132 39.000000 7 347.434900
-0.727417 -0.972008 0.446569 32.000000 5 347.434903
-0.761679 -1.015581 1.211419 42.000000 14 347.434916
-0.750948 -1.001269 0.994877 44.000000 12 347.434918
-0.741057 -0.987722 0.810947 45.000000 10 347.434921
-0.744251 -0.991975 0.660744 49.000000 8 347.434923
-0.737383 -0.982464 0.516440 39.000000 6 347.434926
-0.720936 -0.960201 0.380315 23.000000 4 347.434928
-0.246771 -0.328553 0.149455 5.000000 2 347.434931
-0.037597 -0.033946 4.254112 100.000000 31 347.434944
-0.315315 -0.397459 3.225760 7.000000 28 347.434947
-0.516270 -0.648991 4.010452 14.000000 27 347.434949
-0.794989 -1.040729 4.231354 93.000000 25 347.434952
-0.868343 -1.149856 3.454113 14.000000 23 347.434954
-0.825868 -1.094002 2.578252 30.000000 21 347.434957
-0.802351 -1.062846 2.028490 37.000000 19 347.434960
-0.789232 -1.045464 1.644396 39.000000 17 347.434962
-0.168735 -0.192766 4.257272 101.000000 30 347.434970
-0.295415 -0.354698 4.255341 101.000000 29 347.434972
-0.673263 -0.868584 4.265665 96.000000 26 347.434975
-0.922004 -1.216496 4.205133 24.000000 24 347.434978
-0.850373 -1.122795 2.974804 21.000000 22 347.434980
-0.819631 -1.082589 2.291226 35.000000 20 347.434983
-0.793001 -1.047411 1.813744 37.000000 18 347.434985
-0.778326 -1.028025 1.476132 39.000000 16 347.434988
-0.772556 -1.025975 1.341888 40.000000 15 347.434945
-0.760541 -1.010014 1.101497 40.000000 13 347.434948
-0.751039 -0.997033 0.903003 42.000000 11 347.434951
-0.747218 -0.991956 0.736363 44.000000 9 347.434953
-0.739834 -0.981797 0.585005 39.000000 7 347.434956
-0.730805 -0.969463 0.446569 32.000000 5 347.434958
-0.765219 -1.012916 1.211419 44.000000 14 347.434971
-0.754438 -0.998641 0.994877 44.000000 12 347.434974
-0.747100 -0.988569 0.813479 45.000000 10 347.434976
-0.747709 -0.989371 0.660744 50.000000 8 347.434979
-0.740808 -0.979884 0.516440 39.000000 6 347.434981
-0.724283 -0.957679 0.380315 23.000000 4 347.434984
-0.268832 -0.355334 0.154284 5.000000 2 347.434987
-0.037715 -0.033815 4.254112 100.000000 31 347.435000
-0.317186 -0.396963 3.230699 7.000000 28 347.435002
-0.540829 -0.674986 4.181785 16.000000 27 347.435005
-0.798617 -1.037948 4.231354 95.000000 25 347.435007
-0.873534 -1.148373 3.458715 14.000000 23 347.435010
-0.831132 -1.093019 2.582641 30.000000 21 347.435013
-0.807759 -1.062279 2.032623 37.000000 19 347.435015
-0.792877 -1.042703 1.644396 39.000000 17 347.435018
-0.169406 -0.192176 4.257272 101.000000 30 347.435025
-0.296652 -0.353664 4.255341 101.000000 29 347.435028
-0.672419 -0.861272 4.241469 88.000000 26 347.435031
-0.924150 -1.210527 4.195748 26.000000 24 347.435033
-0.855608 -1.121551 2.979305 21.000000 22 347.435036
-0.824986 -1.081795 2.295492 35.000000 20 347.435038
-0.796652 -1.044637 1.813744 38.000000 18 347.435041
-0.781910 -1.025302 1.476132 39.000000 16 347.435043
-0.776133 -1.023272 1.341888 40.000000 15 347.435001
-0.764062 -1.007353 1.101497 40.000000 13 347.435004
-0.754514 -0.994405 0.903003 44.000000 11 347.435006
-0.750676 -0.989341 0.736363 44.000000 9 347.435009
-0.743256 -0.979208 0.585005 40.000000 7 347.435011
-0.734185 -0.966906 0.446569 33.000000 5 347.435014
-0.768750 -1.010239 1.211419 44.000000 14 347.435027
-0.757920 -0.996002 0.994877 44.000000 12 347.435029
-0.750546 -0.985955 0.813479 45.000000 10 347.435032
-0.751158 -0.986755 0.660744 50.000000 8 347.435034
-0.744224 -0.977292 0.516440 39.000000 6 347.435037
-0.727622 -0.955144 0.380315 24.000000 4 347.435039
-0.270070 -0.354394 0.154284 5.000000 2 347.435042
-0.037868 -0.033710 4.259111 100.000000 31 347.435055
-0.318569 -0.395853 3.230699 7.000000 28 347.435058
-0.547021 -0.677846 4.211156 17.000000 27 347.435060
-0.802235 -1.035153 4.231354 94.000000 25 347.435063
-0.878725 -1.146868 3.463318 14.000000 23 347.435065
-0.836399 -1.092013 2.587029 30.000000 21 347.435068
-0.811462 -1.059452 2.032623 37.000000 19 347.435070
-0.796512 -1.039929 1.644396 39.000000 17 347.435073
-0.170076 -0.191584 4.257272 101.000000 30 347.435081
-0.297884 -0.352627 4.255341 101.000000 29 347.435083
-0.673089 -0.855954 4.226952 48.000000 26 347.435086
-0.928370 -1.207294 4.195748 27.000000 24 347.435088
-0.859518 -1.118557 2.979305 21.000000 22 347.435091
-0.830346 -1.080977 2.299758 35.000000 20 347.435093
-0.802130 -1.044240 1.817733 38.000000 18 347.435096
-0.785484 -1.022566 1.476132 39.000000 16 347.435099
-0.781865 -1.023390 1.345393 40.000000 15 347.435056
-0.767574 -1.004680 1.101497 42.000000 13 347.435059
-0.760520 -0.995087 0.905744 42.000000 11 347.435061
-0.754125 -0.986715 0.736363 42.000000 9 347.435064
-0.746670 -0.976608 0.585005 40.000000 7 347.435067
-0.740470 -0.968148 0.447978 34.000000 5 347.435069
-0.774544 -1.010513 1.214744 44.000000 14 347.435082
-0.763851 -0.996558 0.997820 44.000000 12 347.435085
-0.753983 -0.983329 0.813479 45.000000 10 347.435087
-0.754598 -0.984127 0.660744 49.000000 8 347.435090
-0.747631 -0.974688 0.516440 39.000000 6 347.435092
-0.730951 -0.952599 0.380315 24.000000 4 347.435095
-0.037985 -0.033577 4.259111 100.000000 31 347.435111
-0.319949 -0.394739 3.230699 7.000000 28 347.435113
-0.551311 -0.678302 4.225842 22.000000 27 347.435116
-0.805844 -1.032347 4.231354 93.000000 25 347.435118
-0.883917 -1.145340 3.467920 14.000000 23 347.435121
-0.840205 -1.089087 2.587029 30.000000 21 347.435123
-0.816874 -1.058841 2.036756 37.000000 19 347.435126
-0.802095 -1.039680 1.648233 39.000000 17 347.435128
-0.170744 -0.190989 4.257272 100.000000 30 347.435136
-0.299113 -0.351585 4.255341 101.000000 29 347.435139
-0.669042 -0.844726 4.183399 7.000000 26 347.435141
-0.931522 -1.202681 4.191055 29.000000 24 347.435144
-0.864750 -1.117272 2.983805 20.000000 22 347.435146
-0.834115 -1.078072 2.299758 35.000000 20 347.435149
-0.805770 -1.041434 1.817733 38.000000 18 347.435152
-0.789049 -1.019818 1.476132 39.000000 16 347.435154
-0.785433 -1.020654 1.345393 40.000000 15 347.435112
-0.773450 -1.005079 1.104634 40.000000 13 347.435114
-0.763989 -0.992427 0.905744 42.000000 11 347.435117
-0.760267 -0.987587 0.738681 42.000000 9 347.435119
-0.750074 -0.973996 0.585005 40.000000 7 347.435122
-0.743845 -0.965558 0.447978 34.000000 5 347.435125
-0.778067 -1.007803 1.214744 42.000000 14 347.435137
-0.767325 -0.993886 0.997820 42.000000 12 347.435140
-0.757411 -0.980691 0.813479 45.000000 10 347.435143
-0.760803 -0.985079 0.662842 49.000000 8 347.435145
-0.751029 -0.972072 0.516440 39.000000 6 347.435148
-0.734272 -0.950041 0.380315 24.000000 4 347.435150
-0.038102 -0.033444 4.259111 98.000000 31 347.435166
-0.321817 -0.394221 3.235638 7.000000 28 347.435169
-0.554321 -0.677161 4.230737 29.000000 27 347.435171
-0.809442 -1.029528 4.231354 93.000000 25 347.435174
-0.887910 -1.142248 3.467920 14.000000 23 347.435176
-0.845472 -1.088039 2.591418 30.000000 21 347.435179
-0.820566 -1.055984 2.036756 36.000000 19 347.435181
-0.805719 -1.036874 1.648233 39.000000 17 347.435184
-0.171410 -0.190392 4.257272 101.000000 30 347.435192
-0.300339 -0.350538 4.255341 101.000000 29 347.435194
-0.935714 -1.199422 4.191055 30.000000 24 347.435199
-0.868645 -1.114247 2.983805 20.000000 22 347.435202
-0.839476 -1.077211 2.304024 35.000000 20 347.435205
-0.809400 -1.038615 1.817733 38.000000 18 347.435207
-0.794688 -1.019732 1.479807 39.000000 16 347.435210
-0.788991 -1.017907 1.345393 40.000000 15 347.435167
-0.776954 -1.002373 1.104634 40.000000 13 347.435170
-0.767448 -0.989754 0.905744 44.000000 11 347.435172
-0.763709 -0.984927 0.738681 42.000000 9 347.435175
-0.753470 -0.971371 0.585005 39.000000 7 347.435178
-0.750152 -0.966745 0.449387 33.000000 5 347.435180
-0.781580 -1.005081 1.214744 44.000000 14 347.435193
-0.770789 -0.991201 0.997820 42.000000 12 347.435196
-0.760830 -0.978041 0.813479 45.000000 10 347.435198
-0.764237 -0.982417 0.662842 49.000000 8 347.435201
-0.757318 -0.973172 0.518083 39.000000 6 347.435203
-0.740570 -0.951308 0.381488 25.000000 4 347.435206
-0.038219 -0.033311 4.259111 98.000000 31 347.435222
-0.324179 -0.394295 3.245517 7.000000 28 347.435224
-0.556681 -0.675222 4.230737 35.000000 27 347.435227
-0.813031 -1.026696 4.231354 94.000000 25 347.435229
-0.893096 -1.140680 3.472523 14.000000 23 347.435232
-0.850742 -1.086968 2.595807 30.000000 21 347.435234
-0.825981 -1.055329 2.040889 36.000000 19 347.435237
-0.811310 -1.036580 1.652070 39.000000 17 347.435239
-0.172073 -0.189792 4.257272 101.000000 30 347.435247
-0.301561 -0.349488 4.255341 101.000000 29 347.435250
-0.602429 -0.749838 3.738191 4.000000 26 347.435252
-0.939896 -1.196149 4.191055 31.000000 24 347.435255
-0.873874 -1.112921 2.988306 20.000000 22 347.435257
-0.844841 -1.076326 2.308290 35.000000 20 347.435260
-0.814882 -1.038154 1.821723 37.000000 18 347.435263
-0.798242 -1.016952 1.479807 39.000000 16 347.435265
-0.794734 -1.017957 1.348898 39.000000 15 347.435223
-0.780448 -0.999655 1.104634 40.000000 13 347.435225
-0.773472 -0.990364 0.908485 44.000000 11 347.435228
-0.767143 -0.982255 0.738681 42.000000 9 347.435231
-0.756856 -0.968735 0.585005 39.000000 7 347.435233
-0.753521 -0.964121 0.449387 34.000000 5 347.435236
-0.787386 -1.005287 1.218069 42.000000 14 347.435249
-0.774245 -0.988504 0.997820 42.000000 12 347.435251
-0.766898 -0.978773 0.816011 44.000000 10 347.435254
-0.767662 -0.979743 0.662842 50.000000 8 347.435256
-0.760710 -0.970522 0.518083 39.000000 6 347.435259
-0.743886 -0.948717 0.381488 24.000000 4 347.435261
-0.038300 -0.033152 4.254112 100.000000 31 347.435277
-0.326049 -0.393759 3.250456 7.000000 28 347.435280
-0.559035 -0.673275 4.230737 50.000000 27 347.435282
-0.816610 -1.023852 4.231354 95.000000 25 347.435285
-0.898282 -1.139089 3.477125 14.000000 23 347.435287
-0.856014 -1.085873 2.600195 30.000000 21 347.435290
-0.829660 -1.052439 2.040889 36.000000 19 347.435292
-0.814923 -1.033742 1.652070 39.000000 17 347.435295
-0.172735 -0.189190 4.257272 100.000000 30 347.435303
-0.302779 -0.348433 4.255341 101.000000 29 347.435305
-0.603460 -0.745776 3.728513 8.000000 26 347.435308
-0.945136 -1.194214 4.195748 32.000000 24 347.435310
-0.879104 -1.111572 2.992807 20.000000 22 347.435313
-0.848593 -1.073370 2.308290 35.000000 20 347.435316
-0.818500 -1.035303 1.821723 37.000000 18 347.435318
-0.803890 -1.016818 1.483482 39.000000 16 347.435321
-0.798282 -1.015177 1.348898 39.000000 15 347.435278
-0.786339 -0.999985 1.107772 40.000000 13 347.435281
-0.776925 -0.987658 0.908485 44.000000 11 347.435283
-0.770567 -0.979572 0.738681 42.000000 9 347.435286
-0.763099 -0.969731 0.586878 40.000000 7 347.435289
-0.759850 -0.965254 0.450796 34.000000 5 347.435291
-0.790890 -1.002532 1.218069 44.000000 14 347.435304
-0.777690 -0.985796 0.997820 42.000000 12 347.435307
-0.770310 -0.976090 0.816011 44.000000 10 347.435309
-0.771077 -0.977058 0.662842 50.000000 8 347.435312
-0.767019 -0.971568 0.519725 39.000000 6 347.435314
-0.747193 -0.946115 0.381488 25.000000 4 347.435317
-0.038415 -0.033018 4.254112 100.000000 31 347.435333
-0.328916 -0.394408 3.265274 8.000000 28 347.435335
-0.561382 -0.671320 4.230737 80.000000 27 347.435338
-0.820179 -1.020995 4.231354 92.000000 25 347.435340
-0.902253 -1.135947 3.477125 13.000000 23 347.435343
-0.861289 -1.084755 2.604584 30.000000 21 347.435345
-0.835078 -1.051740 2.045022 36.000000 19 347.435348
-0.818527 -1.030891 1.652070 39.000000 17 347.435351
-0.173394 -0.188586 4.257272 101.000000 30 347.435358
-0.303993 -0.347374 4.255341 101.000000 29 347.435361
-0.637057 -0.781685 3.917242 11.000000 26 347.435363
-0.949299 -1.190908 4.195748 32.000000 24 347.435366
-0.884336 -1.110200 2.997308 20.000000 22 347.435369
-0.853959 -1.072442 2.312556 35.000000 20 347.435371
-0.823987 -1.034797 1.825712 37.000000 18 347.435374
-0.807434 -1.014006 1.483482 39.000000 16 347.435376
-0.804035 -1.015180 1.352402 39.000000 15 347.435334
-0.789825 -0.997234 1.107772 40.000000 13 347.435336
-0.780368 -0.984940 0.908485 44.000000 11 347.435339
-0.776733 -0.980348 0.740999 42.000000 9 347.435342
-0.766480 -0.967061 0.586878 40.000000 7 347.435344
-0.763214 -0.962596 0.450796 34.000000 5 347.435347
-0.796708 -1.002689 1.221394 42.000000 14 347.435360
-0.783641 -0.986240 1.000763 42.000000 12 347.435362
-0.776395 -0.976770 0.818544 45.000000 10 347.435365
-0.777307 -0.977913 0.664940 49.000000 8 347.435367
-0.770406 -0.968884 0.519725 39.000000 6 347.435370
-0.750491 -0.943501 0.381488 25.000000 4 347.435372
-0.038530 -0.032883 4.254112 100.000000 31 347.435388
-0.331291 -0.394446 3.275152 8.000000 28 347.435391
-0.564378 -0.670134 4.235632 88.000000 27 347.435393
-0.824677 -1.019287 4.236125 92.000000 25 347.435396
-0.907433 -1.134316 3.481728 13.000000 23 347.435398
-0.866566 -1.083613 2.608973 30.000000 21 347.435401
-0.838744 -1.048819 2.045022 36.000000 19 347.435403
-0.824122 -1.030531 1.655906 38.000000 17 347.435406
-0.174051 -0.187980 4.257272 101.000000 30 347.435414
-0.305557 -0.346711 4.260313 101.000000 29 347.435416
-0.664526 -0.809591 4.067257 16.000000 26 347.435419
-0.954531 -1.188932 4.200441 33.000000 24 347.435421
-0.889569 -1.108805 3.001809 20.000000 22 347.435424
-0.857698 -1.069454 2.312556 35.000000 20 347.435427
-0.827594 -1.031915 1.825712 37.000000 18 347.435429
-0.813090 -1.013826 1.487157 39.000000 16 347.435432
-0.807574 -1.012367 1.352402 39.000000 15 347.435389
-0.793301 -0.994471 1.107772 40.000000 13 347.435392
-0.783801 -0.982210 0.908485 42.000000 11 347.435395
-0.780150 -0.977631 0.740999 42.000000 9 347.435397
-0.772743 -0.968003 0.588751 40.000000 7 347.435400
-0.766570 -0.959926 0.450796 34.000000 5 347.435402
-0.800203 -0.999902 1.221394 44.000000 14 347.435415
-0.787079 -0.983498 1.000763 42.000000 12 347.435418
-0.782494 -0.977419 0.821076 45.000000 10 347.435420
-0.780716 -0.975194 0.664940 49.000000 8 347.435423
-0.776736 -0.969875 0.521368 39.000000 6 347.435425
-0.756819 -0.944669 0.382660 25.000000 4 347.435428
-0.038645 -0.032749 4.254112 100.000000 31 347.435444
-0.333670 -0.394473 3.285031 8.000000 28 347.435446
-0.566714 -0.668160 4.235632 89.000000 27 347.435449
-0.828230 -1.016402 4.236125 93.000000 25 347.435451
-0.912612 -1.132663 3.486330 13.000000 23 347.435454
-0.871846 -1.082447 2.613361 29.000000 21 347.435456
-0.844166 -1.048077 2.049155 36.000000 19 347.435459
-0.827715 -1.027648 1.655906 38.000000 17 347.435462
-0.174706 -0.187371 4.257272 101.000000 30 347.435469
-0.306766 -0.345642 4.260313 101.000000 29 347.435472
-0.685785 -0.829560 4.178559 25.000000 26 347.435474
-0.959760 -1.186935 4.205133 32.000000 24 347.435477
-0.894802 -1.107387 3.006310 20.000000 22 347.435480
-0.863064 -1.068483 2.316822 35.000000 20 347.435482
-0.833085 -1.031364 1.829702 38.000000 18 347.435485
-0.816624 -1.010982 1.487157 39.000000 16 347.435487
-0.813336 -1.012322 1.355907 40.000000 15 347.435445
-0.799206 -0.994730 1.110910 40.000000 13 347.435447
-0.787225 -0.979468 0.908485 42.000000 11 347.435450
-0.783558 -0.974902 0.740999 42.000000 9 347.435453
-0.776117 -0.965299 0.588751 40.000000 7 347.435455
-0.769916 -0.957244 0.450796 34.000000 5 347.435458
-0.806032 -1.000010 1.224718 44.000000 14 347.435471
-0.790507 -0.980745 1.000763 42.000000 12 347.435473
-0.785901 -0.974682 0.821076 45.000000 10 347.435476
-0.786964 -0.975996 0.667038 49.000000 8 347.435478
-0.780116 -0.967158 0.521368 39.000000 6 347.435481
-0.760112 -0.942021 0.382660 26.000000 4 347.435483
-0.038759 -0.032614 4.254112 100.000000 31 347.435499
-0.335550 -0.393897 3.289970 8.000000 28 347.435502
-0.569704 -0.666952 4.240528 92.000000 27 347.435504
-0.831773 -1.013504 4.236125 93.000000 25 347.435507
-0.917791 -1.130987 3.490933 13.000000 23 347.435509
-0.875619 -1.079397 2.613361 30.000000 21 347.435512
-0.847819 -1.045123 2.049155 36.000000 19 347.435515
-0.833317 -1.027242 1.659744 38.000000 17 347.435517
-0.175359 -0.186760 4.257272 101.000000 30 347.435525
-0.307970 -0.344569 4.260313 101.000000 29 347.435527
-0.692701 -0.831994 4.202755 39.000000 26 347.435530
-0.963897 -1.183578 4.205133 29.000000 24 347.435533
-0.900037 -1.105945 3.010810 20.000000 22 347.435535
-0.866789 -1.065464 2.316822 35.000000 20 347.435538
-0.836680 -1.028450 1.829702 38.000000 18 347.435540
-0.822287 -1.010755 1.490833 39.000000 16 347.435543
-0.816865 -1.009477 1.355907 39.000000 15 347.435500
-0.802673 -0.991934 1.110910 42.000000 13 347.435503
-0.793270 -0.979964 0.911227 42.000000 11 347.435506
-0.786956 -0.972161 0.740999 42.000000 9 347.435508
-0.782400 -0.966187 0.590624 40.000000 7 347.435511
-0.773253 -0.954551 0.450796 34.000000 5 347.435513
-0.809518 -0.997190 1.224718 42.000000 14 347.435526
-0.796473 -0.981118 1.003707 42.000000 12 347.435529
-0.792017 -0.975280 0.823609 45.000000 10 347.435531
-0.790366 -0.973243 0.667038 49.000000 8 347.435534
-0.783488 -0.964429 0.521368 39.000000 6 347.435536
-0.763395 -0.939362 0.382660 26.000000 4 347.435539
-0.038873 -0.032478 4.254112 100.000000 31 347.435555
-0.338948 -0.395081 3.309727 9.000000 28 347.435557
-0.572029 -0.664959 4.240528 92.000000 27 347.435560
-0.835306 -1.010595 4.236125 91.000000 25 347.435562
-0.922970 -1.129289 3.495535 13.000000 23 347.435565
-0.880898 -1.078189 2.617750 30.000000 21 347.435567
-0.853242 -1.044337 2.053288 36.000000 19 347.435570
-0.836897 -1.024327 1.659744 39.000000 17 347.435573
-0.176010 -0.186147 4.257272 101.000000 30 347.435580
-0.309171 -0.343492 4.260313 101.000000 29 347.435583
-0.701259 -0.836317 4.236629 85.000000 26 347.435585
-0.968023 -1.180206 4.205133 15.000000 24 347.435588
-0.905272 -1.104481 3.015311 20.000000 22 347.435591
-0.870503 -1.062431 2.316822 35.000000 20 347.435593
-0.842175 -1.027855 1.833691 37.000000 18 347.435596
-0.825811 -1.007878 1.490833 39.000000 16 347.435598
-0.820384 -1.006619 1.355907 39.000000 15 347.435556
-0.808590 -0.992144 1.114048 40.000000 13 347.435559
-0.796686 -0.977190 0.911227 42.000000 11 347.435561
-0.793144 -0.972842 0.743317 40.000000 9 347.435564
-0.785768 -0.963450 0.590624 40.000000 7 347.435566
-0.776580 -0.951846 0.450796 34.000000 5 347.435569
-0.815358 -0.997250 1.228043 42.000000 14 347.435582
-0.799893 -0.978332 1.003707 42.000000 12 347.435584
-0.795416 -0.972509 0.823609 44.000000 10 347.435587
-0.793758 -0.970478 0.667038 49.000000 8 347.435589
-0.786849 -0.961688 0.521368 39.000000 6 347.435592
-0.769749 -0.940453 0.383832 26.000000 4 347.435594
-0.038986 -0.032342 4.254112 100.000000 31 347.435610
-0.345918 -0.400358 3.364059 9.000000 28 347.435613
-0.574346 -0.662959 4.240528 92.000000 27 347.435615
-0.838829 -1.007673 4.236125 92.000000 25 347.435618
-0.928148 -1.127569 3.500138 12.000000 23 347.435620
-0.886178 -1.076958 2.622139 30.000000 21 347.435623
-0.858671 -1.043525 2.057421 36.000000 19 347.435626
-0.842505 -1.023875 1.663580 39.000000 17 347.435628
-0.176659 -0.185532 4.257272 100.000000 30 347.435636
-0.310369 -0.342411 4.260313 101.000000 29 347.435638
-0.704986 -0.834825 4.241469 96.000000 26 347.435641
-0.972137 -1.176819 4.205133 12.000000 24 347.435644
-0.910509 -1.102994 3.019812 20.000000 22 347.435646
-0.875866 -1.061398 2.321088 35.000000 20 347.435649
-0.845758 -1.024909 1.833691 37.000000 18 347.435651
-0.831482 -1.007604 1.494508 39.000000 16 347.435654
-0.826155 -1.006506 1.359411 39.000000 15 347.435611
-0.812048 -0.989316 1.114048 40.000000 13 347.435614
-0.802745 -0.977634 0.913968 42.000000 11 347.435617
-0.796535 -0.970067 0.743317 40.000000 9 347.435619
-0.792068 -0.964284 0.592497 40.000000 7 347.435622
-0.779898 -0.949129 0.450796 34.000000 5 347.435624
-0.818834 -0.994397 1.228043 44.000000 14 347.435637
-0.805873 -0.978654 1.006650 42.000000 12 347.435640
-0.798806 -0.969727 0.823609 44.000000 10 347.435642
-0.800027 -0.971205 0.669136 49.000000 8 347.435645
-0.790201 -0.958936 0.521368 39.000000 6 347.435647
-0.773027 -0.937760 0.383832 26.000000 4 347.435650
-0.039098 -0.032206 4.254112 100.000000 31 347.435666
-0.348334 -0.400320 3.373937 10.000000 28 347.435668
-0.576657 -0.660950 4.240528 93.000000 27 347.435671
-0.842341 -1.004739 4.236125 92.000000 25 347.435673
-0.933325 -1.125826 3.504740 12.000000 23 347.435676
-0.889932 -1.073858 2.622139 29.000000 21 347.435679
-0.862308 -1.040521 2.057421 36.000000 19 347.435681
-0.846074 -1.020928 1.663580 39.000000 17 347.435684
-0.177305 -0.184914 4.257272 101.000000 30 347.435691
-0.311562 -0.341325 4.260313 101.000000 29 347.435694
-0.707896 -0.832359 4.241469 96.000000 26 347.435697
-0.977342 -1.174746 4.209826 11.000000 24 347.435699
-0.917138 -1.103158 3.028814 20.000000 22 347.435702
-0.879566 -1.058334 2.321088 35.000000 20 347.435704
-0.851257 -1.024268 1.837681 38.000000 18 347.435707
-0.834994 -1.004696 1.494508 39.000000 16 347.435709
-0.829664 -1.003616 1.359411 39.000000 15 347.435667
-0.815497 -0.986475 1.114048 40.000000 13 347.435670
-0.806153 -0.974826 0.913968 44.000000 11 347.435672
-0.799917 -0.967281 0.743317 40.000000 9 347.435675
-0.795429 -0.961513 0.592497 42.000000 7 347.435677
-0.786265 -0.950097 0.452206 34.000000 5 347.435680
-0.822300 -0.991533 1.228043 44.000000 14 347.435693
-0.809284 -0.975835 1.006650 42.000000 12 347.435695
-0.802186 -0.966932 0.823609 44.000000 10 347.435698
-0.803412 -0.968406 0.669136 50.000000 8 347.435700
-0.793544 -0.956172 0.521368 40.000000 6 347.435703
-0.776295 -0.935056 0.383832 26.000000 4 347.435705
-0.039211 -0.032069 4.254112 100.000000 31 347.435722
-0.354342 -0.404358 3.418391 11.000000 28 347.435725
-0.578961 -0.658933 4.240528 93.000000 27 347.435727
-0.845843 -1.001792 4.236125 92.000000 25 347.435730
-0.938502 -1.124061 3.509343 13.000000 23 347.435732
-0.895210 -1.072584 2.626528 28.000000 21 347.435735
-0.867738 -1.039665 2.061553 36.000000 19 347.435737
-0.851686 -1.020430 1.667417 39.000000 17 347.435740
-0.177950 -0.184294 4.257272 101.000000 30 347.435748
-0.312751 -0.340236 4.260313 101.000000 29 347.435750
-0.710797 -0.829883 4.241469 96.000000 26 347.435753
-0.981437 -1.171327 4.209826 10.000000 24 347.435755
-0.922381 -1.101620 3.033314 20.000000 22 347.435758
-0.884928 -1.057257 2.325354 35.000000 20 347.435760
-0.856761 -1.023602 1.841670 38.000000 18 347.435763
-0.838496 -1.001775 1.494508 39.000000 16 347.435766
-0.833162 -1.000714 1.359411 39.000000 15 347.435723
-0.821426 -0.986614 1.117185 40.000000 13 347.435726
-0.812227 -0.975219 0.916710 44.000000 11 347.435728
-0.806123 -0.967887 0.745636 42.000000 9 347.435731
-0.798781 -0.958731 0.592497 42.000000 7 347.435734
-0.789576 -0.947347 0.452206 34.000000 5 347.435736
-0.828150 -0.991523 1.231368 44.000000 14 347.435749
-0.812685 -0.973004 1.006650 42.000000 12 347.435752
-0.805556 -0.964126 0.823609 44.000000 10 347.435754
-0.806787 -0.965596 0.669136 49.000000 8 347.435757
-0.796877 -0.953396 0.521368 39.000000 6 347.435759
-0.782672 -0.936070 0.385005 26.000000 4 347.435762
-0.039322 -0.031932 4.254112 100.000000 31 347.435778
-0.366557 -0.415345 3.522115 11.000000 28 347.435780
-0.581932 -0.657670 4.245423 91.000000 27 347.435783
-0.850302 -0.999971 4.240898 92.000000 25 347.435785
-0.944934 -1.123769 3.518548 13.000000 23 347.435788
-0.900490 -1.071287 2.630916 28.000000 21 347.435790
-0.871362 -1.036630 2.061553 36.000000 19 347.435793
-0.855243 -1.017451 1.667417 39.000000 17 347.435795
-0.178592 -0.183671 4.257272 101.000000 30 347.435803
-0.313574 -0.338751 4.255341 102.000000 29 347.435806
-0.713690 -0.827397 4.241469 96.000000 26 347.435808
-0.986633 -1.169213 4.214519 10.000000 24 347.435811
-0.927625 -1.100058 3.037815 20.000000 22 347.435813
-0.890294 -1.056156 2.329619 35.000000 20 347.435816
-0.862272 -1.022909 1.845660 37.000000 18 347.435819
-0.841987 -0.998842 1.494508 39.000000 16 347.435821
-0.838941 -1.000532 1.362916 39.000000 15 347.435779
-0.824865 -0.983741 1.117185 40.000000 13 347.435781
-0.815626 -0.972378 0.916710 45.000000 11 347.435784
-0.809497 -0.965067 0.745636 42.000000 9 347.435786
-0.802123 -0.955937 0.592497 40.000000 7 347.435789
-0.795963 -0.948259 0.453615 34.000000 5 347.435792
-0.831606 -0.988626 1.231368 44.000000 14 347.435804
