# .PCD v.7 - Point Cloud Data file format
VERSION .7
FIELDS x y z intensity ring timestamp
SIZE 4 4 4 4 2 8
TYPE F F F F U D
COUNT 1 1 1 1 1 1
WIDTH 942
HEIGHT 1
VIEWPOINT 0 0 0 1 0 0 0
POINTS 942
DATA ascii
0.394789 2.065679 2.358171 16.000000 16 347.178060
0.392296 2.082186 2.161952 17.000000 15 347.178018
0.392659 2.084099 1.791808 19.000000 13 347.178020
0.393283 2.085411 1.475969 17.000000 11 347.178023
0.395176 2.095432 1.202287 19.000000 9 347.178026
0.396582 2.100877 0.952119 25.000000 7 347.178028
0.313587 1.659624 0.586079 72.000000 5 347.178031
0.317387 1.679735 0.416024 72.000000 3 347.178033
0.319250 1.687982 0.246874 59.000000 1 347.178036
0.394561 2.076278 1.962835 19.000000 14 347.178044
0.395150 2.079360 1.624713 23.000000 12 347.178046
0.395894 2.081299 1.330094 18.000000 10 347.178049
0.402205 2.114460 1.082453 24.000000 8 347.178051
0.401112 2.106712 0.835121 25.000000 6 347.178054
0.318510 1.671287 0.501064 82.000000 4 347.178056
0.323827 1.697576 0.332946 58.000000 2 347.178059
0.321341 1.682945 0.162791 83.000000 0 347.178061
0.019342 0.048085 4.389107 100.000000 31 347.178072
0.148965 0.681620 4.435878 101.000000 28 347.178075
0.198771 0.904437 4.475499 94.000000 27 347.178077
0.272770 1.369350 4.508114 12.000000 25 347.178080
0.273311 1.412750 3.449510 9.000000 23 347.178082
0.301953 1.562225 2.982009 17.000000 21 347.178085
0.390502 2.020319 3.094791 16.000000 19 347.178087
0.396433 2.050991 2.576773 14.000000 17 347.178090
0.069054 0.256011 4.412011 101.000000 30 347.178098
0.113488 0.466144 4.424369 98.000000 29 347.178100
0.234264 1.134139 4.493108 63.000000 26 347.178103
0.309077 1.582808 4.439772 17.000000 24 347.178105
0.278622 1.429485 3.073822 11.000000 22 347.178108
0.385673 1.980492 3.370507 22.000000 20 347.178111
0.397449 2.040948 2.827076 17.000000 18 347.178113
0.401997 2.064289 2.358171 15.000000 16 347.178116
0.402252 2.094813 2.175971 17.000000 15 347.178073
0.400666 2.086539 1.794945 20.000000 13 347.178076
0.402139 2.092238 1.481452 18.000000 11 347.178078
0.401652 2.089690 1.199969 19.000000 9 347.178081
0.404789 2.104033 0.953992 24.000000 7 347.178084
0.319378 1.658520 0.586079 77.000000 5 347.178086
0.323248 1.678617 0.416024 72.000000 3 347.178089
0.324198 1.681967 0.246428 59.000000 1 347.178091
0.403226 2.082221 1.969484 21.000000 14 347.178099
0.403942 2.085904 1.630600 24.000000 12 347.178102
0.404798 2.088369 1.335159 20.000000 10 347.178104
0.409583 2.113044 1.082453 24.000000 8 347.178107
0.408463 2.105299 0.835121 25.000000 6 347.178109
0.325269 1.674937 0.502236 82.000000 4 347.178112
0.328806 1.691574 0.332256 59.000000 2 347.178114
0.327213 1.681813 0.162791 83.000000 0 347.178117
0.019509 0.048017 4.389107 100.000000 31 347.178128
0.151513 0.681854 4.440817 101.000000 28 347.178130
0.201927 0.903737 4.475499 93.000000 27 347.178133
0.277548 1.368389 4.508114 11.000000 25 347.178135
0.277863 1.409871 3.444908 9.000000 23 347.178138
0.307404 1.561161 2.982009 17.000000 21 347.178140
0.397552 2.018943 3.094791 16.000000 19 347.178143
0.402971 2.046450 2.572937 14.000000 17 347.178146
0.069870 0.255489 4.407020 101.000000 30 347.178153
0.115115 0.465745 4.424369 98.000000 29 347.178156
0.238222 1.133314 4.493108 64.000000 26 347.178158
0.313927 1.578334 4.430386 17.000000 24 347.178161
0.283610 1.428504 3.073822 11.000000 22 347.178164
0.392584 1.979133 3.370507 22.000000 20 347.178166
0.403984 2.036592 2.823087 17.000000 18 347.178169
0.408541 2.059548 2.354496 15.000000 16 347.178171
0.408192 2.086396 2.168962 16.000000 15 347.178129
0.408694 2.088948 1.798083 21.000000 13 347.178131
0.411047 2.099028 1.486935 21.000000 11 347.178134
0.411498 2.101318 1.206923 24.000000 9 347.178137
0.412131 2.102606 0.953992 24.000000 7 347.178139
0.325165 1.657395 0.586079 78.000000 5 347.178142
0.330051 1.682298 0.416957 72.000000 3 347.178144
0.330067 1.680826 0.246428 59.000000 1 347.178147
0.411938 2.088128 1.976134 18.000000 14 347.178155
0.412003 2.088447 1.633543 24.000000 12 347.178157
0.413756 2.095402 1.340224 24.000000 10 347.178160
0.419594 2.124959 1.088747 26.000000 8 347.178162
0.417641 2.113126 0.838406 26.000000 6 347.178165
0.332057 1.678559 0.503409 84.000000 4 347.178167
0.334709 1.690416 0.332256 63.000000 2 347.178170
0.333082 1.680660 0.162791 83.000000 0 347.178172
0.019657 0.047910 4.384107 101.000000 31 347.178183
0.153892 0.681321 4.440817 101.000000 28 347.178186
0.205080 0.903027 4.475499 93.000000 27 347.178188
0.281719 1.364487 4.498570 10.000000 25 347.178191
0.282782 1.408893 3.444908 9.000000 23 347.178193
0.312380 1.557730 2.977620 18.000000 21 347.178196
0.404597 2.017543 3.094791 17.000000 19 347.178198
0.410112 2.045030 2.572937 14.000000 17 347.178201
0.070761 0.255244 4.407020 101.000000 30 347.178209
0.116740 0.465340 4.424369 99.000000 29 347.178211
0.242176 1.132476 4.493108 68.000000 26 347.178214
0.319092 1.575537 4.425694 18.000000 24 347.178216
0.288163 1.425370 3.069321 11.000000 22 347.178219
0.399490 1.977751 3.370507 22.000000 20 347.178222
0.410494 2.032215 2.819097 17.000000 18 347.178224
0.415056 2.054786 2.350821 15.000000 16 347.178227
0.414776 2.081461 2.165457 16.000000 15 347.178184
0.416744 2.091327 1.801221 20.000000 13 347.178187
0.419189 2.101681 1.489676 20.000000 11 347.178190
0.420563 2.108558 1.211559 26.000000 9 347.178192
0.423099 2.119340 0.961484 30.000000 7 347.178195
0.330949 1.656249 0.586079 73.000000 5 347.178197
0.335921 1.681136 0.416957 70.000000 3 347.178200
0.335932 1.679663 0.246428 61.000000 1 347.178202
0.419960 2.090339 1.979459 18.000000 14 347.178210
0.420087 2.090959 1.636486 24.000000 12 347.178213
0.421917 2.098172 1.342756 23.000000 10 347.178215
0.428799 2.132380 1.092943 28.000000 8 347.178218
0.428742 2.130174 0.844977 31.000000 6 347.178220
0.337914 1.677390 0.503409 82.000000 4 347.178223
0.339629 1.684383 0.331567 61.000000 2 347.178225
0.338946 1.679487 0.162791 82.000000 0 347.178228
0.019824 0.047841 4.384107 100.000000 31 347.178239
0.156269 0.680780 4.440817 101.000000 28 347.178241
0.208231 0.902306 4.475499 94.000000 27 347.178244
0.287095 1.366418 4.508114 10.000000 25 347.178246
0.287699 1.407897 3.444908 9.000000 23 347.178249
0.317816 1.556630 2.977620 18.000000 21 347.178251
0.411637 2.016118 3.094791 17.000000 19 347.178254
0.416606 2.040445 2.569099 13.000000 17 347.178257
0.071652 0.254995 4.407020 101.000000 30 347.178264
0.118363 0.464930 4.424369 99.000000 29 347.178267
0.246128 1.131624 4.493108 71.000000 26 347.178269
0.324241 1.572724 4.421001 17.000000 24 347.178272
0.293137 1.424356 3.069321 11.000000 22 347.178275
0.406391 1.976344 3.370507 20.000000 20 347.178277
0.417585 2.030770 2.819097 17.000000 18 347.178280
0.422226 2.053324 2.350821 15.000000 16 347.178282
0.421330 2.076505 2.161952 16.000000 15 347.178240
0.424816 2.093675 1.804359 20.000000 13 347.178242
0.426523 2.100205 1.489676 18.000000 11 347.178245
0.428803 2.111419 1.213877 26.000000 9 347.178248
0.431417 2.122393 0.963357 29.000000 7 347.178250
0.335772 1.650383 0.584670 72.000000 5 347.178253
0.340808 1.675140 0.416024 67.000000 3 347.178255
0.341793 1.678480 0.246428 55.000000 1 347.178258
0.427254 2.088860 1.979459 18.000000 14 347.178266
0.427383 2.089480 1.636486 23.000000 12 347.178268
0.429239 2.096686 1.342756 22.000000 10 347.178271
0.438060 2.139763 1.097139 28.000000 8 347.178273
0.439967 2.147170 0.851548 30.000000 6 347.178276
0.343767 1.676200 0.503409 83.000000 4 347.178278
0.345506 1.683187 0.331567 63.000000 2 347.178281
0.343801 1.673400 0.162589 82.000000 0 347.178284
0.019991 0.047772 4.384107 100.000000 31 347.178294
0.158468 0.679474 4.435878 100.000000 28 347.178297
0.211380 0.901573 4.475499 94.000000 27 347.178299
0.291863 1.365408 4.508114 9.000000 25 347.178302
0.292611 1.406884 3.444908 9.000000 23 347.178304
0.323248 1.555511 2.977620 18.000000 21 347.178307
0.418099 2.011914 3.090658 18.000000 19 347.178310
0.423726 2.038979 2.569099 13.000000 17 347.178312
0.072542 0.254744 4.407020 101.000000 30 347.178320
0.119986 0.464514 4.424369 99.000000 29 347.178322
0.249805 1.129530 4.488268 76.000000 26 347.178325
0.329374 1.569893 4.416308 17.000000 24 347.178328
0.298107 1.423324 3.069321 12.000000 22 347.178330
0.412753 1.972361 3.366241 18.000000 20 347.178333
0.424054 2.026349 2.815108 17.000000 18 347.178335
0.428697 2.048520 2.347146 15.000000 16 347.178338
0.428576 2.075022 2.161952 16.000000 15 347.178295
0.432122 2.092179 1.804359 19.000000 13 347.178298
0.434698 2.102798 1.492418 18.000000 11 347.178301
0.437067 2.114247 1.216195 26.000000 9 347.178303
0.440702 2.129954 0.967103 29.000000 7 347.178306
0.341531 1.649201 0.584670 72.000000 5 347.178308
0.346654 1.673940 0.416024 68.000000 3 347.178311
0.347650 1.677277 0.246428 55.000000 1 347.178313
0.435304 2.091012 1.982784 18.000000 14 347.178321
0.435498 2.091933 1.639429 23.000000 12 347.178324
0.437434 2.099396 1.345289 22.000000 10 347.178326
0.445527 2.138221 1.097139 28.000000 8 347.178329
0.447459 2.145621 0.851548 28.000000 6 347.178331
0.349616 1.674990 0.503409 82.000000 4 347.178334
0.351379 1.681971 0.331567 63.000000 2 347.178336
0.349641 1.672190 0.162589 82.000000 0 347.178339
0.020158 0.047702 4.384107 100.000000 31 347.178350
0.160838 0.678917 4.435878 100.000000 28 347.178352
0.214525 0.900830 4.475499 94.000000 27 347.178355
0.296627 1.364380 4.508114 9.000000 25 347.178357
0.297520 1.405854 3.444908 9.000000 23 347.178360
0.328180 1.552029 2.973232 18.000000 21 347.178362
0.425120 2.010442 3.090658 18.000000 19 347.178365
0.430178 2.034351 2.565263 13.000000 17 347.178368
0.073430 0.254489 4.407020 101.000000 30 347.178375
0.121606 0.464092 4.424369 99.000000 29 347.178378
0.253746 1.128651 4.488268 76.000000 26 347.178380
0.334852 1.568734 4.416308 17.000000 24 347.178383
0.303074 1.422275 3.069321 12.000000 22 347.178386
0.419092 1.968357 3.361975 16.000000 20 347.178388
0.431125 2.024857 2.815108 17.000000 18 347.178391
0.435845 2.047011 2.347146 14.000000 16 347.178393
0.435083 2.070023 2.158448 15.000000 15 347.178351
0.440223 2.094467 1.807497 18.000000 13 347.178354
0.442035 2.101268 1.492418 18.000000 11 347.178356
0.444445 2.112709 1.216195 25.000000 9 347.178359
0.448134 2.128403 0.967103 29.000000 7 347.178361
0.347285 1.647999 0.584670 73.000000 5 347.178364
0.351482 1.667913 0.415091 72.000000 3 347.178366
0.353503 1.676053 0.246428 54.000000 1 347.178369
0.442600 2.089480 1.982784 17.000000 14 347.178377
0.442798 2.090400 1.639429 23.000000 12 347.178379
0.443866 2.093639 1.342756 22.000000 10 347.178382
0.452988 2.136652 1.097139 28.000000 8 347.178384
0.452986 2.134806 0.848262 27.000000 6 347.178387
0.355461 1.673759 0.503409 75.000000 4 347.178389
0.357248 1.680734 0.331567 59.000000 2 347.178392
0.355476 1.670959 0.162589 79.000000 0 347.178395
0.020324 0.047631 4.384107 97.000000 31 347.178405
0.163207 0.678351 4.435878 100.000000 28 347.178408
0.217669 0.900076 4.475499 94.000000 27 347.178410
0.301388 1.363337 4.508114 9.000000 25 347.178413
0.302426 1.404807 3.444908 9.000000 23 347.178415
0.333595 1.550874 2.973232 18.000000 21 347.178418
0.431543 2.006195 3.086525 19.000000 19 347.178421
0.437277 2.032837 2.565263 13.000000 17 347.178423
0.074318 0.254231 4.407020 101.000000 30 347.178431
0.123226 0.463665 4.424369 99.000000 29 347.178433
0.257404 1.126532 4.483429 87.000000 26 347.178436
0.339960 1.565869 4.411615 17.000000 24 347.178439
0.307575 1.419080 3.064821 12.000000 22 347.178441
0.424857 1.961785 3.353444 16.000000 20 347.178444
0.438190 2.023340 2.815108 17.000000 18 347.178446
0.442270 2.042164 2.343471 14.000000 16 347.178449
0.442306 2.068492 2.158448 15.000000 15 347.178406
0.447531 2.092918 1.807497 18.000000 13 347.178409
0.448492 2.095624 1.489676 18.000000 11 347.178412
0.451817 2.111145 1.216195 24.000000 9 347.178414
0.455561 2.126826 0.967103 29.000000 7 347.178417
0.353036 1.646777 0.584670 75.000000 5 347.178419
0.357302 1.666676 0.415091 72.000000 3 347.178422
0.359351 1.674809 0.246428 54.000000 1 347.178424
0.449891 2.087922 1.982784 17.000000 14 347.178432
0.450092 2.088841 1.639429 22.000000 12 347.178435
0.451171 2.092077 1.342756 22.000000 10 347.178437
0.460443 2.135058 1.097139 28.000000 8 347.178440
0.462428 2.142445 0.851548 20.000000 6 347.178442
0.360275 1.667757 0.502236 76.000000 4 347.178445
0.363113 1.679477 0.331567 59.000000 2 347.178448
0.361306 1.669708 0.162589 77.000000 0 347.178450
0.020490 0.047560 4.384107 97.000000 31 347.178461
0.165574 0.677777 4.435878 101.000000 28 347.178463
0.220809 0.899310 4.475499 94.000000 27 347.178466
0.306472 1.363734 4.512886 9.000000 25 347.178468
0.306910 1.401834 3.440305 9.000000 23 347.178471
0.339007 1.549700 2.973232 18.000000 21 347.178474
0.438543 2.004676 3.086525 21.000000 19 347.178476
0.443685 2.028166 2.561425 13.000000 17 347.178479
0.075205 0.253970 4.407020 100.000000 30 347.178486
0.124843 0.463232 4.424369 99.000000 29 347.178489
0.261335 1.125627 4.483429 93.000000 26 347.178492
0.346540 1.569728 4.425694 17.000000 24 347.178494
0.312527 1.417997 3.064821 11.000000 22 347.178497
0.430019 1.952649 3.340646 16.000000 20 347.178499
0.444602 2.018854 2.811118 17.000000 18 347.178502
0.449396 2.040607 2.343471 14.000000 16 347.178504
0.448765 2.063451 2.154943 14.000000 15 347.178462
0.454834 2.091343 1.807497 18.000000 13 347.178465
0.455805 2.094045 1.489676 18.000000 11 347.178467
0.459183 2.109555 1.216195 24.000000 9 347.178470
0.461995 2.120693 0.965230 28.000000 7 347.178472
0.357760 1.640847 0.583261 75.000000 5 347.178475
0.363117 1.665418 0.415091 72.000000 3 347.178477
0.364133 1.668679 0.245981 55.000000 1 347.178480
0.456377 2.082691 1.979459 17.000000 14 347.178488
0.457381 2.087257 1.639429 22.000000 12 347.178490
0.458471 2.090489 1.342756 22.000000 10 347.178493
0.467893 2.133438 1.097139 27.000000 8 347.178495
0.366094 1.666489 0.502236 84.000000 4 347.178500
0.367910 1.673362 0.330877 63.000000 2 347.178503
0.366059 1.663558 0.162387 75.000000 0 347.178506
0.020677 0.047526 4.389107 101.000000 31 347.178517
0.167939 0.677195 4.435878 98.000000 28 347.178520
0.223700 0.897546 4.470603 94.000000 27 347.178522
0.311231 1.362656 4.512886 9.000000 25 347.178525
0.311801 1.400754 3.440305 9.000000 23 347.178527
0.344414 1.548508 2.973232 18.000000 21 347.178530
0.443705 1.994893 3.074126 22.000000 19 347.178532
0.450762 2.026605 2.561425 13.000000 17 347.178535
0.076091 0.253706 4.407020 101.000000 30 347.178543
0.126460 0.462793 4.424369 98.000000 29 347.178545
0.264973 1.123483 4.478590 93.000000 26 347.178548
0.349372 1.556723 4.392844 11.000000 24 347.178550
0.317722 1.416842 3.064821 11.000000 22 347.178553
0.435462 1.943425 3.327848 16.000000 20 347.178555
0.451340 2.014270 2.807129 18.000000 18 347.178558
0.456130 2.035639 2.339795 15.000000 16 347.178561
0.455965 2.061872 2.154943 14.000000 15 347.178518
0.462972 2.093543 1.810634 18.000000 13 347.178521
0.463112 2.092442 1.489676 18.000000 11 347.178523
0.466544 2.107939 1.216195 25.000000 9 347.178526
0.469395 2.119067 0.965230 28.000000 7 347.178529
0.363485 1.639588 0.583261 77.000000 5 347.178531
0.369219 1.664076 0.415091 68.000000 3 347.178534
0.370247 1.667333 0.245981 52.000000 1 347.178536
0.464008 2.081004 1.979459 18.000000 14 347.178544
0.465028 2.085567 1.639429 22.000000 12 347.178547
0.465191 2.084587 1.340224 21.000000 10 347.178549
0.474721 2.127279 1.095041 27.000000 8 347.178552
0.396427 1.774977 0.721776 16.000000 6 347.178554
0.371139 1.660393 0.501064 84.000000 4 347.178557
0.374041 1.672003 0.330877 63.000000 2 347.178559
0.371863 1.662270 0.162387 73.000000 0 347.178562
0.020851 0.047450 4.389107 101.000000 31 347.178573
0.170420 0.676575 4.435878 98.000000 28 347.178575
0.226988 0.896720 4.470603 94.000000 27 347.178578
0.315885 1.360051 4.508114 9.000000 25 347.178580
0.316502 1.397697 3.435703 9.000000 23 347.178583
0.349559 1.544898 2.968843 18.000000 21 347.178585
0.449151 1.985019 3.061727 17.000000 19 347.178588
0.457479 2.021812 2.557589 13.000000 17 347.178590
0.077021 0.253425 4.407020 102.000000 30 347.178598
0.128012 0.461812 4.419398 99.000000 29 347.178601
0.269089 1.122505 4.478590 93.000000 26 347.178603
0.354307 1.552067 4.383459 10.000000 24 347.178606
0.322666 1.415725 3.064821 10.000000 22 347.178608
0.439348 1.929178 3.306518 12.000000 20 347.178611
0.456360 2.003866 2.795160 17.000000 18 347.178614
0.463233 2.034034 2.339795 15.000000 16 347.178616
0.462737 2.056707 2.151439 14.000000 15 347.178574
0.470642 2.091832 1.810634 16.000000 13 347.178576
0.470778 2.090730 1.489676 18.000000 11 347.178579
0.474267 2.106215 1.216195 24.000000 9 347.178581
0.477159 2.117333 0.965230 19.000000 7 347.178584
0.369492 1.638245 0.583261 77.000000 5 347.178587
0.373945 1.657985 0.414159 68.000000 3 347.178589
0.376065 1.666030 0.245981 50.000000 1 347.178592
0.470444 2.075730 1.976134 17.000000 14 347.178599
0.472305 2.083931 1.639429 21.000000 12 347.178602
0.472465 2.082950 1.340224 22.000000 10 347.178605
0.482144 2.125609 1.095041 26.000000 8 347.178607
0.395302 1.741346 0.710277 24.000000 6 347.178610
0.376933 1.659087 0.501064 84.000000 4 347.178612
0.379875 1.670687 0.330877 64.000000 2 347.178615
0.377953 1.660896 0.162387 71.000000 0 347.178617
0.021016 0.047377 4.389107 101.000000 31 347.178628
0.172781 0.675976 4.435878 101.000000 28 347.178631
0.230117 0.895922 4.470603 87.000000 27 347.178633
0.320631 1.358940 4.508114 9.000000 25 347.178636
0.321379 1.396583 3.435703 9.000000 23 347.178638
0.354949 1.543668 2.968843 18.000000 21 347.178641
0.453555 1.972470 3.045195 15.000000 19 347.178643
0.463815 2.017079 2.553752 13.000000 17 347.178646
0.077905 0.253155 4.407020 102.000000 30 347.178654
0.129623 0.461363 4.419398 98.000000 29 347.178656
0.273006 1.121559 4.478590 92.000000 26 347.178659
0.358163 1.544097 4.364687 10.000000 24 347.178661
0.327606 1.414590 3.064821 10.000000 22 347.178664
0.446079 1.927633 3.306518 12.000000 20 347.178667
0.461314 1.993452 2.783192 16.000000 18 347.178669
0.468802 2.025799 2.332445 15.000000 16 347.178672
0.469913 2.055079 2.151439 14.000000 15 347.178629
0.477074 2.086382 1.807497 16.000000 13 347.178632
0.478073 2.089074 1.489676 18.000000 11 347.178634
0.480628 2.100228 1.213877 23.000000 9 347.178637
0.375209 1.636945 0.583261 77.000000 5 347.178642
0.379730 1.656670 0.414159 72.000000 3 347.178645
0.382991 1.669562 0.246428 50.000000 1 347.178647
0.476848 2.070436 1.972809 17.000000 14 347.178655
0.478669 2.078331 1.636486 21.000000 12 347.178658
0.479733 2.081288 1.340224 22.000000 10 347.178660
0.490580 2.128335 1.097139 26.000000 8 347.178663
0.400316 1.735354 0.708634 26.000000 6 347.178665
0.382722 1.657761 0.501064 82.000000 4 347.178668
0.385704 1.669351 0.330877 63.000000 2 347.178670
0.384874 1.664434 0.162589 70.000000 0 347.178673
0.021181 0.047304 4.389107 101.000000 31 347.178684
0.175139 0.675369 4.435878 101.000000 28 347.178686
0.233243 0.895114 4.470603 87.000000 27 347.178689
0.325024 1.356360 4.503342 9.000000 25 347.178691
0.326252 1.395453 3.435703 9.000000 23 347.178694
0.360336 1.542420 2.968843 18.000000 21 347.178696
0.457236 1.957173 3.024531 13.000000 19 347.178699
0.469394 2.009204 2.546078 13.000000 17 347.178701
0.078788 0.252881 4.407020 102.000000 30 347.178709
0.131232 0.460907 4.419398 98.000000 29 347.178712
0.276919 1.120599 4.478590 92.000000 26 347.178714
0.362363 1.537798 4.350609 9.000000 24 347.178717
0.332043 1.411318 3.060319 10.000000 22 347.178719
0.454596 1.933681 3.319316 13.000000 20 347.178722
0.464820 1.977160 2.763244 13.000000 18 347.178725
0.475095 2.020850 2.328770 14.000000 16 347.178727
0.476277 2.049953 2.147934 14.000000 15 347.178685
0.484354 2.084704 1.807497 17.000000 13 347.178687
0.485362 2.087393 1.489676 18.000000 11 347.178690
0.487956 2.098537 1.213877 23.000000 9 347.178693
0.407870 1.752728 0.815388 15.000000 7 347.178695
0.379832 1.630953 0.581852 77.000000 5 347.178698
0.385510 1.655334 0.414159 72.000000 3 347.178700
0.388817 1.668215 0.246428 50.000000 1 347.178703
0.483222 2.065123 1.969484 17.000000 14 347.178711
0.485921 2.076647 1.636486 22.000000 12 347.178713
0.486995 2.079601 1.340224 22.000000 10 347.178716
0.493867 2.108934 1.088747 18.000000 8 347.178718
0.406371 1.733946 0.708634 29.000000 6 347.178721
0.387396 1.651683 0.499892 79.000000 4 347.178723
0.390397 1.663173 0.330187 58.000000 2 347.178726
0.390682 1.663080 0.162589 69.000000 0 347.178728
0.021346 0.047229 4.389107 100.000000 31 347.178739
0.177297 0.674002 4.430939 101.000000 28 347.178742
0.236366 0.894294 4.470603 92.000000 27 347.178744
0.329757 1.355217 4.503342 9.000000 25 347.178747
0.331121 1.394306 3.435703 9.000000 23 347.178749
0.365718 1.541153 2.968843 18.000000 21 347.178752
0.464065 1.955565 3.024531 13.000000 19 347.178754
0.475665 2.004434 2.542241 12.000000 17 347.178757
0.079670 0.252605 4.407020 102.000000 30 347.178765
0.132841 0.460446 4.419398 98.000000 29 347.178767
0.280829 1.119625 4.478590 94.000000 26 347.178770
0.366925 1.533167 4.341224 9.000000 24 347.178772
0.336967 1.410150 3.060319 10.000000 22 347.178775
0.461949 1.934619 3.323582 13.000000 20 347.178778
0.471719 1.975525 2.763244 13.000000 18 347.178780
0.480571 2.012584 2.321420 14.000000 16 347.178783
0.481791 2.041336 2.140925 14.000000 15 347.178740
0.490733 2.079212 1.804359 17.000000 13 347.178743
0.491684 2.081616 1.486935 18.000000 11 347.178745
0.494260 2.092510 1.211559 23.000000 9 347.178748
0.407587 1.724224 0.804149 22.000000 7 347.178751
0.385523 1.629617 0.581852 77.000000 5 347.178753
0.391286 1.653979 0.414159 74.000000 3 347.178756
0.394638 1.666847 0.246428 52.000000 1 347.178758
0.488700 2.056157 1.962835 16.000000 14 347.178766
0.492232 2.071006 1.633543 22.000000 12 347.178769
0.494251 2.077888 1.340224 22.000000 10 347.178771
0.412422 1.732517 0.708634 29.000000 6 347.178776
0.393159 1.650321 0.499892 80.000000 4 347.178779
0.396201 1.661800 0.330187 59.000000 2 347.178781
0.396485 1.661706 0.162589 69.000000 0 347.178784
0.021511 0.047155 4.389107 100.000000 31 347.178795
0.179649 0.673379 4.430939 100.000000 28 347.178797
0.239486 0.893463 4.470603 94.000000 27 347.178800
0.334127 1.352608 4.498570 9.000000 25 347.178802
0.335986 1.393141 3.435703 9.000000 23 347.178805
0.370534 1.537538 2.964454 18.000000 21 347.178807
0.473526 1.964876 3.041062 15.000000 19 347.178810
0.481156 1.996528 2.534567 12.000000 17 347.178813
0.080551 0.252325 4.407020 101.000000 30 347.178820
0.134447 0.459980 4.419398 98.000000 29 347.178823
0.284736 1.118638 4.478590 94.000000 26 347.178825
0.371460 1.528523 4.331838 9.000000 24 347.178828
0.341887 1.408965 3.060319 10.000000 22 347.178831
0.469928 1.938064 3.332114 15.000000 20 347.178833
0.480033 1.979725 2.771223 14.000000 18 347.178836
0.485996 2.004305 2.314069 13.000000 16 347.178838
0.488083 2.036174 2.137420 13.000000 15 347.178796
0.497081 2.073700 1.801221 17.000000 13 347.178798
0.498948 2.079887 1.486935 19.000000 11 347.178801
0.501561 2.090772 1.211559 23.000000 9 347.178804
0.413603 1.722791 0.804149 24.000000 7 347.178806
0.391209 1.628262 0.581852 77.000000 5 347.178809
0.397057 1.652603 0.414159 72.000000 3 347.178811
0.400454 1.665460 0.246428 52.000000 1 347.178814
0.494122 2.047179 1.956185 15.000000 14 347.178822
0.498510 2.065346 1.630600 21.000000 12 347.178824
0.500489 2.071960 1.337691 24.000000 10 347.178827
0.424391 1.756916 0.923001 16.000000 8 347.178829
0.418467 1.731067 0.708634 29.000000 6 347.178832
0.397775 1.644214 0.498720 84.000000 4 347.178834
0.401999 1.660407 0.330187 64.000000 2 347.178837
0.402283 1.660312 0.162589 69.000000 0 347.178839
0.021676 0.047079 4.389107 101.000000 31 347.178850
0.181999 0.672748 4.430939 100.000000 28 347.178853
0.242604 0.892622 4.470603 94.000000 27 347.178855
0.338846 1.351433 4.498570 9.000000 25 347.178858
0.340847 1.391960 3.435703 8.000000 23 347.178860
0.375898 1.536235 2.964454 18.000000 21 347.178863
0.482388 1.971411 3.053461 16.000000 19 347.178865
0.488123 1.994836 2.534567 12.000000 17 347.178868
0.081432 0.252043 4.407020 101.000000 30 347.178876
0.136052 0.459508 4.419398 99.000000 29 347.178878
0.288639 1.117637 4.478590 95.000000 26 347.178881
0.376380 1.525542 4.327145 9.000000 24 347.178883
0.346804 1.407763 3.060319 9.000000 22 347.178886
0.477314 1.938944 3.336380 15.000000 20 347.178889
0.488381 1.983890 2.779202 15.000000 18 347.178891
0.491368 1.996013 2.306719 13.000000 16 347.178894
0.494344 2.030993 2.133916 13.000000 15 347.178851
0.503395 2.068170 1.798083 16.000000 13 347.178854
0.505215 2.074070 1.484193 18.000000 11 347.178857
0.494178 2.028747 1.179106 17.000000 9 347.178859
0.419614 1.721336 0.804149 29.000000 7 347.178862
0.396890 1.626886 0.581852 75.000000 5 347.178864
0.402823 1.651207 0.414159 70.000000 3 347.178867
0.406265 1.664052 0.246428 50.000000 1 347.178869
0.499487 2.038187 1.949535 15.000000 14 347.178877
0.504754 2.059668 1.627657 21.000000 12 347.178880
0.507719 2.070200 1.337691 22.000000 10 347.178882
0.425116 1.733384 0.912510 26.000000 8 347.178885
0.424507 1.729595 0.708634 29.000000 6 347.178887
0.403512 1.642816 0.498720 84.000000 4 347.178890
0.407792 1.658994 0.330187 63.000000 2 347.178892
0.408076 1.658898 0.162589 70.000000 0 347.178895
0.021840 0.047003 4.389107 101.000000 31 347.178906
0.184346 0.672108 4.430939 101.000000 28 347.178908
0.245447 0.890788 4.465708 92.000000 27 347.178911
0.343562 1.350242 4.498570 9.000000 25 347.178913
0.345232 1.388866 3.431100 8.000000 23 347.178916
0.380681 1.532588 2.960066 18.000000 21 347.178918
0.490623 1.975178 3.061727 16.000000 19 347.178921
0.496629 1.999343 2.542241 12.000000 17 347.178924
0.082311 0.251757 4.407020 100.000000 30 347.178931
0.137655 0.459030 4.419398 99.000000 29 347.178934
0.292538 1.116623 4.478590 95.000000 26 347.178936
0.381283 1.522545 4.322453 8.000000 24 347.178939
0.351187 1.404431 3.055819 9.000000 22 347.178942
0.484711 1.939796 3.340646 17.000000 20 347.178944
0.496034 1.985098 2.783192 15.000000 18 347.178947
0.500798 2.004153 2.317744 13.000000 16 347.178949
0.500575 2.025793 2.130411 14.000000 15 347.178907
0.509678 2.062622 1.794945 16.000000 13 347.178909
0.511448 2.068235 1.481452 16.000000 11 347.178912
0.489558 1.979703 1.153608 15.000000 9 347.178915
0.425620 1.719861 0.804149 29.000000 7 347.178917
0.403720 1.630148 0.583261 77.000000 5 347.178920
0.408585 1.649791 0.414159 70.000000 3 347.178922
0.412071 1.662623 0.246428 49.000000 1 347.178925
0.504796 2.029183 1.942886 15.000000 14 347.178933
0.510965 2.053971 1.624713 21.000000 12 347.178935
0.513900 2.064232 1.335159 18.000000 10 347.178938
0.430067 1.727486 0.910412 26.000000 8 347.178940
0.430541 1.728103 0.708634 29.000000 6 347.178943
0.409244 1.641397 0.498720 84.000000 4 347.178945
0.413581 1.657560 0.330187 63.000000 2 347.178948
0.415074 1.662310 0.162791 69.000000 0 347.178951
0.022025 0.046965 4.394106 101.000000 31 347.178961
0.186691 0.671461 4.430939 101.000000 28 347.178964
0.248555 0.889926 4.465708 92.000000 27 347.178966
0.348273 1.349035 4.498570 9.000000 25 347.178969
0.350078 1.387652 3.431100 9.000000 23 347.178971
0.386028 1.531250 2.960066 17.000000 21 347.178974
0.498203 1.976182 3.065860 16.000000 19 347.178977
0.504388 2.000706 2.546078 12.000000 17 347.178979
0.083189 0.251468 4.407020 101.000000 30 347.178987
0.139256 0.458547 4.419398 99.000000 29 347.178989
0.296434 1.115595 4.478590 95.000000 26 347.178992
0.386171 1.519532 4.317760 8.000000 24 347.178995
0.356087 1.403197 3.055819 9.000000 22 347.178997
0.492121 1.940620 3.344912 17.000000 20 347.179000
0.504442 1.989197 2.791171 15.000000 18 347.179002
0.508624 2.005678 2.321420 14.000000 16 347.179005
0.509378 2.030951 2.137420 14.000000 15 347.178962
0.515928 2.057054 1.791808 17.000000 13 347.178965
0.518664 2.066437 1.481452 16.000000 11 347.178968
0.431754 1.720166 1.014527 18.000000 9 347.178970
0.431621 1.718365 0.804149 29.000000 7 347.178973
0.409408 1.628728 0.583261 78.000000 5 347.178975
0.414341 1.648354 0.414159 74.000000 3 347.178978
0.417872 1.661175 0.246428 49.000000 1 347.178980
0.516447 2.045513 1.959510 17.000000 14 347.178988
0.518131 2.052175 1.624713 21.000000 12 347.178991
0.520046 2.058245 1.332626 16.000000 10 347.178993
0.434983 1.721574 0.908314 28.000000 8 347.178996
0.436571 1.726590 0.708634 29.000000 6 347.178998
0.414971 1.639958 0.498720 82.000000 4 347.179001
0.419364 1.656106 0.330187 63.000000 2 347.179003
0.420874 1.660851 0.162791 69.000000 0 347.179006
0.022189 0.046888 4.394106 101.000000 31 347.179017
0.189033 0.670805 4.430939 101.000000 28 347.179019
0.251660 0.889053 4.465708 92.000000 27 347.179022
0.352980 1.347811 4.498570 9.000000 25 347.179024
0.354435 1.384529 3.426497 9.000000 23 347.179027
0.391371 1.529893 2.960066 17.000000 21 347.179029
0.505098 1.974431 3.065860 17.000000 19 347.179032
0.512164 2.002039 2.549915 12.000000 17 347.179035
0.083974 0.250902 4.402028 101.000000 30 347.179042
0.140856 0.458058 4.419398 99.000000 29 347.179045
0.300327 1.114554 4.478590 95.000000 26 347.179047
0.391472 1.518175 4.317760 8.000000 24 347.179050
0.360983 1.401946 3.055819 9.000000 22 347.179053
0.499541 1.941416 3.349178 17.000000 20 347.179055
0.511383 1.987424 2.791171 15.000000 18 347.179058
0.516467 2.007174 2.325095 14.000000 16 347.179060
0.517344 2.032617 2.140925 15.000000 15 347.179018
0.523105 2.055240 1.791808 18.000000 13 347.179021
0.524842 2.060562 1.478710 17.000000 11 347.179023
0.433382 1.701476 1.005255 26.000000 9 347.179026
0.437616 1.716848 0.804149 29.000000 7 347.179028
0.415091 1.627290 0.583261 72.000000 5 347.179031
0.420092 1.646898 0.414159 74.000000 3 347.179033
0.423668 1.659706 0.246428 47.000000 1 347.179036
0.524511 2.047315 1.962835 17.000000 14 347.179044
0.525292 2.050353 1.624713 24.000000 12 347.179046
0.515450 2.010480 1.304770 14.000000 10 347.179049
0.440990 1.720045 0.908314 29.000000 8 347.179051
0.442595 1.725055 0.708634 29.000000 6 347.179054
0.420693 1.638500 0.498720 80.000000 4 347.179056
0.425143 1.654632 0.330187 59.000000 2 347.179059
0.426669 1.659372 0.162791 69.000000 0 347.179062
0.022353 0.046810 4.394106 101.000000 31 347.179072
0.191374 0.670141 4.430939 101.000000 28 347.179075
0.254762 0.888169 4.465708 92.000000 27 347.179077
0.357682 1.346571 4.498570 9.000000 25 347.179080
0.358775 1.381393 3.421895 9.000000 23 347.179082
0.396709 1.528518 2.960066 18.000000 21 347.179085
0.511987 1.972655 3.065860 16.000000 19 347.179088
0.519954 2.003342 2.553752 12.000000 17 347.179090
0.084849 0.250607 4.402028 100.000000 30 347.179098
0.142454 0.457563 4.419398 99.000000 29 347.179100
0.304215 1.113498 4.478590 95.000000 26 347.179103
0.396333 1.515130 4.313067 8.000000 24 347.179106
0.366119 1.400613 3.055819 10.000000 22 347.179108
0.507313 1.942096 3.353444 18.000000 20 347.179111
0.519425 1.988452 2.795160 14.000000 18 347.179113
0.524677 2.008548 2.328770 13.000000 16 347.179116
0.525328 2.034251 2.144429 15.000000 15 347.179073
0.530276 2.053402 1.791808 18.000000 13 347.179076
0.532032 2.058717 1.478710 19.000000 11 347.179079
0.439319 1.699953 1.005255 27.000000 9 347.179081
0.443607 1.715310 0.804149 29.000000 7 347.179084
0.420768 1.625831 0.583261 72.000000 5 347.179086
0.426126 1.645347 0.414159 74.000000 3 347.179089
0.429748 1.658142 0.246428 47.000000 1 347.179091
0.533891 2.052607 1.969484 17.000000 14 347.179099
0.532803 2.048414 1.624713 24.000000 12 347.179102
0.447291 1.718417 0.908314 28.000000 8 347.179107
0.447725 1.718851 0.706991 28.000000 6 347.179109
0.426695 1.636947 0.498720 80.000000 4 347.179112
0.431204 1.653063 0.330187 59.000000 2 347.179115
0.432459 1.657873 0.162791 68.000000 0 347.179117
0.022502 0.046690 4.389107 101.000000 31 347.179128
0.193829 0.669435 4.430939 101.000000 28 347.179130
0.258015 0.887230 4.465708 92.000000 27 347.179133
0.362615 1.345251 4.498570 9.000000 25 347.179135
0.363836 1.380069 3.421895 9.000000 23 347.179138
0.402309 1.527054 2.960066 19.000000 21 347.179141
0.519214 1.970766 3.065860 16.000000 19 347.179143
0.528110 2.004523 2.557589 12.000000 17 347.179146
0.085767 0.250294 4.402028 100.000000 30 347.179153
0.144130 0.457038 4.419398 99.000000 29 347.179156
0.308294 1.112376 4.478590 95.000000 26 347.179159
0.401440 1.511999 4.308374 8.000000 24 347.179161
0.370448 1.397222 3.051318 10.000000 22 347.179164
0.514089 1.940313 3.353444 19.000000 20 347.179166
0.525591 1.983714 2.791171 14.000000 18 347.179169
0.532553 2.009981 2.332445 13.000000 16 347.179171
0.532780 2.032312 2.144429 14.000000 15 347.179129
0.538786 2.055210 1.794945 17.000000 13 347.179132
0.539574 2.056753 1.478710 20.000000 11 347.179134
0.444422 1.694046 1.002936 28.000000 9 347.179137
0.449891 1.713673 0.804149 29.000000 7 347.179139
0.425506 1.619637 0.581852 77.000000 5 347.179142
0.431867 1.643850 0.414159 74.000000 3 347.179144
0.434268 1.651815 0.245981 40.000000 1 347.179147
0.542005 2.054342 1.972809 17.000000 14 347.179155
0.539950 2.046542 1.624713 23.000000 12 347.179157
0.441779 1.673267 1.102176 21.000000 10 347.179160
0.453287 1.716845 0.908314 28.000000 8 347.179162
0.453722 1.717278 0.706991 28.000000 6 347.179165
0.432407 1.635448 0.498720 82.000000 4 347.179167
0.435705 1.646760 0.329497 63.000000 2 347.179170
0.438532 1.656277 0.162791 67.000000 0 347.179173
0.022665 0.046611 4.389107 100.000000 31 347.179183
0.196164 0.668755 4.430939 101.000000 28 347.179186
0.261111 0.886323 4.465708 92.000000 27 347.179188
0.367309 1.343977 4.498570 9.000000 25 347.179191
0.368146 1.376903 3.417292 9.000000 23 347.179193
0.407018 1.523325 2.955677 19.000000 21 347.179196
0.526090 1.968941 3.065860 17.000000 19 347.179198
0.535104 2.002667 2.557589 12.000000 17 347.179201
0.086640 0.249994 4.402028 100.000000 30 347.179209
0.145725 0.456532 4.419398 98.000000 29 347.179211
0.311835 1.110082 4.473751 94.000000 26 347.179214
0.406716 1.510589 4.308374 8.000000 24 347.179216
0.375323 1.395920 3.051318 9.000000 22 347.179219
0.520859 1.938507 3.353444 19.000000 20 347.179221
0.532512 1.981867 2.791171 15.000000 18 347.179224
0.539566 2.008110 2.332445 13.000000 16 347.179227
0.539871 2.030440 2.144429 14.000000 15 347.179184
0.545956 2.053317 1.794945 17.000000 13 347.179187
0.546750 2.054857 1.478710 19.000000 11 347.179189
0.451472 1.696766 1.005255 28.000000 9 347.179192
0.455870 1.712092 0.804149 29.000000 7 347.179195
0.431157 1.618142 0.581852 77.000000 5 347.179197
0.436337 1.637585 0.413226 70.000000 3 347.179200
0.440031 1.650289 0.245981 40.000000 1 347.179202
0.549173 2.052437 1.972809 17.000000 14 347.179210
0.548136 2.048549 1.627657 23.000000 12 347.179213
0.446502 1.667551 1.099643 25.000000 10 347.179215
0.459277 1.715252 0.908314 28.000000 8 347.179218
0.459713 1.715684 0.706991 28.000000 6 347.179220
0.438113 1.633928 0.498720 80.000000 4 347.179223
0.441451 1.645230 0.329497 63.000000 2 347.179225
0.444311 1.654736 0.162791 68.000000 0 347.179228
0.022828 0.046532 4.389107 100.000000 31 347.179239
0.198497 0.668066 4.430939 101.000000 28 347.179241
0.263912 0.884431 4.460813 93.000000 27 347.179244
0.371599 1.341247 4.493799 9.000000 25 347.179246
0.372950 1.375609 3.417292 9.000000 23 347.179249
0.412333 1.521895 2.955677 19.000000 21 347.179251
0.532224 1.964377 3.061727 16.000000 19 347.179254
0.541253 1.997693 2.553752 12.000000 17 347.179256
0.087512 0.249690 4.402028 100.000000 30 347.179264
0.147318 0.456021 4.419398 98.000000 29 347.179267
0.315708 1.108987 4.473751 94.000000 26 347.179269
0.411532 1.507495 4.303682 8.000000 24 347.179272
0.379621 1.392500 3.046817 9.000000 22 347.179274
0.527622 1.936677 3.353444 19.000000 20 347.179277
0.539427 1.979996 2.791171 15.000000 18 347.179280
0.546573 2.006214 2.332445 13.000000 16 347.179282
0.546955 2.028543 2.144429 14.000000 15 347.179240
0.553120 2.051399 1.794945 17.000000 13 347.179242
0.553919 2.052937 1.478710 19.000000 11 347.179245
0.457392 1.695179 1.005255 28.000000 9 347.179247
0.461843 1.710490 0.804149 28.000000 7 347.179250
0.435551 1.611996 0.580442 77.000000 5 347.179253
0.442051 1.636052 0.413226 72.000000 3 347.179255
0.444489 1.643936 0.245535 39.000000 1 347.179258
0.556334 2.050508 1.972809 17.000000 14 347.179265
0.555283 2.046623 1.627657 23.000000 12 347.179268
0.453449 1.670143 1.102176 26.000000 10 347.179271
0.465261 1.713639 0.908314 28.000000 8 347.179273
0.465699 1.714069 0.706991 28.000000 6 347.179276
0.445089 1.637079 0.499892 79.000000 4 347.179278
0.447191 1.643679 0.329497 63.000000 2 347.179281
0.450085 1.653175 0.162791 66.000000 0 347.179283
0.022968 0.046414 4.384107 96.000000 31 347.179294
0.200828 0.667369 4.430939 101.000000 28 347.179297
0.266997 0.883505 4.460813 93.000000 27 347.179299
0.376279 1.339942 4.493799 9.000000 25 347.179302
0.377232 1.372415 3.412690 9.000000 23 347.179304
0.417643 1.520447 2.955677 19.000000 21 347.179307
0.539077 1.962507 3.061727 16.000000 19 347.179309
0.548223 1.995791 2.553752 12.000000 17 347.179312
0.088383 0.249383 4.402028 100.000000 30 347.179320
0.148908 0.455504 4.419398 98.000000 29 347.179322
0.319577 1.107878 4.473751 95.000000 26 347.179325
0.416791 1.506049 4.303682 8.000000 24 347.179327
0.384479 1.391167 3.046817 10.000000 22 347.179330
0.534379 1.934823 3.353444 19.000000 20 347.179333
0.546335 1.978101 2.791171 15.000000 18 347.179335
0.553572 2.004294 2.332445 13.000000 16 347.179338
0.554033 2.026622 2.144429 14.000000 15 347.179295
0.560278 2.049456 1.794945 17.000000 13 347.179298
0.561082 2.050990 1.478710 19.000000 11 347.179300
0.463306 1.693573 1.005255 28.000000 9 347.179303
0.467811 1.708867 0.804149 28.000000 7 347.179306
0.441175 1.610466 0.580442 75.000000 5 347.179308
0.446461 1.629762 0.412293 74.000000 3 347.179311
0.450225 1.642374 0.245535 39.000000 1 347.179313
0.563488 2.048553 1.972809 17.000000 14 347.179321
0.562424 2.044673 1.627657 23.000000 12 347.179324
0.459276 1.668550 1.102176 27.000000 10 347.179326
0.471240 1.712004 0.908314 27.000000 8 347.179329
0.471680 1.712433 0.706991 28.000000 6 347.179331
0.450801 1.635516 0.499892 77.000000 4 347.179334
0.452926 1.642108 0.329497 61.000000 2 347.179336
0.455853 1.651594 0.162791 65.000000 0 347.179339
0.023129 0.046334 4.384107 96.000000 31 347.179350
0.202930 0.665921 4.425999 101.000000 28 347.179352
0.270080 0.882567 4.460813 93.000000 27 347.179355
0.380954 1.338620 4.493799 9.000000 25 347.179357
0.382020 1.371090 3.412690 9.000000 23 347.179360
0.422948 1.518980 2.955677 19.000000 21 347.179362
0.545925 1.960613 3.061727 16.000000 19 347.179365
0.555186 1.993865 2.553752 12.000000 17 347.179367
0.089253 0.249073 4.402028 100.000000 30 347.179375
0.150498 0.454981 4.419398 98.000000 29 347.179378
0.323443 1.106756 4.473751 95.000000 26 347.179380
0.421580 1.502924 4.298989 8.000000 24 347.179383
0.389333 1.389816 3.046817 10.000000 22 347.179385
0.542536 1.937969 3.361975 17.000000 20 347.179388
0.554049 1.979084 2.795160 15.000000 18 347.179391
0.560565 2.002349 2.332445 14.000000 16 347.179393
0.561104 2.024676 2.144429 15.000000 15 347.179351
0.567428 2.047487 1.794945 18.000000 13 347.179353
0.568238 2.049019 1.478710 19.000000 11 347.179356
0.469215 1.691945 1.005255 28.000000 9 347.179359
0.473773 1.707224 0.804149 28.000000 7 347.179361
0.446794 1.608916 0.580442 75.000000 5 347.179364
0.452147 1.628193 0.412293 72.000000 3 347.179366
0.454621 1.635995 0.245089 52.000000 1 347.179369
0.569633 2.042977 1.969484 17.000000 14 347.179377
0.569557 2.042697 1.627657 23.000000 12 347.179379
0.465098 1.666936 1.102176 29.000000 10 347.179382
0.477214 1.710349 0.908314 27.000000 8 347.179384
0.477654 1.710776 0.706991 29.000000 6 347.179387
0.456507 1.633932 0.499892 79.000000 4 347.179389
0.458655 1.640517 0.329497 61.000000 2 347.179392
0.461615 1.649992 0.162791 64.000000 0 347.179394
0.023291 0.046253 4.384107 100.000000 31 347.179405
0.205253 0.665208 4.425999 96.000000 28 347.179408
0.273159 0.881619 4.460813 93.000000 27 347.179410
0.385624 1.337282 4.493799 9.000000 25 347.179413
0.386804 1.369748 3.412690 9.000000 23 347.179415
0.427597 1.515188 2.951288 18.000000 21 347.179418
0.552765 1.958696 3.061727 16.000000 19 347.179420
0.561272 1.988830 2.549915 12.000000 17 347.179423
0.090122 0.248760 4.402028 100.000000 30 347.179431
0.152085 0.454453 4.419398 98.000000 29 347.179433
0.327304 1.105620 4.473751 94.000000 26 347.179436
0.426823 1.501443 4.298989 9.000000 24 347.179438
0.393587 1.386354 3.042316 10.000000 22 347.179441
0.559976 1.973699 3.425965 13.000000 20 347.179444
0.560954 1.977138 2.795160 15.000000 18 347.179446
0.568477 2.003642 2.336120 14.000000 16 347.179449
0.569132 2.026138 2.147934 14.000000 15 347.179406
0.573519 2.041746 1.791808 18.000000 13 347.179409
0.575387 2.047023 1.478710 19.000000 11 347.179411
0.475118 1.690297 1.005255 28.000000 9 347.179414
0.479730 1.705560 0.804149 29.000000 7 347.179417
0.452408 1.607347 0.580442 75.000000 5 347.179419
0.456497 1.621877 0.411361 72.000000 3 347.179422
0.460329 1.634398 0.245089 52.000000 1 347.179424
0.576761 2.040976 1.969484 17.000000 14 347.179432
0.576684 2.040697 1.627657 23.000000 12 347.179435
0.470914 1.665303 1.102176 28.000000 10 347.179437
0.483181 1.708673 0.908314 27.000000 8 347.179440
0.483623 1.709098 0.706991 29.000000 6 347.179442
0.462208 1.632329 0.499892 79.000000 4 347.179445
0.464379 1.638906 0.329497 63.000000 2 347.179447
0.467372 1.648371 0.162791 64.000000 0 347.179450
0.023452 0.046171 4.384107 100.000000 31 347.179461
0.207574 0.664488 4.425999 96.000000 28 347.179463
0.276234 0.880660 4.460813 92.000000 27 347.179466
0.389871 1.334494 4.489028 9.000000 25 347.179468
0.391583 1.368390 3.412690 8.000000 23 347.179471
0.432883 1.513687 2.951288 19.000000 21 347.179473
0.559599 1.956754 3.061727 16.000000 19 347.179476
0.568211 1.986859 2.549915 12.000000 17 347.179479
0.090990 0.248443 4.402028 101.000000 30 347.179486
0.153670 0.453920 4.419398 98.000000 29 347.179489
0.331161 1.104471 4.473751 94.000000 26 347.179491
0.431584 1.498286 4.294296 9.000000 24 347.179494
0.398424 1.384971 3.042316 10.000000 22 347.179497
0.592083 2.059459 3.575272 11.000000 20 347.179499
0.567852 1.975168 2.795160 15.000000 18 347.179502
0.573594 1.995129 2.328770 14.000000 16 347.179504
0.576201 2.024139 2.147934 15.000000 15 347.179462
0.580643 2.039732 1.791808 18.000000 13 347.179464
0.582529 2.045002 1.478710 20.000000 11 347.179467
0.479802 1.684367 1.002936 29.000000 9 347.179470
0.484410 1.699417 0.802276 29.000000 7 347.179472
0.458016 1.605758 0.580442 75.000000 5 347.179475
0.462156 1.620273 0.411361 70.000000 3 347.179477
0.464665 1.627992 0.244643 52.000000 1 347.179480
0.582853 2.035360 1.966160 17.000000 14 347.179488
0.583804 2.038671 1.627657 23.000000 12 347.179490
0.476724 1.663649 1.102176 27.000000 10 347.179493
0.489142 1.706976 0.908314 27.000000 8 347.179495
0.489586 1.707399 0.706991 29.000000 6 347.179498
0.467903 1.630706 0.499892 79.000000 4 347.179500
0.470097 1.637275 0.329497 63.000000 2 347.179503
0.473123 1.646729 0.162791 63.000000 0 347.179505
0.023613 0.046089 4.384107 100.000000 31 347.179516
0.209892 0.663759 4.425999 100.000000 28 347.179519
0.279307 0.879691 4.460813 90.000000 27 347.179521
0.394527 1.333125 4.489028 9.000000 25 347.179524
0.396357 1.367015 3.412690 8.000000 23 347.179526
0.438164 1.512166 2.951288 19.000000 21 347.179529
0.566426 1.954789 3.061727 15.000000 19 347.179531
0.575143 1.984863 2.549915 11.000000 17 347.179534
0.091856 0.248124 4.402028 101.000000 30 347.179542
0.155254 0.453380 4.419398 98.000000 29 347.179544
0.335015 1.103308 4.473751 95.000000 26 347.179547
0.436811 1.496770 4.294296 9.000000 24 347.179549
0.403256 1.383572 3.042316 10.000000 22 347.179552
0.629173 2.160042 3.750175 10.000000 20 347.179555
0.580644 1.993430 2.823087 13.000000 18 347.179557
0.580554 1.993115 2.328770 13.000000 16 347.179560
0.584252 2.025542 2.151439 15.000000 15 347.179517
0.586680 2.033952 1.788670 18.000000 13 347.179520
0.589664 2.042956 1.478710 20.000000 11 347.179523
0.485679 1.682682 1.002936 29.000000 9 347.179525
0.490339 1.697715 0.802276 28.000000 7 347.179528
0.464950 1.608758 0.581852 73.000000 5 347.179530
0.467809 1.618650 0.411361 70.000000 3 347.179533
0.470345 1.626360 0.244643 49.000000 1 347.179535
0.589954 2.033313 1.966160 18.000000 14 347.179543
0.589790 2.032739 1.624713 23.000000 12 347.179546
0.481326 1.657834 1.099643 27.000000 10 347.179548
0.495098 1.705258 0.908314 27.000000 8 347.179551
0.495543 1.705680 0.706991 29.000000 6 347.179553
0.473592 1.629062 0.499892 80.000000 4 347.179556
0.475809 1.635624 0.329497 61.000000 2 347.179558
0.478868 1.645068 0.162791 60.000000 0 347.179561
0.023774 0.046006 4.384107 100.000000 31 347.179572
0.212208 0.663022 4.425999 101.000000 28 347.179574
0.282376 0.878710 4.460813 90.000000 27 347.179577
0.399178 1.331740 4.489028 9.000000 25 347.179579
0.400576 1.363748 3.408087 8.000000 23 347.179582
0.443440 1.510628 2.951288 19.000000 21 347.179584
0.574038 1.955500 3.065860 15.000000 19 347.179587
0.590195 2.010528 2.584447 10.000000 17 347.179590
0.092722 0.247802 4.402028 101.000000 30 347.179597
0.156835 0.452836 4.419398 98.000000 29 347.179600
0.338864 1.102132 4.473751 94.000000 26 347.179602
0.441544 1.493581 4.289603 9.000000 24 347.179605
0.408083 1.382156 3.042316 10.000000 22 347.179608
0.665495 2.255387 3.916547 12.000000 20 347.179610
0.608070 2.060768 2.918835 12.000000 18 347.179613
0.596143 2.020340 2.361846 12.000000 16 347.179615
0.590318 2.020067 2.147934 16.000000 15 347.179573
0.593777 2.031892 1.788670 19.000000 13 347.179575
0.595618 2.036872 1.475969 20.000000 11 347.179578
0.491549 1.680977 1.002936 28.000000 9 347.179581
0.496262 1.695993 0.802276 28.000000 7 347.179583
0.470563 1.607125 0.581852 72.000000 5 347.179586
0.473456 1.617007 0.411361 72.000000 3 347.179588
0.476019 1.624708 0.244643 49.000000 1 347.179591
0.594942 2.024076 1.959510 18.000000 14 347.179599
0.598022 2.034546 1.627657 23.000000 12 347.179601
0.487110 1.656144 1.099643 28.000000 10 347.179604
0.501047 1.703519 0.908314 27.000000 8 347.179606
0.501494 1.703940 0.706991 29.000000 6 347.179609
0.479276 1.627399 0.499892 80.000000 4 347.179611
0.481516 1.633953 0.329497 59.000000 2 347.179614
0.484607 1.643386 0.162791 60.000000 0 347.179617
0.023935 0.045923 4.384107 100.000000 31 347.179627
0.214521 0.662278 4.425999 101.000000 28 347.179630
0.285126 0.876751 4.455918 93.000000 27 347.179632
0.403824 1.330339 4.489028 9.000000 25 347.179635
0.405334 1.362342 3.408087 9.000000 23 347.179637
0.448710 1.509071 2.951288 18.000000 21 347.179640
0.580861 1.953484 3.065860 15.000000 19 347.179643
0.614571 2.066842 2.657349 8.000000 17 347.179645
0.093586 0.247477 4.402028 100.000000 30 347.179653
0.158415 0.452286 4.419398 98.000000 29 347.179655
0.342335 1.099741 4.468912 94.000000 26 347.179658
0.446755 1.492031 4.289603 9.000000 24 347.179661
0.412905 1.380723 3.042316 10.000000 22 347.179663
0.689793 2.308024 4.010397 15.000000 20 347.179666
0.635973 2.127939 3.014583 12.000000 18 347.179668
0.616783 2.063721 2.413299 10.000000 16 347.179671
0.599391 2.024833 2.154943 16.000000 15 347.179628
0.600865 2.029807 1.788670 19.000000 13 347.179631
0.602724 2.034781 1.475969 20.000000 11 347.179634
0.497414 1.679251 1.002936 28.000000 9 347.179636
0.500861 1.689806 0.800403 28.000000 7 347.179639
0.477534 1.610072 0.583261 68.000000 5 347.179641
0.479098 1.615345 0.411361 72.000000 3 347.179644
0.481687 1.623037 0.244643 49.000000 1 347.179646
0.605201 2.032724 1.969484 18.000000 14 347.179654
0.605121 2.032446 1.627657 23.000000 12 347.179657
0.492888 1.654433 1.099643 27.000000 10 347.179659
0.506991 1.701760 0.908314 29.000000 8 347.179662
0.507439 1.702179 0.706991 29.000000 6 347.179664
0.484953 1.625716 0.499892 79.000000 4 347.179667
0.487216 1.632262 0.329497 59.000000 2 347.179669
0.490341 1.641685 0.162791 59.000000 0 347.179672
0.024095 0.045839 4.384107 100.000000 31 347.179683
