# .PCD v.7 - Point Cloud Data file format
VERSION .7
FIELDS x y z intensity ring timestamp
SIZE 4 4 4 4 2 8
TYPE F F F F U D
COUNT 1 1 1 1 1 1
WIDTH 924
HEIGHT 1
VIEWPOINT 0 0 0 1 0 0 0
POINTS 924
DATA ascii
1.134728 -1.716985 0.176696 36.000000 0 348.615821
0.022849 -0.057559 5.549062 98.000000 31 348.615832
0.462362 -0.741788 5.557089 36.000000 28 348.615834
0.414853 -0.667023 3.799957 10.000000 27 348.615837
0.641780 -0.988061 3.811442 38.000000 25 348.615839
0.870938 -1.324832 3.794699 35.000000 23 348.615842
1.019081 -1.549606 3.464762 37.000000 21 348.615844
1.095079 -1.665175 2.999733 61.000000 19 348.615847
1.352142 -2.056074 3.021859 15.000000 17 348.615849
0.161756 -0.290317 5.570064 36.000000 30 348.615857
0.306721 -0.519276 5.572765 34.000000 29 348.615860
0.526370 -0.823029 3.796262 39.000000 26 348.615862
0.756861 -1.155681 3.810941 38.000000 24 348.615865
0.989323 -1.509510 3.793956 17.000000 22 348.615867
1.020501 -1.556500 3.114551 39.000000 20 348.615870
1.207821 -1.842215 2.990646 59.000000 18 348.615873
1.338984 -2.042275 2.725688 8.000000 16 348.615875
1.309686 -1.986228 2.417784 6.000000 15 348.615833
1.276736 -1.936262 1.951834 28.000000 13 348.615835
1.241547 -1.883611 1.563696 32.000000 11 348.615838
1.224720 -1.858086 1.250965 37.000000 9 348.615840
1.194151 -1.812397 0.965230 39.000000 7 348.615843
1.171784 -1.779125 0.715725 39.000000 5 348.615846
1.153732 -1.751717 0.489701 43.000000 3 348.615848
1.133633 -1.721855 0.277662 36.000000 1 348.615851
1.289839 -1.962831 2.172300 26.000000 14 348.615858
1.253369 -1.907337 1.745383 33.000000 12 348.615861
1.224714 -1.864440 1.395937 36.000000 10 348.615864
1.209113 -1.840695 1.105531 39.000000 8 348.615866
1.182284 -1.800536 0.838406 44.000000 6 348.615869
1.160305 -1.767735 0.600711 50.000000 4 348.615871
1.143662 -1.743042 0.382613 40.000000 2 348.615874
1.123247 -1.712580 0.176293 35.000000 0 348.615876
0.022648 -0.057638 5.549062 91.000000 31 348.615887
0.459770 -0.743397 5.557089 36.000000 28 348.615890
0.412523 -0.668468 3.799957 11.000000 27 348.615892
0.638327 -0.990295 3.811442 38.000000 25 348.615895
0.866309 -1.327864 3.794699 35.000000 23 348.615897
1.014976 -1.555161 3.469150 37.000000 21 348.615900
1.089260 -1.668987 2.999733 61.000000 19 348.615902
1.343204 -2.058096 3.018022 15.000000 17 348.615905
0.160742 -0.290880 5.570064 35.000000 30 348.615913
0.304906 -0.520343 5.572765 34.000000 29 348.615915
0.523494 -0.824862 3.796262 39.000000 26 348.615918
0.752822 -1.158316 3.810941 38.000000 24 348.615920
0.984048 -1.512954 3.793956 15.000000 22 348.615923
1.017907 -1.564424 3.123083 39.000000 20 348.615926
1.201383 -1.846419 2.990646 59.000000 18 348.615928
1.322602 -2.032729 2.707312 8.000000 16 348.615931
1.294933 -1.978852 2.403766 6.000000 15 348.615888
1.263574 -1.930935 1.942421 28.000000 13 348.615891
1.230387 -1.880935 1.558213 33.000000 11 348.615893
1.210951 -1.851228 1.244011 37.000000 9 348.615896
1.180206 -1.804914 0.959611 39.000000 7 348.615899
1.160317 -1.775173 0.712907 39.000000 5 348.615901
1.142235 -1.747510 0.487836 47.000000 3 348.615904
1.122168 -1.717463 0.276770 36.000000 1 348.615906
1.274820 -1.954810 2.159001 27.000000 14 348.615914
1.240080 -1.901544 1.736554 33.000000 12 348.615917
1.213490 -1.861481 1.390872 37.000000 10 348.615919
1.197724 -1.837300 1.101335 39.000000 8 348.615922
1.168257 -1.792782 0.833478 44.000000 6 348.615924
1.148821 -1.763629 0.598366 51.000000 4 348.615927
1.132166 -1.738724 0.381233 43.000000 2 348.615929
1.111812 -1.708117 0.175890 35.000000 0 348.615932
0.022460 -0.057758 5.554062 91.000000 31 348.615943
0.457172 -0.744998 5.557089 36.000000 28 348.615945
0.410718 -0.670772 3.804852 12.000000 27 348.615948
0.634866 -0.992517 3.811442 38.000000 25 348.615950
0.861668 -1.330880 3.794699 36.000000 23 348.615953
1.010843 -1.560705 3.473539 36.000000 21 348.615955
1.083428 -1.672779 2.999733 61.000000 19 348.615958
1.332527 -2.057391 3.010348 16.000000 17 348.615960
0.159587 -0.291185 5.565073 35.000000 30 348.615968
0.303088 -0.521404 5.572765 34.000000 29 348.615971
0.520611 -0.826684 3.796262 39.000000 26 348.615973
0.748774 -1.160937 3.810941 37.000000 24 348.615976
0.978761 -1.516380 3.793956 14.000000 22 348.615978
1.013854 -1.570159 3.127349 39.000000 20 348.615981
1.194931 -1.850602 2.990646 61.000000 18 348.615984
1.306304 -2.023093 2.688936 8.000000 16 348.615986
1.280249 -1.971396 2.389748 7.000000 15 348.615944
1.248346 -1.922274 1.929870 28.000000 13 348.615946
1.216983 -1.874697 1.549989 33.000000 11 348.615949
1.197245 -1.844296 1.237057 37.000000 9 348.615952
1.168851 -1.801244 0.955865 39.000000 7 348.615954
1.148892 -1.771163 0.710088 40.000000 5 348.615957
1.128109 -1.739123 0.485038 43.000000 3 348.615959
1.110747 -1.713013 0.275877 37.000000 1 348.615962
1.259873 -1.946707 2.145701 27.000000 14 348.615970
1.226846 -1.895681 1.727724 34.000000 12 348.615972
1.199960 -1.854846 1.383275 37.000000 10 348.615975
1.183908 -1.830038 1.095041 39.000000 8 348.615977
1.156863 -1.788918 0.830193 47.000000 6 348.615980
1.134742 -1.755382 0.594850 51.000000 4 348.615982
1.120714 -1.734346 0.379854 45.000000 2 348.615985
1.100421 -1.703594 0.175487 36.000000 0 348.615987
0.022258 -0.057836 5.554062 97.000000 31 348.615998
0.454569 -0.746589 5.557089 31.000000 28 348.616001
0.408902 -0.673072 3.809747 14.000000 27 348.616003
0.631398 -0.994727 3.811442 38.000000 25 348.616006
0.855961 -1.332235 3.790097 35.000000 23 348.616008
1.007980 -1.568255 3.482316 36.000000 21 348.616011
1.077582 -1.676551 2.999733 61.000000 19 348.616013
1.325337 -2.062030 3.010348 18.000000 17 348.616016
0.158570 -0.291740 5.565073 35.000000 30 348.616024
0.301266 -0.522459 5.572765 34.000000 29 348.616026
0.517722 -0.828496 3.796262 40.000000 26 348.616029
0.744717 -1.163544 3.810941 37.000000 24 348.616031
0.973462 -1.519787 3.793956 13.000000 22 348.616034
1.011181 -1.578080 3.135881 39.000000 20 348.616037
1.188464 -1.854762 2.990646 61.000000 18 348.616039
1.290089 -2.013368 2.670560 9.000000 16 348.616042
1.267564 -1.966860 2.379234 7.000000 15 348.615999
1.235302 -1.916803 1.920456 29.000000 13 348.616002
1.203638 -1.868388 1.541764 33.000000 11 348.616004
1.183602 -1.837291 1.230103 37.000000 9 348.616007
1.157537 -1.797518 0.952119 40.000000 7 348.616010
1.137509 -1.767095 0.707270 40.000000 5 348.616012
1.116713 -1.734789 0.483173 45.000000 3 348.616015
1.099371 -1.708504 0.274985 37.000000 1 348.616017
1.247016 -1.941667 2.135727 26.000000 14 348.616025
1.213669 -1.889749 1.718895 34.000000 12 348.616028
1.186491 -1.848139 1.375678 37.000000 10 348.616030
1.172609 -1.826521 1.090845 39.000000 8 348.616033
1.142960 -1.781022 0.825265 44.000000 6 348.616035
1.123358 -1.751150 0.592505 48.000000 4 348.616038
1.109307 -1.729910 0.378474 43.000000 2 348.616040
1.089076 -1.699013 0.175084 36.000000 0 348.616043
0.022056 -0.057914 5.554062 97.000000 31 348.616054
0.451960 -0.748171 5.557089 31.000000 28 348.616056
0.407075 -0.675368 3.814643 19.000000 27 348.616059
0.627922 -0.996925 3.811442 37.000000 25 348.616061
0.851306 -1.335215 3.790097 35.000000 23 348.616064
1.005076 -1.575804 3.491094 36.000000 21 348.616066
1.071723 -1.680302 2.999733 62.000000 19 348.616069
1.318131 -2.066643 3.010348 20.000000 17 348.616072
0.157550 -0.292292 5.565073 36.000000 30 348.616079
0.299705 -0.523971 5.577736 34.000000 29 348.616082
0.514827 -0.830299 3.796262 40.000000 26 348.616084
0.740651 -1.166136 3.810941 38.000000 24 348.616087
0.966982 -1.521338 3.789455 13.000000 22 348.616090
1.008465 -1.586002 3.144413 38.000000 20 348.616092
1.180365 -1.856356 2.986656 61.000000 18 348.616095
1.273958 -2.003555 2.652184 9.000000 16 348.616097
1.253005 -1.959255 2.365216 18.000000 15 348.616055
1.220214 -1.907986 1.907905 28.000000 13 348.616057
1.190353 -1.862009 1.533540 33.000000 11 348.616060
1.172409 -1.833946 1.225467 37.000000 9 348.616063
1.146263 -1.793735 0.948373 40.000000 7 348.616065
1.123586 -1.758926 0.703042 40.000000 5 348.616068
1.105362 -1.730398 0.481307 47.000000 3 348.616070
1.088040 -1.703936 0.274093 37.000000 1 348.616073
1.232203 -1.933411 2.122427 26.000000 14 348.616081
1.200548 -1.883748 1.710065 34.000000 12 348.616083
1.173083 -1.841361 1.368080 37.000000 10 348.616086
1.161349 -1.822947 1.086649 40.000000 8 348.616088
1.131663 -1.777035 0.821979 45.000000 6 348.616091
1.112019 -1.746860 0.590160 50.000000 4 348.616093
1.100603 -1.729594 0.377784 43.000000 2 348.616096
1.077775 -1.694373 0.174681 36.000000 0 348.616098
0.021854 -0.057990 5.554062 97.000000 31 348.616109
0.448947 -0.749078 5.552151 34.000000 28 348.616112
0.404193 -0.675910 3.809747 26.000000 27 348.616114
0.623647 -0.997844 3.806670 38.000000 25 348.616117
0.846640 -1.338179 3.790097 36.000000 23 348.616119
1.000851 -1.581326 3.495482 36.000000 21 348.616122
1.065851 -1.684033 2.999733 62.000000 19 348.616124
1.298907 -2.052269 2.983490 21.000000 17 348.616127
0.156716 -0.293068 5.570064 36.000000 30 348.616135
0.297966 -0.524962 5.577736 35.000000 29 348.616137
0.512071 -0.832001 3.796262 39.000000 26 348.616140
0.736780 -1.168586 3.810941 38.000000 24 348.616142
0.961666 -1.524704 3.789455 12.000000 22 348.616145
1.005706 -1.593924 3.152945 38.000000 20 348.616148
1.173878 -1.860464 2.986656 59.000000 18 348.616150
1.260069 -1.996301 2.637484 9.000000 16 348.616153
1.240426 -1.954584 2.354702 29.000000 15 348.616110
1.207289 -1.902373 1.898492 28.000000 13 348.616113
1.179366 -1.859091 1.528057 34.000000 11 348.616116
1.158881 -1.826804 1.218513 37.000000 9 348.616118
1.132858 -1.785782 0.942754 40.000000 7 348.616121
1.112609 -1.754540 0.700224 40.000000 5 348.616123
1.094056 -1.725948 0.479442 45.000000 3 348.616126
1.074089 -1.695104 0.272754 37.000000 1 348.616128
1.219458 -1.928232 2.112453 26.000000 14 348.616136
1.187484 -1.877679 1.701236 35.000000 12 348.616139
1.162361 -1.837954 1.363016 37.000000 10 348.616141
1.150446 -1.819117 1.082453 40.000000 8 348.616144
1.120717 -1.772794 0.818694 42.000000 6 348.616146
1.098430 -1.738211 0.586643 50.000000 4 348.616149
1.089572 -1.724861 0.376405 43.000000 2 348.616151
1.066816 -1.689489 0.174278 36.000000 0 348.616154
0.021661 -0.058063 5.554062 97.000000 31 348.616165
0.446460 -0.750562 5.552151 33.000000 28 348.616167
0.401950 -0.677247 3.809747 30.000000 27 348.616170
0.620334 -0.999907 3.806670 38.000000 25 348.616172
0.842197 -1.340979 3.790097 36.000000 23 348.616175
0.998150 -1.588694 3.504260 36.000000 21 348.616177
1.058764 -1.685176 2.995600 61.000000 19 348.616180
1.283567 -2.042992 2.964305 18.000000 17 348.616183
0.155692 -0.293613 5.570064 37.000000 30 348.616190
0.296132 -0.525999 5.577736 35.000000 29 348.616193
0.509164 -0.833784 3.796262 39.000000 26 348.616195
0.732696 -1.171151 3.810941 38.000000 24 348.616198
0.956605 -1.527885 3.789455 12.000000 22 348.616201
1.003184 -1.601671 3.161477 38.000000 20 348.616203
1.167702 -1.864347 2.986656 59.000000 18 348.616206
1.245894 -1.989195 2.622783 8.000000 16 348.616208
1.228234 -1.949634 2.344189 34.000000 15 348.616166
1.194748 -1.896484 1.889079 30.000000 13 348.616168
1.166510 -1.852377 1.519832 34.000000 11 348.616171
1.148095 -1.823140 1.213877 37.000000 9 348.616174
1.121678 -1.781879 0.939008 40.000000 7 348.616176
1.098813 -1.746232 0.695997 42.000000 5 348.616179
1.083094 -1.721251 0.477577 47.000000 3 348.616181
1.063159 -1.690225 0.271862 37.000000 1 348.616184
1.205115 -1.919614 2.099154 27.000000 14 348.616192
1.174803 -1.871336 1.692406 35.000000 12 348.616194
1.149064 -1.831045 1.355418 38.000000 10 348.616197
1.136851 -1.811589 1.076159 40.000000 8 348.616199
1.109503 -1.768694 0.815409 44.000000 6 348.616202
1.087191 -1.733799 0.584299 50.000000 4 348.616204
1.078284 -1.720261 0.375025 45.000000 2 348.616207
1.055607 -1.684736 0.173875 36.000000 0 348.616210
0.021458 -0.058138 5.554062 98.000000 31 348.616220
0.443443 -0.751447 5.547211 33.000000 28 348.616223
0.399067 -0.677768 3.804852 36.000000 27 348.616225
0.616840 -1.002066 3.806670 37.000000 25 348.616228
0.837512 -1.343911 3.790097 36.000000 23 348.616230
0.995134 -1.596234 3.513037 38.000000 21 348.616233
1.052875 -1.688861 2.995600 61.000000 19 348.616236
1.267948 -2.033858 2.945120 17.000000 17 348.616238
0.154666 -0.294155 5.570064 37.000000 30 348.616246
0.294294 -0.527030 5.577736 35.000000 29 348.616248
0.506250 -0.835556 3.796262 40.000000 26 348.616251
0.727694 -1.172235 3.806248 38.000000 24 348.616254
0.952415 -1.533065 3.793956 11.000000 22 348.616256
0.998963 -1.607378 3.165743 38.000000 20 348.616259
1.161187 -1.868412 2.986656 61.000000 18 348.616261
1.231785 -1.982014 2.608083 8.000000 16 348.616264
1.215750 -1.944837 2.333675 30.000000 15 348.616221
1.181931 -1.890741 1.879665 31.000000 13 348.616224
1.153389 -1.845799 1.511608 33.000000 11 348.616227
1.137029 -1.819622 1.209241 37.000000 9 348.616229
1.110539 -1.777920 0.935262 40.000000 7 348.616232
1.087629 -1.741918 0.693178 42.000000 5 348.616234
1.071875 -1.716687 0.475712 47.000000 3 348.616237
1.051979 -1.685477 0.270969 37.000000 1 348.616239
1.192484 -1.914300 2.089179 28.000000 14 348.616247
1.161852 -1.865133 1.683577 35.000000 12 348.616250
1.138107 -1.827725 1.350353 38.000000 10 348.616252
1.125723 -1.807841 1.071962 40.000000 8 348.616255
1.095836 -1.760529 0.810481 44.000000 6 348.616257
1.075997 -1.729330 0.581954 50.000000 4 348.616260
1.067042 -1.715604 0.373645 43.000000 2 348.616262
1.044444 -1.679925 0.173472 36.000000 0 348.616265
0.021255 -0.058212 5.554062 98.000000 31 348.616276
0.440817 -0.752990 5.547211 29.000000 28 348.616278
0.396186 -0.678278 3.799957 42.000000 27 348.616281
0.613339 -1.004213 3.806670 37.000000 25 348.616283
0.831788 -1.345164 3.785494 36.000000 23 348.616286
0.992076 -1.603773 3.521814 37.000000 21 348.616288
1.046974 -1.692526 2.995600 61.000000 19 348.616291
1.252408 -2.024639 2.925935 16.000000 17 348.616294
0.153638 -0.294693 5.570064 37.000000 30 348.616301
0.292452 -0.528054 5.577736 36.000000 29 348.616304
0.503330 -0.837318 3.796262 40.000000 26 348.616306
0.723597 -1.174768 3.806248 38.000000 24 348.616309
0.948200 -1.538233 3.798456 11.000000 22 348.616312
0.996084 -1.615295 3.174274 38.000000 20 348.616314
1.154658 -1.872454 2.986656 61.000000 18 348.616317
1.217742 -1.974760 2.593382 8.000000 16 348.616319
1.205195 -1.943008 2.326666 22.000000 15 348.616277
1.169168 -1.884930 1.870252 31.000000 13 348.616280
1.140329 -1.839153 1.503384 34.000000 11 348.616282
1.123667 -1.812284 1.202287 37.000000 9 348.616285
1.099442 -1.773905 0.931516 42.000000 7 348.616287
1.076489 -1.737548 0.690360 45.000000 5 348.616290
1.060702 -1.712067 0.473846 47.000000 3 348.616292
1.040845 -1.680671 0.270077 37.000000 1 348.616295
1.179904 -1.908922 2.079205 28.000000 14 348.616303
1.148960 -1.858863 1.674747 35.000000 12 348.616305
1.124922 -1.820684 1.342756 38.000000 10 348.616308
1.112249 -1.800176 1.065668 40.000000 8 348.616310
1.084720 -1.756307 0.807195 44.000000 6 348.616313
1.064847 -1.724803 0.579609 51.000000 4 348.616315
1.055845 -1.710890 0.372266 45.000000 2 348.616318
1.033328 -1.675056 0.173069 36.000000 0 348.616321
0.021052 -0.058286 5.554062 98.000000 31 348.616331
0.437796 -0.753852 5.542272 28.000000 28 348.616334
0.393816 -0.679657 3.799957 41.000000 27 348.616336
0.609829 -1.006348 3.806670 38.000000 25 348.616339
0.827087 -1.348059 3.785494 33.000000 23 348.616341
0.988978 -1.611310 3.530591 36.000000 21 348.616344
1.039587 -1.693772 2.991467 61.000000 19 348.616347
1.238625 -2.018069 2.910588 16.000000 17 348.616349
0.152609 -0.295228 5.570064 37.000000 30 348.616357
0.290607 -0.529071 5.577736 35.000000 29 348.616359
0.500404 -0.839070 3.796262 39.000000 26 348.616362
0.719492 -1.177287 3.806248 38.000000 24 348.616365
0.943961 -1.543392 3.802957 11.000000 22 348.616367
0.993162 -1.623211 3.182806 38.000000 20 348.616370
1.148115 -1.876473 2.986656 61.000000 18 348.616372
1.203764 -1.967431 2.578681 8.000000 16 348.616375
1.192797 -1.938092 2.316152 22.000000 15 348.616332
1.156460 -1.879054 1.860839 31.000000 13 348.616335
1.129520 -1.835999 1.497901 34.000000 11 348.616338
1.112691 -1.808649 1.197651 37.000000 9 348.616340
1.085958 -1.765885 0.925897 40.000000 7 348.616343
1.065393 -1.733121 0.687541 43.000000 5 348.616345
1.049575 -1.707389 0.471981 47.000000 3 348.616348
1.029758 -1.675808 0.269184 37.000000 1 348.616350
1.167376 -1.903479 2.069230 28.000000 14 348.616358
1.136124 -1.852525 1.665918 35.000000 12 348.616361
1.114054 -1.817248 1.337691 38.000000 10 348.616363
1.101214 -1.796309 1.061472 40.000000 8 348.616366
1.073648 -1.752030 0.803910 44.000000 6 348.616368
1.053742 -1.720220 0.577265 51.000000 4 348.616371
1.042109 -1.701895 0.370196 43.000000 2 348.616374
1.022258 -1.670131 0.172666 36.000000 0 348.616376
0.020848 -0.058359 5.554062 97.000000 31 348.616387
0.435162 -0.755376 5.542272 27.000000 28 348.616389
0.391441 -0.681027 3.799957 41.000000 27 348.616392
0.606313 -1.008471 3.806670 38.000000 25 348.616394
0.822377 -1.350938 3.785494 33.000000 23 348.616397
0.985840 -1.618845 3.539369 36.000000 21 348.616400
1.033668 -1.697391 2.991467 62.000000 19 348.616402
1.226571 -2.014166 2.899077 17.000000 17 348.616405
0.151577 -0.295759 5.570064 37.000000 30 348.616412
0.288759 -0.530083 5.577736 35.000000 29 348.616415
0.497472 -0.840811 3.796262 39.000000 26 348.616418
0.715378 -1.179791 3.806248 38.000000 24 348.616420
0.938568 -1.546677 3.802957 14.000000 22 348.616423
0.990197 -1.631127 3.191338 38.000000 20 348.616425
1.141558 -1.880469 2.986656 61.000000 18 348.616428
1.189852 -1.960029 2.563981 9.000000 16 348.616430
1.180449 -1.933113 2.305639 23.000000 15 348.616388
1.143807 -1.873112 1.851425 31.000000 13 348.616391
1.116569 -1.829223 1.489676 34.000000 11 348.616393
1.099447 -1.801178 1.190697 38.000000 9 348.616396
1.074958 -1.761750 0.922151 42.000000 7 348.616398
1.051842 -1.724543 0.683314 45.000000 5 348.616401
1.035935 -1.698462 0.469183 47.000000 3 348.616403
1.018717 -1.670888 0.268292 37.000000 1 348.616406
1.152960 -1.894781 2.055931 29.000000 14 348.616414
1.123348 -1.846121 1.657088 36.000000 12 348.616416
1.100982 -1.810076 1.330094 38.000000 10 348.616419
1.087861 -1.788509 1.055178 42.000000 8 348.616421
1.062619 -1.747696 0.800624 46.000000 6 348.616424
1.042682 -1.715580 0.574920 53.000000 4 348.616426
1.031019 -1.697058 0.368817 45.000000 2 348.616429
1.011235 -1.665149 0.172262 36.000000 0 348.616432
0.020633 -0.058390 5.549062 98.000000 31 348.616442
0.432138 -0.756216 5.537333 25.000000 28 348.616445
0.389061 -0.682389 3.799957 41.000000 27 348.616447
0.602789 -1.010581 3.806670 38.000000 25 348.616450
0.817656 -1.353801 3.785494 36.000000 23 348.616452
0.982661 -1.626377 3.548146 34.000000 21 348.616455
1.027737 -1.700988 2.991467 61.000000 19 348.616457
1.212901 -2.007459 2.883729 17.000000 17 348.616460
0.150414 -0.296027 5.565073 37.000000 30 348.616468
0.286653 -0.530617 5.572765 35.000000 29 348.616470
0.493898 -0.841458 3.791423 40.000000 26 348.616473
0.711256 -1.182281 3.806248 38.000000 24 348.616475
0.933163 -1.549944 3.802957 21.000000 22 348.616478
0.987188 -1.639042 3.199870 39.000000 20 348.616480
1.133432 -1.881860 2.982667 55.000000 18 348.616483
1.176007 -1.952554 2.549280 12.000000 16 348.616486
1.168150 -1.928071 2.295125 23.000000 15 348.616443
1.131211 -1.867105 1.842012 32.000000 13 348.616446
1.105844 -1.825956 1.484193 35.000000 11 348.616448
1.088563 -1.797426 1.186061 38.000000 9 348.616451
1.061599 -1.753594 0.916531 40.000000 7 348.616454
1.040849 -1.719995 0.680495 43.000000 5 348.616456
1.024913 -1.693662 0.467318 47.000000 3 348.616459
1.007723 -1.665912 0.267399 37.000000 1 348.616461
1.140549 -1.889203 2.045956 29.000000 14 348.616469
1.112719 -1.843110 1.651202 36.000000 12 348.616472
1.090202 -1.806525 1.325029 38.000000 10 348.616474
1.076922 -1.784524 1.050982 42.000000 8 348.616477
1.049194 -1.739264 0.795696 44.000000 6 348.616479
1.031667 -1.710885 0.572576 52.000000 4 348.616482
1.019976 -1.692164 0.367437 46.000000 2 348.616484
1.000260 -1.660110 0.171859 36.000000 0 348.616487
0.020429 -0.058461 5.549062 98.000000 31 348.616498
0.429495 -0.757719 5.537333 22.000000 28 348.616500
0.386677 -0.683743 3.799957 40.000000 27 348.616503
0.599258 -1.012679 3.806670 39.000000 25 348.616505
0.812925 -1.356647 3.785494 36.000000 23 348.616508
0.980673 -1.635962 3.561312 35.000000 21 348.616510
1.021793 -1.704565 2.991467 61.000000 19 348.616513
1.200942 -2.003432 2.872218 17.000000 17 348.616515
0.149379 -0.296551 5.565073 35.000000 30 348.616523
0.284800 -0.531615 5.572765 35.000000 29 348.616526
0.490958 -0.843177 3.791423 40.000000 26 348.616528
0.707125 -1.184757 3.806248 38.000000 24 348.616531
0.927747 -1.553192 3.802957 29.000000 22 348.616533
0.984136 -1.646955 3.208402 38.000000 20 348.616536
1.126856 -1.885805 2.982667 55.000000 18 348.616539
1.162228 -1.945006 2.534579 16.000000 16 348.616541
1.155901 -1.922967 2.284611 25.000000 15 348.616499
1.118670 -1.861033 1.832599 32.000000 13 348.616501
1.093003 -1.819053 1.475969 35.000000 11 348.616504
1.075437 -1.789822 1.179106 38.000000 9 348.616506
1.050697 -1.749341 0.912785 40.000000 7 348.616509
1.029900 -1.715392 0.677677 39.000000 5 348.616512
1.013938 -1.688806 0.465453 45.000000 3 348.616514
0.996776 -1.660879 0.266507 36.000000 1 348.616517
1.128191 -1.883562 2.035981 29.000000 14 348.616524
1.100047 -1.836580 1.642372 36.000000 12 348.616527
1.077245 -1.799223 1.317432 38.000000 10 348.616530
1.066023 -1.780485 1.046786 43.000000 8 348.616532
1.038266 -1.734812 0.792411 46.000000 6 348.616535
1.020698 -1.706133 0.570231 53.000000 4 348.616537
1.008980 -1.687214 0.366057 43.000000 2 348.616540
0.989333 -1.655015 0.171456 36.000000 0 348.616542
0.020225 -0.058532 5.549062 98.000000 31 348.616553
0.427228 -0.759892 5.542272 22.000000 28 348.616556
0.384288 -0.685089 3.799957 40.000000 27 348.616558
0.595719 -1.014765 3.806670 39.000000 25 348.616561
0.808185 -1.359476 3.785494 36.000000 23 348.616563
0.977406 -1.643494 3.570089 36.000000 21 348.616566
1.015837 -1.708122 2.991467 62.000000 19 348.616568
1.189025 -1.999345 2.860707 17.000000 17 348.616571
0.148395 -0.297044 5.565073 35.000000 30 348.616579
0.283035 -0.532556 5.572765 35.000000 29 348.616581
0.488159 -0.844800 3.791423 40.000000 26 348.616584
0.702312 -1.185610 3.801555 38.000000 24 348.616586
0.921210 -1.554548 3.798456 33.000000 22 348.616589
0.981041 -1.654867 3.216934 38.000000 20 348.616592
1.120266 -1.889727 2.982667 49.000000 18 348.616594
1.150584 -1.940102 2.523554 23.000000 16 348.616597
1.143702 -1.917801 2.274098 25.000000 15 348.616554
1.108179 -1.858240 1.826323 32.000000 13 348.616557
1.080224 -1.812082 1.467744 35.000000 11 348.616559
1.064646 -1.785955 1.174470 38.000000 9 348.616562
1.037769 -1.740869 0.907166 40.000000 7 348.616565
1.019294 -1.710556 0.674859 39.000000 5 348.616567
1.005523 -1.688115 0.464520 45.000000 3 348.616570
0.988425 -1.660069 0.266061 37.000000 1 348.616572
1.115886 -1.877858 2.026007 29.000000 14 348.616580
1.087435 -1.829984 1.633543 36.000000 12 348.616583
1.064666 -1.791667 1.309835 38.000000 10 348.616585
1.053158 -1.772305 1.040492 40.000000 8 348.616588
1.027684 -1.730125 0.789126 46.000000 6 348.616590
1.012553 -1.705329 0.569059 55.000000 4 348.616593
0.998324 -1.682033 0.364678 43.000000 2 348.616595
0.981290 -1.653990 0.171255 37.000000 0 348.616598
0.020030 -0.058599 5.549062 98.000000 31 348.616609
0.424706 -0.761304 5.542272 21.000000 28 348.616611
0.381519 -0.685469 3.795062 40.000000 27 348.616614
0.592351 -1.016735 3.806670 38.000000 25 348.616616
0.803672 -1.362149 3.785494 35.000000 23 348.616619
0.975604 -1.652916 3.583256 38.000000 21 348.616621
1.010167 -1.711481 2.991467 61.000000 19 348.616624
1.177500 -1.994995 2.849196 17.000000 17 348.616626
0.147357 -0.297561 5.565073 36.000000 30 348.616634
0.281174 -0.533541 5.572765 35.000000 29 348.616637
0.485207 -0.846499 3.791423 40.000000 26 348.616639
0.698170 -1.188054 3.801555 38.000000 24 348.616642
0.916050 -1.557594 3.798456 35.000000 22 348.616644
0.978193 -1.662607 3.225466 38.000000 20 348.616647
1.113994 -1.893432 2.982667 47.000000 18 348.616650
1.138647 -1.935341 2.512528 24.000000 16 348.616652
1.131887 -1.912377 2.263584 26.000000 15 348.616610
1.096062 -1.851854 1.816910 32.000000 13 348.616612
1.067821 -1.804858 1.459520 35.000000 11 348.616615
1.051950 -1.778036 1.167516 39.000000 9 348.616618
1.026966 -1.736500 0.903420 40.000000 7 348.616620
1.008434 -1.705844 0.672040 43.000000 5 348.616623
0.994920 -1.682983 0.462655 44.000000 3 348.616625
0.977847 -1.654763 0.265168 36.000000 1 348.616628
1.103962 -1.871898 2.016032 30.000000 14 348.616636
1.075201 -1.823135 1.624713 36.000000 12 348.616638
1.051837 -1.784231 1.302237 38.000000 10 348.616641
1.042355 -1.768151 1.036296 42.000000 8 348.616643
1.016844 -1.725564 0.785840 46.000000 6 348.616646
1.001660 -1.700477 0.566714 55.000000 4 348.616648
0.987421 -1.676973 0.363298 45.000000 2 348.616651
0.970442 -1.648794 0.170852 37.000000 0 348.616653
0.019837 -0.058711 5.554062 99.000000 31 348.616664
0.422422 -0.763462 5.547211 21.000000 28 348.616667
0.379124 -0.686797 3.795062 40.000000 27 348.616669
0.588798 -1.018796 3.806670 38.000000 25 348.616672
0.798912 -1.364946 3.785494 35.000000 23 348.616674
0.972249 -1.660446 3.592033 49.000000 21 348.616677
1.005609 -1.717425 2.995600 61.000000 19 348.616679
1.165669 -1.990793 2.837686 17.000000 17 348.616682
0.146318 -0.298073 5.565073 36.000000 30 348.616690
0.279557 -0.534993 5.577736 35.000000 29 348.616692
0.482249 -0.848188 3.791423 40.000000 26 348.616695
0.694018 -1.190484 3.801555 38.000000 24 348.616697
0.909510 -1.558901 3.793956 35.000000 22 348.616700
0.975013 -1.670516 3.233997 38.000000 20 348.616703
1.107377 -1.897309 2.982667 43.000000 18 348.616705
1.126758 -1.930520 2.501503 23.000000 16 348.616708
1.119787 -1.907090 2.253070 26.000000 15 348.616665
1.085649 -1.848955 1.810634 33.000000 13 348.616668
1.057281 -1.801362 1.454037 36.000000 11 348.616670
1.041252 -1.774056 1.162880 39.000000 9 348.616673
1.016207 -1.732077 0.899674 40.000000 7 348.616676
0.997620 -1.701077 0.669222 43.000000 5 348.616678
0.984069 -1.677971 0.460790 44.000000 3 348.616681
0.967028 -1.649574 0.264276 37.000000 1 348.616683
1.091764 -1.866071 2.006058 29.000000 14 348.616691
1.062707 -1.816411 1.615884 36.000000 12 348.616694
1.039073 -1.776726 1.294640 38.000000 10 348.616696
1.031594 -1.763943 1.032099 43.000000 8 348.616699
1.006048 -1.720949 0.782555 46.000000 6 348.616701
0.990814 -1.695570 0.564369 54.000000 4 348.616704
0.976566 -1.671857 0.361919 42.000000 2 348.616706
0.962162 -1.647857 0.170650 36.000000 0 348.616709
0.019632 -0.058780 5.554062 99.000000 31 348.616720
0.420128 -0.765613 5.552151 23.000000 28 348.616722
0.376724 -0.688116 3.795062 39.000000 27 348.616725
0.585238 -1.020845 3.806670 38.000000 25 348.616727
0.794143 -1.367726 3.785494 36.000000 23 348.616730
0.968853 -1.667973 3.600810 68.000000 21 348.616732
0.999608 -1.720925 2.995600 61.000000 19 348.616735
1.153882 -1.986533 2.826175 17.000000 17 348.616738
0.145276 -0.298582 5.565073 36.000000 30 348.616745
0.277688 -0.535965 5.577736 36.000000 29 348.616748
0.479286 -0.849866 3.791423 39.000000 26 348.616750
0.689858 -1.192899 3.801555 38.000000 24 348.616753
0.902972 -1.560181 3.789455 35.000000 22 348.616756
0.971789 -1.678424 3.242529 38.000000 20 348.616758
1.100748 -1.901163 2.982667 42.000000 18 348.616761
1.116615 -1.928573 2.494152 23.000000 16 348.616763
1.105943 -1.898661 2.239052 25.000000 15 348.616721
1.073310 -1.842642 1.801221 33.000000 13 348.616723
1.044675 -1.794201 1.445813 35.000000 11 348.616726
1.030595 -1.770023 1.158244 39.000000 9 348.616729
1.005490 -1.727600 0.895928 40.000000 7 348.616731
0.986851 -1.696256 0.666403 45.000000 5 348.616734
0.973265 -1.672904 0.458924 47.000000 3 348.616736
0.958761 -1.648634 0.263830 34.000000 1 348.616739
1.079620 -1.860181 1.996083 30.000000 14 348.616747
1.052302 -1.813118 1.609998 36.000000 12 348.616749
1.028538 -1.772884 1.289575 38.000000 10 348.616752
1.020876 -1.759682 1.027903 40.000000 8 348.616754
0.995296 -1.716280 0.779270 46.000000 6 348.616757
0.980014 -1.690608 0.562025 55.000000 4 348.616759
0.965759 -1.666686 0.360539 43.000000 2 348.616762
0.951396 -1.642560 0.170247 35.000000 0 348.616764
0.019427 -0.058848 5.554062 92.000000 31 348.616775
0.417824 -0.767758 5.557089 27.000000 28 348.616778
0.373835 -0.688532 3.790166 39.000000 27 348.616780
0.580933 -1.021584 3.801899 38.000000 25 348.616783
0.789364 -1.370490 3.785494 36.000000 23 348.616785
0.965418 -1.675496 3.609588 75.000000 21 348.616788
0.993594 -1.724404 2.995600 61.000000 19 348.616790
1.142139 -1.982216 2.814664 17.000000 17 348.616793
0.144233 -0.299087 5.565073 35.000000 30 348.616801
0.275815 -0.536931 5.577736 35.000000 29 348.616803
0.476316 -0.851534 3.791423 39.000000 26 348.616806
0.685690 -1.195300 3.801555 38.000000 24 348.616808
0.897520 -1.563324 3.789455 35.000000 22 348.616811
0.968522 -1.686329 3.251061 39.000000 20 348.616814
1.095606 -1.907607 2.986656 39.000000 18 348.616816
1.104811 -1.923640 2.483127 24.000000 16 348.616819
1.092172 -1.890158 2.225034 26.000000 15 348.616776
1.061029 -1.836265 1.791808 33.000000 13 348.616779
1.034223 -1.790595 1.440330 36.000000 11 348.616782
1.019978 -1.765937 1.153608 39.000000 9 348.616784
0.994818 -1.723070 0.892182 40.000000 7 348.616787
0.976128 -1.691380 0.663585 43.000000 5 348.616789
0.962509 -1.667782 0.457059 44.000000 3 348.616792
0.948023 -1.643344 0.262937 34.000000 1 348.616794
1.067530 -1.854229 1.986109 30.000000 14 348.616802
1.039917 -1.806271 1.601168 36.000000 12 348.616805
1.015892 -1.765254 1.281978 38.000000 10 348.616807
1.007936 -1.751434 1.021609 40.000000 8 348.616810
0.984589 -1.711557 0.775984 48.000000 6 348.616812
0.969261 -1.685591 0.559680 55.000000 4 348.616815
0.954999 -1.661460 0.359159 43.000000 2 348.616817
0.940678 -1.637207 0.169844 35.000000 0 348.616820
0.019221 -0.058915 5.554062 92.000000 31 348.616831
0.415879 -0.770579 5.566968 36.000000 28 348.616833
0.371429 -0.689833 3.790166 37.000000 27 348.616836
0.577364 -1.023605 3.801899 38.000000 25 348.616838
0.784575 -1.373237 3.785494 36.000000 23 348.616841
0.960752 -1.680936 3.613976 81.000000 21 348.616843
0.987569 -1.727861 2.995600 61.000000 19 348.616846
1.130441 -1.977840 2.803153 18.000000 17 348.616849
0.143188 -0.299589 5.565073 35.000000 30 348.616856
0.273939 -0.537891 5.577736 35.000000 29 348.616859
0.473341 -0.853191 3.791423 39.000000 26 348.616861
0.681514 -1.197687 3.801555 38.000000 24 348.616864
0.890980 -1.564555 3.784954 35.000000 22 348.616867
0.965212 -1.694232 3.259593 39.000000 20 348.616869
1.091924 -1.916658 2.994635 37.000000 18 348.616872
1.093055 -1.918647 2.472101 24.000000 16 348.616874
1.078474 -1.881583 2.211016 25.000000 15 348.616832
1.048805 -1.829825 1.782394 33.000000 13 348.616834
1.023809 -1.786938 1.434847 36.000000 11 348.616837
1.007201 -1.757955 1.146654 38.000000 9 348.616840
0.984189 -1.718486 0.888436 40.000000 7 348.616842
0.965452 -1.686451 0.660767 42.000000 5 348.616845
0.951801 -1.662605 0.455194 44.000000 3 348.616847
0.937334 -1.637998 0.262045 36.000000 1 348.616850
1.055495 -1.848216 1.976134 31.000000 14 348.616858
1.029596 -1.802870 1.595282 37.000000 12 348.616860
1.005449 -1.761301 1.276913 38.000000 10 348.616863
0.997316 -1.747059 1.017413 40.000000 8 348.616865
0.973928 -1.706780 0.772699 50.000000 6 348.616868
0.956146 -1.676298 0.556163 57.000000 4 348.616870
0.944288 -1.656180 0.357780 42.000000 2 348.616873
0.930010 -1.631800 0.169441 36.000000 0 348.616876
0.019005 -0.058940 5.549062 98.000000 31 348.616886
0.414285 -0.774082 5.581786 53.000000 28 348.616889
0.369019 -0.691125 3.790166 37.000000 27 348.616891
0.573787 -1.025614 3.801899 38.000000 25 348.616894
0.779777 -1.375967 3.785494 36.000000 23 348.616896
0.954878 -1.684279 3.613976 80.000000 21 348.616899
0.981532 -1.731298 2.995600 61.000000 19 348.616902
1.117205 -1.970618 2.787805 19.000000 17 348.616904
0.142194 -0.300062 5.565073 36.000000 30 348.616912
0.271914 -0.538319 5.572765 34.000000 29 348.616914
0.470509 -0.854756 3.791423 40.000000 26 348.616917
0.677538 -1.199940 3.801555 38.000000 24 348.616920
0.885513 -1.567656 3.784954 35.000000 22 348.616922
0.961858 -1.702132 3.268125 39.000000 20 348.616925
1.089676 -1.928329 3.006604 33.000000 18 348.616927
1.081682 -1.913408 2.461076 24.000000 16 348.616930
1.064849 -1.872935 2.196998 25.000000 15 348.616887
1.036640 -1.823323 1.772981 33.000000 13 348.616890
1.013433 -1.783230 1.429364 36.000000 11 348.616893
0.996680 -1.753757 1.142018 39.000000 9 348.616895
0.973904 -1.713680 0.884690 42.000000 7 348.616898
0.955115 -1.681301 0.657948 43.000000 5 348.616900
0.941140 -1.657374 0.453329 44.000000 3 348.616903
0.929152 -1.636929 0.261599 36.000000 1 348.616905
1.045356 -1.845390 1.969484 32.000000 14 348.616913
1.017320 -1.795902 1.586452 37.000000 12 348.616916
0.995353 -1.757123 1.271848 38.000000 10 348.616918
0.987043 -1.742458 1.013217 42.000000 8 348.616921
0.963609 -1.701782 0.769414 52.000000 6 348.616923
0.945794 -1.670999 0.553818 57.000000 4 348.616926
0.936352 -1.654992 0.357090 42.000000 2 348.616928
0.919675 -1.626177 0.169038 37.000000 0 348.616931
0.018809 -0.059003 5.549062 98.000000 31 348.616942
0.411352 -0.774765 5.576847 58.000000 28 348.616944
0.366725 -0.692345 3.790166 35.000000 27 348.616947
0.570383 -1.027511 3.801899 38.000000 25 348.616949
0.774252 -1.376843 3.780892 36.000000 23 348.616952
0.950463 -1.689525 3.618365 74.000000 21 348.616954
0.975785 -1.734544 2.995600 59.000000 19 348.616957
1.105949 -1.965930 2.776294 18.000000 17 348.616960
0.141268 -0.300819 5.570064 37.000000 30 348.616967
0.270033 -0.539265 5.572765 34.000000 29 348.616970
0.467522 -0.856393 3.791423 39.000000 26 348.616972
0.672502 -1.200792 3.796863 38.000000 24 348.616975
0.880310 -1.570583 3.784954 36.000000 22 348.616978
0.958760 -1.709862 3.276657 38.000000 20 348.616980
1.086223 -1.937190 3.014583 27.000000 18 348.616983
1.068364 -1.905344 2.446375 24.000000 16 348.616985
1.053375 -1.867138 2.186484 26.000000 15 348.616943
1.024849 -1.816579 1.763567 32.000000 13 348.616946
1.003407 -1.779297 1.423881 36.000000 11 348.616948
0.986507 -1.749334 1.137382 39.000000 9 348.616951
0.963363 -1.708992 0.880944 42.000000 7 348.616953
0.944530 -1.676265 0.655130 43.000000 5 348.616956
0.930816 -1.651927 0.451464 44.000000 3 348.616958
0.918831 -1.631323 0.260706 36.000000 1 348.616961
1.033742 -1.839081 1.959510 32.000000 14 348.616969
1.007398 -1.792219 1.580566 36.000000 12 348.616971
0.987102 -1.756829 1.269316 39.000000 10 348.616974
0.976509 -1.737980 1.009021 43.000000 8 348.616976
0.955350 -1.701017 0.767771 50.000000 6 348.616979
0.935196 -1.665814 0.551474 58.000000 4 348.616981
0.925722 -1.649613 0.355710 40.000000 2 348.616984
0.911549 -1.625021 0.168836 37.000000 0 348.616987
0.018603 -0.059068 5.549062 98.000000 31 348.616997
0.407198 -0.773445 5.557089 84.000000 28 348.617000
0.364306 -0.693621 3.790166 34.000000 27 348.617002
0.566073 -1.028188 3.797127 38.000000 25 348.617005
0.769441 -1.379537 3.780892 36.000000 23 348.617007
0.945727 -1.694924 3.622753 68.000000 21 348.617010
0.969724 -1.737939 2.995600 61.000000 19 348.617013
1.092831 -1.958580 2.760947 19.000000 17 348.617015
0.140217 -0.301310 5.570064 37.000000 30 348.617023
0.268149 -0.540205 5.572765 35.000000 29 348.617025
0.464530 -0.858020 3.791423 39.000000 26 348.617028
0.668307 -1.203132 3.796863 38.000000 24 348.617031
0.874822 -1.573647 3.784954 36.000000 22 348.617033
0.955320 -1.717756 3.285189 38.000000 20 348.617036
1.086779 -1.954140 3.034530 20.000000 18 348.617038
1.056763 -1.900173 2.435350 25.000000 16 348.617041
1.041627 -1.861467 2.175971 26.000000 15 348.616998
1.012799 -1.809954 1.754154 32.000000 13 348.617001
0.993107 -1.775489 1.418398 37.000000 11 348.617004
0.973906 -1.741168 1.130428 38.000000 9 348.617006
0.955130 -1.708298 0.879071 40.000000 7 348.617009
0.936333 -1.675364 0.653721 45.000000 5 348.617011
0.922647 -1.650878 0.450531 46.000000 3 348.617014
0.908273 -1.625825 0.259814 36.000000 1 348.617016
1.023679 -1.836154 1.952860 32.000000 14 348.617024
0.997199 -1.788664 1.574680 37.000000 12 348.617027
0.976766 -1.752731 1.264251 38.000000 10 348.617029
0.963808 -1.729484 1.002727 42.000000 8 348.617032
0.944810 -1.696091 0.764485 50.000000 6 348.617034
0.924647 -1.660575 0.549129 57.000000 4 348.617037
0.917550 -1.648507 0.355020 40.000000 2 348.617040
0.901013 -1.619461 0.168433 37.000000 0 348.617042
0.018397 -0.059132 5.549062 98.000000 31 348.617053
0.403778 -0.773484 5.547211 95.000000 28 348.617055
0.361883 -0.694888 3.790166 34.000000 27 348.617058
0.562480 -1.030157 3.797127 38.000000 25 348.617060
0.764621 -1.382214 3.780892 36.000000 23 348.617063
0.942124 -1.702407 3.631531 62.000000 21 348.617066
0.965014 -1.743776 2.999733 61.000000 19 348.617068
1.079779 -1.951163 2.745599 19.000000 17 348.617071
0.139164 -0.301798 5.570064 37.000000 30 348.617078
0.266262 -0.541137 5.572765 36.000000 29 348.617081
0.461532 -0.859636 3.791423 39.000000 26 348.617084
0.664103 -1.205458 3.796863 38.000000 24 348.617086
0.869324 -1.576691 3.784954 36.000000 22 348.617089
0.951838 -1.725648 3.293721 38.000000 20 348.617091
1.079951 -1.957922 3.034530 20.000000 18 348.617094
1.043574 -1.891976 2.420649 25.000000 16 348.617096
1.029931 -1.855737 2.165457 27.000000 15 348.617054
1.000808 -1.803267 1.744741 33.000000 13 348.617057
0.980818 -1.767976 1.410174 36.000000 11 348.617059
0.963524 -1.736809 1.125792 38.000000 9 348.617062
0.944664 -1.703513 0.875325 43.000000 7 348.617064
0.925827 -1.670231 0.650902 45.000000 5 348.617067
0.912116 -1.645496 0.448666 46.000000 3 348.617069
0.897765 -1.620273 0.258921 36.000000 1 348.617072
1.011842 -1.829912 1.942886 33.000000 14 348.617080
0.985082 -1.781522 1.565850 37.000000 12 348.617082
0.966471 -1.748584 1.259186 39.000000 10 348.617085
0.953374 -1.724894 0.998531 42.000000 8 348.617087
0.934317 -1.691111 0.761200 50.000000 6 348.617090
0.916495 -1.659537 0.547957 57.000000 4 348.617092
0.907004 -1.643029 0.353641 42.000000 2 348.617095
0.890527 -1.613848 0.168030 36.000000 0 348.617098
0.018190 -0.059196 5.549062 97.000000 31 348.617109
0.400005 -0.772818 5.532393 97.000000 28 348.617112
0.359921 -0.697052 3.795062 36.000000 27 348.617114
0.558881 -1.032115 3.797127 38.000000 25 348.617117
0.759792 -1.384875 3.780892 36.000000 23 348.617119
0.937329 -1.707786 3.635919 52.000000 21 348.617122
0.958922 -1.747134 2.999733 61.000000 19 348.617124
1.068334 -1.946489 2.734088 19.000000 17 348.617127
0.137991 -0.302018 5.565073 36.000000 30 348.617135
0.264371 -0.542063 5.572765 35.000000 29 348.617137
0.458529 -0.861242 3.791423 40.000000 26 348.617140
0.659891 -1.207768 3.796863 38.000000 24 348.617142
0.863815 -1.579716 3.784954 36.000000 22 348.617145
0.948312 -1.733536 3.302253 37.000000 20 348.617147
1.070217 -1.956391 3.026551 21.000000 18 348.617150
1.032083 -1.886685 2.409624 26.000000 16 348.617153
1.018288 -1.849948 2.154943 27.000000 15 348.617110
0.990752 -1.799928 1.738465 33.000000 13 348.617113
0.970609 -1.764062 1.404691 36.000000 11 348.617115
0.953185 -1.732398 1.121156 39.000000 9 348.617118
0.934244 -1.698676 0.871579 43.000000 7 348.617121
0.915369 -1.665045 0.648084 43.000000 5 348.617123
0.904000 -1.644365 0.447733 46.000000 3 348.617126
0.887307 -1.614668 0.258029 35.000000 1 348.617128
1.001857 -1.826885 1.936236 32.000000 14 348.617136
0.974970 -1.777862 1.559964 37.000000 12 348.617139
0.956217 -1.744386 1.254121 39.000000 10 348.617141
0.942984 -1.720252 0.994335 43.000000 8 348.617144
0.926139 -1.690221 0.759557 52.000000 6 348.617146
0.906026 -1.654200 0.545612 57.000000 4 348.617149
0.898885 -1.641841 0.352951 42.000000 2 348.617151
0.882490 -1.612564 0.167829 36.000000 0 348.617154
0.017983 -0.059259 5.549062 97.000000 31 348.617165
0.397305 -0.774210 5.532393 102.000000 28 348.617167
0.357486 -0.698304 3.795062 38.000000 27 348.617170
0.555981 -1.035375 3.801899 38.000000 25 348.617172
0.754019 -1.385803 3.776289 35.000000 23 348.617175
0.933653 -1.715256 3.644697 48.000000 21 348.617177
0.954163 -1.752942 3.003866 57.000000 19 348.617180
1.055402 -1.938943 2.718740 19.000000 17 348.617182
0.136936 -0.302498 5.565073 36.000000 30 348.617190
0.262478 -0.542983 5.572765 35.000000 29 348.617193
0.455520 -0.862837 3.791423 40.000000 26 348.617195
0.655671 -1.210065 3.796863 38.000000 24 348.617198
0.858295 -1.582721 3.784954 36.000000 22 348.617200
0.944742 -1.741421 3.310784 38.000000 20 348.617203
1.056195 -1.946869 3.006604 24.000000 18 348.617206
1.019024 -1.878356 2.394923 26.000000 16 348.617208
1.006698 -1.844101 2.144429 27.000000 15 348.617166
0.978868 -1.793125 1.729052 34.000000 13 348.617168
0.958437 -1.756428 1.396466 37.000000 11 348.617171
0.940766 -1.724048 1.114202 39.000000 9 348.617173
0.923869 -1.693787 0.867833 43.000000 7 348.617176
0.907255 -1.664018 0.646675 43.000000 5 348.617179
0.893552 -1.638885 0.445868 46.000000 3 348.617181
0.876899 -1.609010 0.257137 35.000000 1 348.617184
0.990122 -1.820529 1.926261 33.000000 14 348.617191
0.962965 -1.770601 1.551134 37.000000 12 348.617194
0.946003 -1.740138 1.249056 38.000000 10 348.617197
0.932638 -1.715558 0.990138 45.000000 8 348.617199
0.915724 -1.685144 0.756272 52.000000 6 348.617202
0.895607 -1.648810 0.543268 59.000000 4 348.617204
0.888422 -1.636265 0.351571 42.000000 2 348.617207
0.872090 -1.606853 0.167426 36.000000 0 348.617209
0.017776 -0.059322 5.549062 97.000000 31 348.617220
0.394248 -0.774899 5.527454 102.000000 28 348.617223
0.355046 -0.699548 3.795062 31.000000 27 348.617225
0.552364 -1.037309 3.801899 38.000000 25 348.617228
0.749177 -1.388426 3.776289 33.000000 23 348.617230
0.929936 -1.722721 3.653474 45.000000 21 348.617233
0.949374 -1.758738 3.007999 50.000000 19 348.617235
1.042536 -1.931330 2.703393 20.000000 17 348.617238
0.135761 -0.302710 5.560081 37.000000 30 348.617246
0.260581 -0.543896 5.572765 35.000000 29 348.617248
0.452505 -0.864422 3.791423 40.000000 26 348.617251
0.651443 -1.212346 3.796863 38.000000 24 348.617253
0.852765 -1.585708 3.784954 36.000000 22 348.617256
0.941129 -1.749301 3.319316 38.000000 20 348.617259
1.043681 -1.939927 2.990646 25.000000 18 348.617261
1.006037 -1.869960 2.380222 26.000000 16 348.617264
0.995161 -1.838195 2.133916 27.000000 15 348.617221
0.968896 -1.789684 1.722777 34.000000 13 348.617224
0.948320 -1.752408 1.390983 37.000000 11 348.617226
0.930525 -1.719529 1.109566 39.000000 9 348.617229
0.913540 -1.688846 0.864087 44.000000 7 348.617232
0.896877 -1.658735 0.643856 46.000000 5 348.617234
0.885489 -1.637673 0.444935 46.000000 3 348.617237
0.868910 -1.607680 0.256690 35.000000 1 348.617239
0.980215 -1.817400 1.919612 33.000000 14 348.617247
0.952941 -1.766837 1.545248 37.000000 12 348.617250
0.933786 -1.732044 1.241459 39.000000 10 348.617252
0.924491 -1.714808 0.988040 45.000000 8 348.617255
0.905355 -1.680016 0.752987 50.000000 6 348.617257
0.887541 -1.647647 0.542095 55.000000 4 348.617260
0.880357 -1.634995 0.350881 42.000000 2 348.617262
0.861740 -1.601089 0.167023 36.000000 0 348.617265
0.017569 -0.059384 5.549062 97.000000 31 348.617276
0.391540 -0.776271 5.527454 103.000000 28 348.617278
0.353060 -0.701693 3.799957 17.000000 27 348.617281
0.548739 -1.039231 3.801899 38.000000 25 348.617283
0.744326 -1.391033 3.776289 33.000000 23 348.617286
0.925047 -1.728069 3.657863 43.000000 21 348.617288
0.945886 -1.767003 3.016265 40.000000 19 348.617291
1.031249 -1.926479 2.691882 20.000000 17 348.617293
0.134704 -0.303182 5.560081 36.000000 30 348.617301
0.258452 -0.544320 5.567794 35.000000 29 348.617304
0.449485 -0.865996 3.791423 40.000000 26 348.617306
0.647207 -1.214612 3.796863 38.000000 24 348.617309
0.846200 -1.586753 3.780453 36.000000 22 348.617311
0.937472 -1.757178 3.327848 38.000000 20 348.617314
1.031229 -1.932921 2.974688 25.000000 18 348.617317
0.994716 -1.864487 2.369197 26.000000 16 348.617319
0.983678 -1.832231 2.123402 28.000000 15 348.617277
0.958960 -1.786196 1.716501 34.000000 13 348.617279
0.936265 -1.744654 1.382759 37.000000 11 348.617282
0.920327 -1.714960 1.104930 39.000000 9 348.617285
0.903256 -1.683854 0.860340 45.000000 7 348.617287
0.886548 -1.653399 0.641038 45.000000 5 348.617290
0.875125 -1.632095 0.443070 46.000000 3 348.617292
0.858587 -1.601925 0.255798 35.000000 1 348.617295
0.968582 -1.810932 1.909637 34.000000 14 348.617303
0.941049 -1.759460 1.536419 37.000000 12 348.617305
0.923669 -1.727689 1.236394 39.000000 10 348.617308
0.914219 -1.710020 0.983844 45.000000 8 348.617310
0.895034 -1.674836 0.749701 52.000000 6 348.617313
0.877203 -1.642161 0.539751 55.000000 4 348.617315
0.869980 -1.629322 0.349502 43.000000 2 348.617318
0.853793 -1.599679 0.166821 36.000000 0 348.617320
0.017362 -0.059444 5.549062 97.000000 31 348.617331
0.388828 -0.777633 5.527454 103.000000 28 348.617334
0.350608 -0.702921 3.799957 17.000000 27 348.617336
0.545108 -1.041140 3.801899 38.000000 25 348.617339
0.739466 -1.393622 3.776289 36.000000 23 348.617341
0.921256 -1.735519 3.666640 42.000000 21 348.617344
0.941031 -1.772780 3.020398 39.000000 19 348.617346
1.018506 -1.918740 2.676534 20.000000 17 348.617349
0.133645 -0.303650 5.560081 36.000000 30 348.617357
0.256550 -0.545218 5.567794 35.000000 29 348.617359
0.446459 -0.867560 3.791423 40.000000 26 348.617362
0.642964 -1.216864 3.796863 38.000000 24 348.617364
0.840656 -1.589697 3.780453 36.000000 22 348.617367
0.934991 -1.767355 3.340646 38.000000 20 348.617370
1.018838 -1.925853 2.958730 27.000000 18 348.617372
0.981860 -1.855961 2.354496 26.000000 16 348.617375
0.973925 -1.829358 2.116393 28.000000 15 348.617332
0.949060 -1.782660 1.710225 34.000000 13 348.617335
0.926241 -1.740529 1.377276 37.000000 11 348.617337
0.910173 -1.710340 1.100294 39.000000 9 348.617340
0.893018 -1.678811 0.856594 45.000000 7 348.617343
0.878519 -1.652248 0.639629 46.000000 5 348.617345
0.867116 -1.630803 0.442137 44.000000 3 348.617348
0.850653 -1.600515 0.255352 35.000000 1 348.617350
0.958755 -1.807704 1.902988 33.000000 14 348.617358
0.931114 -1.755592 1.530532 38.000000 12 348.617361
0.913594 -1.723285 1.231329 39.000000 10 348.617363
0.903993 -1.705181 0.979648 45.000000 8 348.617366
0.884759 -1.669605 0.746416 52.000000 6 348.617368
0.866916 -1.636622 0.537406 57.000000 4 348.617371
0.861970 -1.627972 0.348812 42.000000 2 348.617373
0.843530 -1.593819 0.166418 36.000000 0 348.617376
0.017154 -0.059505 5.549062 97.000000 31 348.617387
0.386111 -0.778985 5.527454 103.000000 28 348.617389
0.348603 -0.705053 3.804852 16.000000 27 348.617392
0.540783 -1.041711 3.797127 38.000000 25 348.617394
0.733687 -1.394466 3.771687 36.000000 23 348.617397
0.917424 -1.742965 3.675417 40.000000 21 348.617399
0.937459 -1.781034 3.028664 39.000000 19 348.617402
1.005829 -1.910936 2.661186 20.000000 17 348.617405
0.132637 -0.304092 5.560081 37.000000 30 348.617412
0.254741 -0.546066 5.567794 35.000000 29 348.617415
0.443580 -0.869036 3.791423 42.000000 26 348.617417
0.638925 -1.218990 3.796863 38.000000 24 348.617420
0.835102 -1.592622 3.780453 36.000000 22 348.617423
0.931239 -1.775227 3.349178 37.000000 20 348.617425
1.007909 -1.921390 2.946761 26.000000 18 348.617428
0.970974 -1.850201 2.343471 26.000000 16 348.617430
0.962538 -1.823285 2.105880 28.000000 15 348.617388
0.937380 -1.775634 1.700812 34.000000 13 348.617390
0.916257 -1.736355 1.371793 37.000000 11 348.617393
0.902129 -1.709588 1.097975 39.000000 9 348.617396
0.885283 -1.677663 0.854721 45.000000 7 348.617398
0.868559 -1.646666 0.636810 46.000000 5 348.617401
0.856836 -1.625129 0.440272 46.000000 3 348.617403
0.842739 -1.599068 0.254906 35.000000 1 348.617406
0.947225 -1.801124 1.893013 34.000000 14 348.617414
0.919336 -1.748099 1.521703 37.000000 12 348.617416
0.903861 -1.718674 1.226265 39.000000 10 348.617419
