# .PCD v.7 - Point Cloud Data file format
VERSION .7
FIELDS x y z intensity ring timestamp
SIZE 4 4 4 4 2 8
TYPE F F F F U D
COUNT 1 1 1 1 1 1
WIDTH 943
HEIGHT 1
VIEWPOINT 0 0 0 1 0 0 0
POINTS 943
DATA ascii
0.500649 2.533128 1.777530 18.000000 11 348.477907
0.287176 1.453022 0.861537 73.000000 9 348.477909
0.290748 1.469742 0.693640 82.000000 7 348.477912
0.520941 2.630955 0.877783 20.000000 5 348.477915
0.343482 1.734726 0.427215 26.000000 3 348.477917
0.347522 1.753523 0.253121 14.000000 1 348.477920
0.494333 2.482953 2.335218 17.000000 14 348.477927
0.499308 2.507930 1.945518 23.000000 12 348.477930
0.505881 2.538629 1.606128 19.000000 10 348.477933
0.302674 1.518886 0.803412 35.000000 8 348.477935
0.520168 2.607936 1.014174 26.000000 6 348.477938
0.345453 1.730409 0.516304 28.000000 4 348.477940
0.354155 1.772385 0.343983 18.000000 2 348.477943
0.352671 1.763358 0.166217 13.000000 0 348.477945
0.024570 0.057461 5.614060 98.000000 31 348.477956
0.128275 0.563638 3.675232 9.000000 28 348.477959
0.175239 0.765712 3.799957 90.000000 27 348.477961
0.242057 1.162218 3.840073 89.000000 25 348.477964
0.307347 1.517539 3.707252 11.000000 23 348.477966
0.275184 1.359937 2.608973 19.000000 21 348.477969
0.303746 1.501066 2.321929 25.000000 19 348.477971
0.484262 2.393098 2.998837 13.000000 17 348.477974
0.090650 0.323647 5.634955 57.000000 30 348.477982
0.100838 0.399420 3.793000 8.000000 29 348.477984
0.206734 0.958692 3.810780 92.000000 26 348.477987
0.281415 1.377163 3.876639 10.000000 24 348.477989
0.271933 1.333113 2.875785 13.000000 22 348.477992
0.283146 1.389289 2.389343 19.000000 20 348.477995
0.362878 1.780470 2.479990 18.000000 18 348.477997
0.493117 2.419463 2.755089 15.000000 16 348.478000
0.492933 2.451338 2.536939 16.000000 15 348.477957
0.503279 2.502774 2.140101 18.000000 13 348.477960
0.509488 2.531365 1.777530 18.000000 11 348.477962
0.292247 1.452011 0.861537 73.000000 9 348.477965
0.295876 1.468718 0.693640 82.000000 7 348.477968
0.530121 2.629121 0.877783 20.000000 5 348.477970
0.349536 1.733516 0.427215 25.000000 3 348.477973
0.353641 1.752299 0.253121 14.000000 1 348.477975
0.502255 2.477552 2.331893 17.000000 14 348.477983
0.507256 2.502211 1.942575 23.000000 12 348.477986
0.514739 2.536847 1.606128 18.000000 10 348.477988
0.307974 1.517820 0.803412 35.000000 8 348.477991
0.529268 2.606104 1.014174 25.000000 6 348.477993
0.351491 1.729193 0.516304 28.000000 4 348.477996
0.360339 1.771138 0.343983 18.000000 2 348.477998
0.358824 1.762116 0.166217 13.000000 0 348.478001
0.024771 0.057375 5.614060 98.000000 31 348.478012
0.130593 0.564700 3.685111 8.000000 28 348.478014
0.177911 0.765096 3.799957 90.000000 27 348.478017
0.246422 1.162827 3.844844 85.000000 25 348.478019
0.313037 1.518370 3.711854 10.000000 23 348.478022
0.279446 1.356621 2.604584 19.000000 21 348.478024
0.308983 1.499996 2.321929 25.000000 19 348.478027
0.492612 2.391393 2.998837 13.000000 17 348.478029
0.091779 0.323329 5.634955 79.000000 30 348.478037
0.102365 0.399582 3.797971 8.000000 29 348.478040
0.210080 0.957965 3.810780 92.000000 26 348.478042
0.286221 1.376172 3.876639 10.000000 24 348.478045
0.276585 1.332155 2.875785 13.000000 22 348.478047
0.287464 1.385738 2.385077 19.000000 20 348.478050
0.381335 1.838215 2.559780 17.000000 18 348.478053
0.500871 2.414408 2.751414 16.000000 16 348.478055
0.500772 2.446108 2.533434 16.000000 15 348.478013
0.511231 2.497188 2.136963 18.000000 13 348.478015
0.518321 2.529571 1.777530 18.000000 11 348.478018
0.297313 1.450982 0.861537 73.000000 9 348.478021
0.300070 1.463135 0.691767 82.000000 7 348.478023
0.538331 2.622555 0.876374 22.000000 5 348.478026
0.355585 1.732285 0.427215 24.000000 3 348.478028
0.359756 1.751054 0.253121 14.000000 1 348.478031
0.510900 2.475784 2.331893 18.000000 14 348.478039
0.515988 2.500425 1.942575 23.000000 12 348.478041
0.523591 2.535035 1.606128 18.000000 10 348.478044
0.312352 1.512291 0.801314 35.000000 8 348.478046
0.537406 2.599616 1.012531 25.000000 6 348.478049
0.356540 1.723196 0.515132 28.000000 4 348.478051
0.366520 1.769869 0.343983 17.000000 2 348.478054
0.364973 1.760853 0.166217 13.000000 0 348.478056
0.024991 0.057327 5.619060 98.000000 31 348.478067
0.133098 0.566510 3.699928 9.000000 28 348.478070
0.180580 0.764470 3.799957 90.000000 27 348.478072
0.250480 1.161960 3.844844 86.000000 25 348.478075
0.318335 1.517268 3.711854 10.000000 23 348.478077
0.283688 1.353293 2.600195 19.000000 21 348.478080
0.314217 1.498908 2.321929 26.000000 19 348.478082
0.500957 2.389658 2.998837 13.000000 17 348.478085
0.092907 0.323007 5.634955 90.000000 30 348.478093
0.104029 0.400255 3.807914 8.000000 29 348.478095
0.213422 0.957226 3.810780 92.000000 26 348.478098
0.291023 1.375165 3.876639 10.000000 24 348.478100
0.280784 1.329051 2.871285 13.000000 22 348.478103
0.292299 1.384726 2.385077 19.000000 20 348.478106
0.411405 1.948933 2.711381 16.000000 18 348.478108
0.509296 2.412645 2.751414 15.000000 16 348.478111
0.509307 2.444346 2.533434 16.000000 15 348.478068
0.519945 2.495388 2.136963 18.000000 13 348.478071
0.527148 2.527746 1.777530 18.000000 11 348.478073
0.301472 1.445598 0.859219 73.000000 9 348.478076
0.305175 1.462079 0.691767 82.000000 7 348.478079
0.547482 2.620660 0.876374 21.000000 5 348.478081
0.361629 1.731034 0.427215 24.000000 3 348.478084
0.364846 1.744913 0.252674 14.000000 1 348.478086
0.519539 2.473985 2.331893 18.000000 14 348.478094
0.524713 2.498608 1.942575 23.000000 12 348.478097
0.532437 2.533192 1.606128 18.000000 10 348.478099
0.316696 1.506750 0.799216 35.000000 8 348.478102
0.546477 2.597724 1.012531 25.000000 6 348.478104
0.362553 1.721941 0.515132 26.000000 4 348.478107
0.373717 1.773425 0.344673 17.000000 2 348.478109
0.370086 1.754680 0.166015 13.000000 0 348.478112
0.025191 0.057240 5.619060 99.000000 31 348.478123
0.135256 0.566797 3.704868 9.000000 28 348.478125
0.183486 0.764825 3.804852 90.000000 27 348.478128
0.254534 1.161078 3.844844 84.000000 25 348.478130
0.323629 1.516148 3.711854 10.000000 23 348.478133
0.288410 1.352294 2.600195 19.000000 21 348.478135
0.319448 1.497802 2.321929 25.000000 19 348.478138
0.509295 2.387895 2.998837 12.000000 17 348.478141
0.094034 0.322680 5.634955 97.000000 30 348.478148
0.105700 0.400922 3.817857 8.000000 29 348.478151
0.216762 0.956475 3.810780 92.000000 26 348.478153
0.296184 1.375827 3.881332 10.000000 24 348.478156
0.285421 1.328063 2.871285 13.000000 22 348.478159
0.297131 1.383698 2.385077 19.000000 20 348.478161
0.444783 2.071249 2.878940 16.000000 18 348.478164
0.517003 2.407537 2.747739 16.000000 16 348.478166
0.517836 2.442553 2.533434 16.000000 15 348.478124
0.528652 2.493558 2.136963 18.000000 13 348.478126
0.535100 2.521801 1.774789 18.000000 11 348.478129
0.306516 1.444537 0.859219 73.000000 9 348.478132
0.310277 1.461004 0.691767 79.000000 7 348.478134
0.555629 2.614040 0.874964 21.000000 5 348.478137
0.367669 1.729761 0.427215 23.000000 3 348.478139
0.370935 1.743628 0.252674 12.000000 1 348.478142
0.527391 2.468505 2.328568 17.000000 14 348.478150
0.533431 2.496762 1.942575 22.000000 12 348.478152
0.540375 2.527102 1.603596 18.000000 10 348.478155
0.321004 1.501198 0.797118 34.000000 8 348.478157
0.555541 2.595801 1.012531 25.000000 6 348.478160
0.367544 1.715912 0.513960 26.000000 4 348.478162
0.379905 1.772109 0.344673 17.000000 2 348.478165
0.376209 1.753377 0.166015 12.000000 0 348.478167
0.025390 0.057151 5.619060 92.000000 31 348.478178
0.137600 0.567832 3.714746 9.000000 28 348.478181
0.185913 0.763191 3.799957 89.000000 27 348.478183
0.258586 1.160183 3.844844 83.000000 25 348.478186
0.328505 1.513100 3.707252 11.000000 23 348.478188
0.292621 1.348938 2.595807 19.000000 21 348.478191
0.324674 1.496678 2.321929 25.000000 19 348.478193
0.516947 2.382970 2.995000 12.000000 17 348.478196
0.095160 0.322350 5.634955 98.000000 30 348.478204
0.107515 0.402097 3.832771 8.000000 29 348.478206
0.220382 0.956938 3.815619 93.000000 26 348.478209
0.300985 1.374785 3.881332 10.000000 24 348.478211
0.289590 1.324931 2.866784 13.000000 22 348.478214
0.301403 1.380104 2.380810 19.000000 20 348.478217
0.459085 2.102075 2.922824 15.000000 18 348.478219
0.525403 2.405718 2.747739 15.000000 16 348.478222
0.526359 2.440730 2.533434 16.000000 15 348.478179
0.536533 2.487892 2.133825 18.000000 13 348.478182
0.543900 2.519917 1.774789 18.000000 11 348.478185
0.311557 1.443458 0.859219 71.000000 9 348.478187
0.314396 1.455381 0.689894 79.000000 7 348.478190
0.564750 2.612085 0.874964 22.000000 5 348.478192
0.373705 1.728467 0.427215 23.000000 3 348.478195
0.377019 1.742323 0.252674 12.000000 1 348.478197
0.536005 2.466649 2.328568 17.000000 14 348.478205
0.541285 2.490935 1.939632 22.000000 12 348.478208
0.549193 2.525200 1.603596 18.000000 10 348.478210
0.324313 1.491198 0.792921 32.000000 8 348.478213
0.563594 2.589231 1.010888 25.000000 6 348.478215
0.373531 1.714618 0.513960 27.000000 4 348.478218
0.386088 1.770772 0.344673 17.000000 2 348.478220
0.382327 1.752054 0.166015 12.000000 0 348.478223
0.025590 0.057062 5.619060 92.000000 31 348.478234
0.139954 0.568857 3.724625 9.000000 28 348.478236
0.188576 0.762537 3.799957 89.000000 27 348.478239
0.262634 1.159273 3.844844 80.000000 25 348.478241
0.333364 1.510036 3.702649 12.000000 23 348.478244
0.297328 1.347908 2.595807 19.000000 21 348.478246
0.329896 1.495536 2.321929 26.000000 19 348.478249
0.525262 2.381151 2.995000 13.000000 17 348.478252
0.096368 0.322293 5.639947 98.000000 30 348.478259
0.109199 0.402750 3.842714 8.000000 29 348.478262
0.223721 0.956163 3.815619 93.000000 26 348.478264
0.305782 1.373726 3.881332 11.000000 24 348.478267
0.293741 1.321786 2.862283 13.000000 22 348.478270
0.306218 1.379043 2.380810 18.000000 20 348.478272
0.470993 2.121055 2.950751 15.000000 18 348.478275
0.533063 2.400560 2.744064 15.000000 16 348.478277
0.534112 2.435395 2.529930 16.000000 15 348.478235
0.545214 2.486004 2.133825 18.000000 13 348.478237
0.552692 2.518003 1.774789 18.000000 11 348.478240
0.316593 1.442362 0.859219 73.000000 9 348.478243
0.319474 1.454275 0.689894 79.000000 7 348.478245
0.573865 2.610097 0.874964 21.000000 5 348.478248
0.379736 1.727152 0.427215 24.000000 3 348.478250
0.382029 1.736133 0.252228 13.000000 1 348.478253
0.543806 2.461116 2.325243 17.000000 14 348.478261
0.549977 2.489030 1.939632 23.000000 12 348.478263
0.558004 2.523268 1.603596 18.000000 10 348.478266
0.327557 1.481194 0.788725 30.000000 8 348.478268
0.572629 2.587249 1.010888 25.000000 6 348.478271
0.379514 1.713304 0.513960 29.000000 4 348.478273
0.392267 1.769414 0.344673 17.000000 2 348.478276
0.388441 1.750708 0.166015 12.000000 0 348.478279
0.025789 0.056973 5.619060 97.000000 31 348.478289
0.142128 0.569119 3.729564 9.000000 28 348.478292
0.191236 0.761874 3.799957 90.000000 27 348.478294
0.266679 1.158349 3.844844 80.000000 25 348.478297
0.338205 1.506957 3.698046 12.000000 23 348.478299
0.302031 1.346862 2.595807 19.000000 21 348.478302
0.335115 1.494375 2.321929 26.000000 19 348.478305
0.533571 2.379303 2.995000 12.000000 17 348.478307
0.097493 0.321955 5.639947 98.000000 30 348.478315
0.110889 0.403395 3.852657 8.000000 29 348.478317
0.227057 0.955376 3.815619 93.000000 26 348.478320
0.310575 1.372650 3.881332 11.000000 24 348.478323
0.297873 1.318629 2.857782 13.000000 22 348.478325
0.311030 1.377966 2.380810 18.000000 20 348.478328
0.483039 2.139978 2.978677 15.000000 18 348.478330
0.541439 2.398685 2.744064 15.000000 16 348.478333
0.542610 2.433515 2.529930 16.000000 15 348.478290
0.553888 2.484086 2.133825 18.000000 13 348.478293
0.560568 2.511978 1.772047 18.000000 11 348.478296
0.321626 1.441248 0.859219 73.000000 9 348.478298
0.324549 1.453151 0.689894 79.000000 7 348.478301
0.581925 2.603397 0.873555 21.000000 5 348.478303
0.385763 1.725816 0.427215 24.000000 3 348.478306
0.388086 1.734788 0.252228 12.000000 1 348.478308
0.552394 2.459203 2.325243 17.000000 14 348.478316
0.557776 2.483151 1.936688 22.000000 12 348.478319
0.566808 2.521305 1.603596 18.000000 10 348.478321
0.330734 1.471186 0.784529 30.000000 8 348.478324
0.581657 2.585234 1.010888 25.000000 6 348.478326
0.386560 1.716711 0.515132 27.000000 4 348.478329
0.397352 1.763203 0.343983 16.000000 2 348.478331
0.394549 1.749342 0.166015 12.000000 0 348.478334
0.025987 0.056882 5.619060 97.000000 31 348.478345
0.144879 0.571631 3.749321 9.000000 28 348.478347
0.193894 0.761202 3.799957 90.000000 27 348.478350
0.270381 1.155957 3.840073 75.000000 25 348.478352
0.342594 1.501958 3.688842 11.000000 23 348.478355
0.306731 1.345800 2.595807 19.000000 21 348.478357
0.340329 1.493196 2.321929 26.000000 19 348.478360
0.541873 2.377426 2.995000 12.000000 17 348.478363
0.098616 0.321613 5.639947 97.000000 30 348.478370
0.112585 0.404034 3.862599 8.000000 29 348.478373
0.230391 0.954578 3.815619 94.000000 26 348.478375
0.315365 1.371558 3.881332 10.000000 24 348.478378
0.302474 1.317581 2.857782 13.000000 22 348.478381
0.315838 1.376872 2.380810 18.000000 20 348.478383
0.494550 2.155905 3.002614 15.000000 18 348.478386
0.549051 2.393476 2.740388 15.000000 16 348.478388
0.550313 2.428128 2.526425 16.000000 15 348.478346
0.561696 2.478341 2.130687 17.000000 13 348.478349
0.569333 2.510006 1.772047 18.000000 11 348.478351
0.325675 1.435796 0.856901 73.000000 9 348.478354
0.328593 1.447488 0.688021 79.000000 7 348.478356
0.591009 2.601349 0.873555 21.000000 5 348.478359
0.392873 1.729249 0.428148 21.000000 3 348.478361
0.394140 1.733423 0.252228 13.000000 1 348.478364
0.560975 2.457260 2.325243 18.000000 14 348.478372
0.566440 2.481189 1.936688 22.000000 12 348.478374
0.574645 2.515108 1.601064 18.000000 10 348.478377
0.333846 1.461173 0.780333 42.000000 8 348.478379
0.590677 2.583188 1.010888 25.000000 6 348.478382
0.392550 1.715351 0.515132 27.000000 4 348.478384
0.403505 1.761805 0.343983 16.000000 2 348.478387
0.401770 1.752823 0.166217 11.000000 0 348.478390
0.026186 0.056791 5.619060 98.000000 31 348.478400
0.147649 0.574132 3.769078 12.000000 28 348.478403
0.196550 0.760521 3.799957 89.000000 27 348.478405
0.274414 1.155006 3.840073 74.000000 25 348.478408
0.346511 1.495043 3.675034 10.000000 23 348.478410
0.311426 1.344721 2.595807 19.000000 21 348.478413
0.345539 1.491999 2.321929 26.000000 19 348.478416
0.550169 2.375520 2.995000 12.000000 17 348.478418
0.099651 0.320990 5.634955 97.000000 30 348.478426
0.114287 0.404665 3.872542 8.000000 29 348.478428
0.233722 0.953768 3.815619 92.000000 26 348.478431
0.320151 1.370449 3.881332 10.000000 24 348.478434
0.307071 1.316517 2.857782 13.000000 22 348.478436
0.320643 1.375761 2.380810 19.000000 20 348.478439
0.503440 2.160036 3.010593 15.000000 18 348.478441
0.556633 2.388243 2.736713 15.000000 16 348.478444
0.558785 2.426193 2.526425 16.000000 15 348.478401
0.570343 2.476365 2.130687 17.000000 13 348.478404
0.577152 2.503928 1.769306 18.000000 11 348.478407
0.330685 1.434651 0.856901 73.000000 9 348.478409
0.333644 1.446332 0.688021 79.000000 7 348.478412
0.600086 2.599271 0.873555 21.000000 5 348.478414
0.398907 1.727867 0.428148 21.000000 3 348.478417
0.401309 1.736889 0.252674 11.000000 1 348.478419
0.569549 2.455287 2.325243 18.000000 14 348.478427
0.575098 2.479197 1.936688 22.000000 12 348.478430
0.583421 2.513087 1.601064 18.000000 10 348.478432
0.336891 1.451157 0.776137 80.000000 8 348.478435
0.599691 2.581110 1.010888 25.000000 6 348.478437
0.399636 1.718704 0.516304 28.000000 4 348.478440
0.409652 1.760386 0.343983 16.000000 2 348.478443
0.407886 1.751410 0.166217 10.000000 0 348.478445
0.026384 0.056700 5.619060 98.000000 31 348.478456
0.150439 0.576620 3.788835 12.000000 28 348.478458
0.199204 0.759830 3.799957 89.000000 27 348.478461
0.278444 1.154041 3.840073 71.000000 25 348.478463
0.351728 1.493825 3.675034 10.000000 23 348.478466
0.316118 1.343626 2.595807 19.000000 21 348.478469
0.350745 1.490784 2.321929 25.000000 19 348.478471
0.557723 2.370465 2.991163 12.000000 17 348.478474
0.100771 0.320640 5.634955 97.000000 30 348.478481
0.115847 0.404777 3.877514 8.000000 29 348.478484
0.237049 0.952946 3.815619 92.000000 26 348.478487
0.324932 1.369323 3.881332 10.000000 24 348.478489
0.311665 1.315437 2.857782 13.000000 22 348.478492
0.324842 1.372096 2.376545 19.000000 20 348.478494
0.511672 2.161198 3.014583 15.000000 18 348.478497
0.564185 2.382987 2.733038 15.000000 16 348.478499
0.566438 2.420755 2.522921 16.000000 15 348.478457
0.578097 2.470569 2.127550 18.000000 13 348.478460
0.585888 2.501899 1.769306 18.000000 11 348.478462
0.335691 1.433488 0.856901 75.000000 9 348.478465
0.338690 1.445159 0.688021 79.000000 7 348.478467
0.608060 2.592489 0.872146 21.000000 5 348.478470
0.406058 1.731246 0.429081 24.000000 3 348.478472
0.407370 1.735478 0.252674 9.000000 1 348.478475
0.578116 2.453284 2.325243 18.000000 14 348.478483
0.582821 2.473240 1.933745 23.000000 12 348.478485
0.592190 2.511035 1.601064 18.000000 10 348.478488
0.339871 1.441138 0.771941 83.000000 8 348.478490
0.608697 2.579001 1.010888 25.000000 6 348.478493
0.405633 1.717299 0.516304 29.000000 4 348.478495
0.415794 1.758945 0.343983 14.000000 2 348.478498
0.415147 1.754838 0.166418 9.000000 0 348.478501
0.026582 0.056607 5.619060 98.000000 31 348.478511
0.153248 0.579095 3.808592 13.000000 28 348.478514
0.201855 0.759130 3.799957 89.000000 27 348.478516
0.282826 1.154513 3.844844 70.000000 25 348.478519
0.356486 1.490688 3.670431 11.000000 23 348.478521
0.320807 1.342514 2.595807 19.000000 21 348.478524
0.355947 1.489551 2.321929 25.000000 19 348.478526
0.565249 2.365385 2.987327 12.000000 17 348.478529
0.101890 0.320287 5.634955 97.000000 30 348.478537
0.117408 0.404883 3.882485 9.000000 29 348.478539
0.240374 0.952113 3.815619 93.000000 26 348.478542
0.329710 1.368180 3.881332 10.000000 24 348.478544
0.315745 1.312224 2.853281 13.000000 22 348.478547
0.329630 1.370953 2.376545 18.000000 20 348.478549
0.520622 2.165260 3.022562 15.000000 18 348.478552
0.572499 2.381002 2.733038 15.000000 16 348.478555
0.574884 2.418763 2.522921 16.000000 15 348.478512
0.586717 2.468536 2.127550 18.000000 13 348.478515
0.594618 2.499838 1.769306 18.000000 11 348.478517
0.340693 1.432307 0.856901 73.000000 9 348.478520
0.343733 1.443968 0.688021 77.000000 7 348.478523
0.617106 2.590351 0.872146 21.000000 5 348.478525
0.412098 1.729818 0.429081 24.000000 3 348.478528
0.414580 1.738889 0.253121 9.000000 1 348.478530
0.586676 2.451251 2.325243 18.000000 14 348.478538
0.591451 2.471190 1.933745 23.000000 12 348.478541
0.600952 2.508953 1.601064 18.000000 10 348.478543
0.343843 1.435529 0.769843 83.000000 8 348.478546
0.617696 2.576861 1.010888 24.000000 6 348.478548
0.412759 1.720599 0.517477 29.000000 4 348.478551
0.423088 1.762298 0.344673 14.000000 2 348.478553
0.421270 1.753378 0.166418 9.000000 0 348.478556
0.026779 0.056514 5.619060 98.000000 31 348.478567
0.156076 0.581558 3.828349 15.000000 28 348.478569
0.204504 0.758421 3.799957 90.000000 27 348.478572
0.286854 1.153519 3.844844 66.000000 25 348.478574
0.363531 1.497028 3.688842 12.000000 23 348.478577
0.325491 1.341386 2.595807 19.000000 21 348.478579
0.361144 1.488299 2.321929 25.000000 19 348.478582
0.573502 2.363398 2.987327 12.000000 17 348.478584
0.103007 0.319929 5.634955 97.000000 30 348.478592
0.119124 0.405495 3.892428 9.000000 29 348.478595
0.243696 0.951268 3.815619 92.000000 26 348.478597
0.334484 1.367021 3.881332 10.000000 24 348.478600
0.320324 1.311114 2.853281 13.000000 22 348.478602
0.333795 1.367261 2.372279 19.000000 20 348.478605
0.528892 2.166357 3.026551 15.000000 18 348.478608
0.580807 2.378989 2.733038 15.000000 16 348.478610
0.582487 2.413275 2.519416 16.000000 15 348.478568
0.594417 2.462688 2.124412 18.000000 13 348.478570
0.602359 2.493683 1.766564 18.000000 11 348.478573
0.344650 1.426803 0.854583 73.000000 9 348.478575
0.347682 1.438253 0.686148 77.000000 7 348.478578
0.626144 2.588181 0.872146 21.000000 5 348.478581
0.418134 1.728369 0.429081 24.000000 3 348.478583
0.421819 1.742272 0.253567 11.000000 1 348.478586
0.594347 2.445559 2.321918 18.000000 14 348.478593
0.599119 2.465183 1.930802 23.000000 12 348.478596
0.608687 2.502650 1.598531 18.000000 10 348.478599
0.348851 1.434320 0.769843 83.000000 8 348.478601
0.616635 2.533392 0.996104 16.000000 6 348.478604
0.418763 1.719148 0.517477 29.000000 4 348.478606
0.430410 1.765622 0.345363 17.000000 2 348.478609
0.427388 1.751897 0.166418 11.000000 0 348.478611
0.026976 0.056420 5.619060 98.000000 31 348.478622
0.158923 0.584008 3.848106 16.000000 28 348.478625
0.207150 0.757702 3.799957 89.000000 27 348.478627
0.290879 1.152510 3.844844 65.000000 25 348.478630
0.371561 1.507131 3.716457 12.000000 23 348.478632
0.330171 1.340242 2.595807 19.000000 21 348.478635
0.367010 1.489762 2.326062 25.000000 19 348.478637
0.580982 2.358268 2.983490 12.000000 17 348.478640
0.104123 0.319568 5.634955 97.000000 30 348.478648
0.120692 0.405588 3.897399 10.000000 29 348.478650
0.247015 0.950411 3.815619 92.000000 26 348.478653
0.339254 1.365845 3.881332 11.000000 24 348.478655
0.324899 1.309987 2.853281 13.000000 22 348.478658
0.338565 1.366087 2.372279 18.000000 20 348.478661
0.537900 2.170349 3.034530 15.000000 18 348.478663
0.589108 2.376947 2.733038 15.000000 16 348.478666
0.590908 2.411227 2.519416 16.000000 15 348.478623
0.602083 2.456818 2.121274 19.000000 13 348.478626
0.611060 2.491565 1.766564 18.000000 11 348.478628
0.349628 1.425591 0.854583 75.000000 9 348.478631
0.352700 1.437031 0.686148 77.000000 7 348.478634
0.636319 2.590639 0.873555 19.000000 5 348.478636
0.424164 1.726899 0.429081 24.000000 3 348.478639
0.427898 1.740789 0.253567 11.000000 1 348.478641
0.602880 2.443470 2.321918 18.000000 14 348.478649
0.607720 2.463077 1.930802 23.000000 12 348.478652
0.617419 2.500510 1.598531 18.000000 10 348.478654
0.353856 1.433093 0.769843 83.000000 8 348.478657
0.425928 1.722394 0.518649 29.000000 4 348.478662
0.436570 1.764109 0.345363 18.000000 2 348.478664
0.434701 1.755243 0.166620 10.000000 0 348.478667
0.027173 0.056326 5.619060 97.000000 31 348.478678
0.161997 0.587194 3.872802 22.000000 28 348.478680
0.209793 0.756975 3.799957 89.000000 27 348.478683
0.294900 1.151488 3.844844 59.000000 25 348.478685
0.379191 1.515301 3.739469 12.000000 23 348.478688
0.334266 1.336757 2.591418 19.000000 21 348.478690
0.372208 1.488472 2.326062 25.000000 19 348.478693
0.589210 2.356226 2.983490 12.000000 17 348.478695
0.105330 0.319477 5.639947 97.000000 30 348.478703
0.122571 0.406697 3.912313 9.000000 29 348.478706
0.250011 0.948327 3.810780 92.000000 26 348.478708
0.344020 1.364653 3.881332 11.000000 24 348.478711
0.329166 1.306676 2.848780 13.000000 22 348.478713
0.342933 1.362308 2.368013 18.000000 20 348.478716
0.546587 2.171285 3.038520 15.000000 18 348.478719
0.596988 2.371485 2.729363 15.000000 16 348.478721
0.599321 2.409150 2.519416 16.000000 15 348.478679
0.610655 2.454701 2.121274 19.000000 13 348.478681
0.619753 2.489417 1.766564 19.000000 11 348.478684
0.354603 1.424362 0.854583 73.000000 9 348.478687
0.357714 1.435791 0.686148 79.000000 7 348.478689
0.644198 2.583747 0.872146 19.000000 5 348.478692
0.430491 1.725333 0.429081 24.000000 3 348.478694
0.434276 1.739209 0.253567 11.000000 1 348.478697
0.610924 2.437621 2.318594 18.000000 14 348.478705
0.615761 2.456912 1.927859 23.000000 12 348.478707
0.625531 2.494049 1.595999 18.000000 10 348.478710
0.359106 1.431787 0.769843 83.000000 8 348.478712
0.432238 1.720821 0.518649 28.000000 4 348.478717
0.444240 1.767300 0.346053 17.000000 2 348.478720
0.440826 1.753715 0.166620 10.000000 0 348.478722
0.027358 0.056188 5.614060 98.000000 31 348.478733
0.164777 0.588841 3.887620 28.000000 28 348.478736
0.212566 0.756201 3.799957 89.000000 27 348.478738
0.299119 1.150399 3.844844 54.000000 25 348.478741
0.388111 1.527155 3.771687 14.000000 23 348.478743
0.339164 1.335523 2.591418 18.000000 21 348.478746
0.377661 1.487097 2.326062 25.000000 19 348.478748
0.597053 2.350944 2.979653 12.000000 17 348.478751
0.106500 0.319089 5.639947 97.000000 30 348.478759
0.123904 0.405734 3.907342 8.000000 29 348.478761
0.253485 0.947405 3.810780 93.000000 26 348.478764
0.349019 1.363383 3.881332 11.000000 24 348.478766
0.333725 1.305519 2.848780 13.000000 22 348.478769
0.347687 1.361103 2.368013 19.000000 20 348.478772
0.554909 2.172284 3.042509 15.000000 18 348.478774
0.605262 2.369387 2.729363 15.000000 16 348.478777
0.608147 2.406937 2.519416 16.000000 15 348.478734
0.618695 2.448672 2.118136 19.000000 13 348.478737
0.628873 2.487128 1.766564 19.000000 11 348.478739
0.359821 1.423053 0.854583 73.000000 9 348.478742
0.362974 1.434470 0.686148 79.000000 7 348.478745
0.656019 2.590669 0.874964 18.000000 5 348.478747
0.436511 1.723820 0.429081 23.000000 3 348.478750
0.440344 1.737682 0.253567 12.000000 1 348.478752
0.619429 2.435474 2.318594 18.000000 14 348.478760
0.624333 2.454748 1.927859 23.000000 12 348.478763
0.633170 2.487672 1.593466 18.000000 10 348.478765
0.362982 1.426126 0.767745 82.000000 8 348.478768
0.483878 1.899726 0.771056 27.000000 6 348.478770
0.438242 1.719302 0.518649 28.000000 4 348.478773
0.450407 1.765738 0.346053 16.000000 2 348.478775
0.447250 1.752088 0.166620 11.000000 0 348.478778
0.027554 0.056092 5.614060 99.000000 31 348.478789
0.166619 0.587514 3.882681 33.000000 28 348.478791
0.215205 0.755454 3.799957 90.000000 27 348.478794
0.303133 1.149348 3.844844 49.000000 25 348.478796
0.393927 1.527683 3.776289 13.000000 23 348.478799
0.343823 1.334331 2.591418 18.000000 21 348.478801
0.382850 1.485770 2.326062 26.000000 19 348.478804
0.605256 2.348845 2.979653 12.000000 17 348.478807
0.107613 0.318715 5.639947 96.000000 30 348.478814
0.125320 0.405299 3.907342 8.000000 29 348.478817
0.256790 0.946514 3.810780 93.000000 26 348.478819
0.353776 1.362156 3.881332 11.000000 24 348.478822
0.337733 1.302238 2.844280 13.000000 22 348.478825
0.351781 1.357356 2.363747 18.000000 20 348.478827
0.563245 2.173252 3.046499 15.000000 18 348.478830
0.613530 2.367259 2.729363 15.000000 16 348.478832
0.616545 2.404799 2.519416 15.000000 15 348.478790
0.626271 2.442727 2.114999 19.000000 13 348.478792
0.636512 2.480868 1.763823 18.000000 11 348.478795
0.364786 1.421788 0.854583 73.000000 9 348.478798
0.367979 1.433194 0.686148 77.000000 7 348.478800
0.660282 2.569778 0.869328 16.000000 5 348.478803
0.443748 1.727043 0.430013 23.000000 3 348.478805
0.446407 1.736135 0.253567 12.000000 1 348.478808
0.627926 2.433297 2.318594 18.000000 14 348.478816
0.632898 2.452553 1.927859 23.000000 12 348.478818
0.640771 2.481272 1.590934 19.000000 10 348.478821
0.367958 1.424851 0.767745 82.000000 8 348.478823
0.491688 1.902597 0.772699 29.000000 6 348.478826
0.444241 1.717762 0.518649 28.000000 4 348.478828
0.455327 1.759361 0.345363 16.000000 2 348.478831
0.454616 1.755352 0.166821 11.000000 0 348.478833
0.027728 0.055958 5.609060 98.000000 31 348.478844
0.168669 0.586929 3.882681 35.000000 28 348.478847
0.218123 0.755676 3.804852 90.000000 27 348.478849
0.307143 1.148283 3.844844 46.000000 25 348.478852
0.399751 1.528189 3.780892 13.000000 23 348.478854
0.348479 1.333122 2.591418 19.000000 21 348.478857
0.388034 1.484425 2.326062 26.000000 19 348.478859
0.613451 2.346718 2.979653 12.000000 17 348.478862
0.108669 0.318356 5.639947 96.000000 30 348.478870
0.127465 0.407428 3.932199 8.000000 29 348.478872
0.259928 0.945657 3.810780 92.000000 26 348.478875
0.358291 1.360975 3.881332 10.000000 24 348.478877
0.342277 1.301051 2.844280 13.000000 22 348.478880
0.356517 1.356120 2.363747 19.000000 20 348.478883
0.571594 2.174188 3.050488 15.000000 18 348.478885
0.621376 2.365212 2.729363 15.000000 16 348.478888
0.624038 2.399181 2.515911 15.000000 15 348.478845
0.633814 2.436758 2.111861 20.000000 13 348.478848
0.645168 2.478631 1.763823 18.000000 11 348.478851
0.369747 1.420506 0.854583 73.000000 9 348.478853
0.372730 1.431966 0.686148 79.000000 7 348.478856
0.670010 2.572217 0.870737 16.000000 5 348.478858
0.449774 1.725484 0.430013 23.000000 3 348.478861
0.452464 1.734566 0.253567 12.000000 1 348.478863
0.636416 2.431090 2.318594 18.000000 14 348.478871
0.641455 2.450329 1.927859 23.000000 12 348.478874
0.647904 2.474963 1.588402 20.000000 10 348.478876
0.372681 1.423623 0.767745 82.000000 8 348.478879
0.496798 1.896388 0.771056 29.000000 6 348.478881
0.449935 1.716279 0.518649 27.000000 4 348.478884
0.461158 1.757841 0.345363 15.000000 2 348.478886
0.460435 1.753835 0.166821 11.000000 0 348.478889
0.027913 0.055865 5.609060 98.000000 31 348.478900
0.170614 0.586367 3.882681 36.000000 28 348.478902
0.220628 0.754949 3.804852 90.000000 27 348.478905
0.310949 1.147258 3.844844 39.000000 25 348.478907
0.405318 1.528743 3.785494 13.000000 23 348.478910
0.352284 1.329643 2.587029 19.000000 21 348.478912
0.392954 1.483130 2.326062 25.000000 19 348.478915
0.621230 2.344671 2.979653 12.000000 17 348.478918
0.109780 0.317975 5.639947 97.000000 30 348.478925
0.182691 0.575880 5.582708 16.000000 29 348.478928
0.263227 0.944744 3.810780 90.000000 26 348.478930
0.363039 1.359716 3.881332 10.000000 24 348.478933
0.346816 1.299849 2.844280 13.000000 22 348.478936
0.361249 1.354867 2.363747 19.000000 20 348.478938
0.579956 2.175091 3.054478 15.000000 18 348.478941
0.630041 2.362919 2.729363 15.000000 16 348.478943
0.631990 2.397099 2.515911 15.000000 15 348.478901
0.641891 2.434643 2.111861 20.000000 13 348.478903
0.652317 2.472435 1.761081 19.000000 11 348.478906
0.373325 1.414989 0.852265 75.000000 9 348.478909
0.377726 1.430656 0.686148 77.000000 7 348.478911
0.676533 2.560586 0.867918 16.000000 5 348.478914
0.455794 1.723903 0.430013 22.000000 3 348.478916
0.459790 1.737790 0.254013 12.000000 1 348.478919
0.643940 2.425245 2.315269 18.000000 14 348.478927
0.650005 2.448075 1.927859 24.000000 12 348.478929
0.654757 2.464239 1.583337 20.000000 10 348.478932
0.377896 1.422247 0.767745 80.000000 8 348.478934
0.503745 1.894554 0.771056 27.000000 6 348.478937
0.456222 1.714619 0.518649 27.000000 4 348.478939
0.466324 1.751354 0.344673 15.000000 2 348.478942
0.466554 1.752217 0.166821 11.000000 0 348.478945
0.028118 0.055763 5.609060 98.000000 31 348.478955
0.172762 0.585737 3.882681 36.000000 28 348.478958
0.223394 0.754135 3.804852 90.000000 27 348.478960
0.315152 1.146111 3.844844 39.000000 25 348.478963
0.411426 1.529134 3.790097 13.000000 23 348.478965
0.357155 1.328343 2.587029 19.000000 21 348.478968
0.398388 1.481679 2.326062 26.000000 19 348.478971
0.628987 2.339282 2.975816 12.000000 17 348.478973
0.110945 0.317571 5.639947 97.000000 30 348.478981
0.185784 0.578256 5.612536 21.000000 29 348.478983
0.266688 0.943773 3.810780 92.000000 26 348.478986
0.368021 1.358377 3.881332 11.000000 24 348.478989
0.351351 1.298630 2.844280 13.000000 22 348.478991
0.366657 1.356115 2.368013 19.000000 20 348.478994
0.588332 2.175963 3.058467 15.000000 18 348.478996
0.637400 2.357432 2.725688 15.000000 16 348.478999
0.639850 2.391321 2.512407 15.000000 15 348.478956
0.649804 2.428513 2.108723 20.000000 13 348.478959
0.661375 2.470027 1.761081 19.000000 11 348.478962
0.378509 1.413611 0.852265 75.000000 9 348.478964
0.382967 1.429262 0.686148 77.000000 7 348.478967
0.657338 2.451516 0.835507 8.000000 5 348.478969
0.461809 1.722302 0.430013 22.000000 3 348.478972
0.465854 1.736175 0.254013 12.000000 1 348.478974
0.652402 2.422982 2.315269 18.000000 14 348.478982
0.657495 2.441888 1.924916 23.000000 12 348.478985
0.659990 2.449450 1.575739 22.000000 10 348.478987
0.382859 1.420919 0.767745 80.000000 8 348.478990
0.462204 1.713016 0.518649 28.000000 4 348.478995
0.472434 1.749716 0.344673 15.000000 2 348.478997
0.472973 1.750495 0.166821 11.000000 0 348.479000
0.028334 0.055702 5.614060 98.000000 31 348.479011
0.174806 0.585131 3.882681 36.000000 28 348.479013
0.226025 0.753351 3.804852 90.000000 27 348.479016
0.319151 1.145004 3.844844 36.000000 25 348.479018
0.417275 1.529573 3.794699 13.000000 23 348.479021
0.361790 1.327088 2.587029 20.000000 21 348.479023
0.403557 1.480280 2.326062 26.000000 19 348.479026
0.637148 2.337072 2.975816 12.000000 17 348.479029
0.112053 0.317181 5.639947 97.000000 30 348.479036
0.188962 0.581156 5.647336 28.000000 29 348.479039
0.269981 0.942836 3.810780 92.000000 26 348.479041
0.373217 1.358748 3.886025 11.000000 24 348.479044
0.355882 1.297396 2.844280 13.000000 22 348.479047
0.371388 1.354827 2.368013 19.000000 20 348.479049
0.595924 2.173896 3.058467 15.000000 18 348.479052
0.645625 2.355193 2.725688 15.000000 16 348.479054
0.648193 2.389073 2.512407 15.000000 15 348.479012
0.658277 2.426230 2.108723 20.000000 13 348.479015
0.668897 2.463669 1.758340 18.000000 11 348.479017
0.383441 1.412281 0.852265 75.000000 9 348.479020
0.386738 1.423443 0.684275 77.000000 7 348.479022
0.667150 2.453836 0.836916 9.000000 5 348.479025
0.467818 1.720679 0.430013 23.000000 3 348.479027
0.471911 1.734538 0.254013 11.000000 1 348.479030
0.659872 2.417087 2.311944 18.000000 14 348.479038
0.666015 2.439579 1.924916 23.000000 12 348.479040
0.663991 2.430496 1.565610 25.000000 10 348.479043
0.387816 1.419574 0.767745 78.000000 8 348.479045
0.683834 2.501401 0.991176 12.000000 6 348.479048
0.466899 1.706703 0.517477 28.000000 4 348.479050
0.478539 1.748056 0.344673 15.000000 2 348.479053
0.479080 1.748834 0.166821 11.000000 0 348.479056
0.028528 0.055603 5.614060 93.000000 31 348.479066
0.176847 0.584517 3.882681 36.000000 28 348.479069
0.228653 0.752557 3.804852 90.000000 27 348.479071
0.323145 1.143883 3.844844 35.000000 25 348.479074
0.422612 1.528107 3.794699 13.000000 23 348.479076
0.366420 1.325818 2.587029 19.000000 21 348.479079
0.407972 1.476150 2.321929 26.000000 19 348.479082
0.644448 2.331744 2.971979 12.000000 17 348.479084
0.113159 0.316788 5.639947 96.000000 30 348.479092
0.191492 0.582014 5.662251 40.000000 29 348.479094
0.273270 0.941888 3.810780 92.000000 26 348.479097
0.377958 1.357437 3.886025 10.000000 24 348.479100
0.360409 1.296146 2.844280 13.000000 22 348.479102
0.376115 1.353523 2.368013 19.000000 20 348.479105
0.604315 2.174706 3.062457 15.000000 18 348.479107
0.653843 2.352925 2.725688 15.000000 16 348.479110
0.655583 2.383357 2.508902 15.000000 15 348.479067
0.666743 2.423918 2.108723 20.000000 13 348.479070
0.677493 2.461318 1.758340 18.000000 11 348.479073
0.388368 1.410934 0.852265 75.000000 9 348.479075
0.391705 1.422084 0.684275 77.000000 7 348.479078
0.527839 1.915011 0.673449 18.000000 5 348.479080
0.472516 1.714300 0.429081 23.000000 3 348.479083
0.477963 1.732880 0.254013 11.000000 1 348.479085
0.668305 2.414769 2.311944 17.000000 14 348.479093
0.674527 2.437239 1.924916 23.000000 12 348.479096
0.391558 1.413838 0.765647 82.000000 8 348.479101
0.695084 2.508101 0.994461 13.000000 6 348.479103
0.472853 1.705063 0.517477 28.000000 4 348.479106
0.484638 1.746375 0.344673 15.000000 2 348.479109
0.483845 1.742337 0.166620 11.000000 0 348.479111
0.028722 0.055503 5.614060 93.000000 31 348.479122
0.179115 0.584639 3.887620 36.000000 28 348.479124
0.231278 0.751754 3.804852 90.000000 27 348.479127
0.327548 1.144184 3.849616 33.000000 25 348.479129
0.427943 1.526623 3.794699 13.000000 23 348.479132
0.371046 1.324530 2.587029 20.000000 21 348.479135
0.413123 1.474717 2.321929 26.000000 19 348.479137
0.652584 2.329480 2.971979 12.000000 17 348.479140
0.114264 0.316391 5.639947 96.000000 30 348.479147
0.193691 0.581849 5.667222 64.000000 29 348.479150
0.276556 0.940929 3.810780 92.000000 26 348.479153
0.382694 1.356109 3.886025 11.000000 24 348.479155
0.364341 1.292784 2.839779 13.000000 22 348.479158
0.380837 1.352202 2.368013 19.000000 20 348.479160
0.611903 2.172584 3.062457 15.000000 18 348.479163
0.662052 2.350628 2.725688 15.000000 16 348.479165
0.663898 2.381054 2.508902 15.000000 15 348.479123
0.675200 2.421576 2.108723 19.000000 13 348.479126
0.684956 2.454911 1.755598 19.000000 11 348.479128
0.393291 1.409570 0.852265 75.000000 9 348.479131
0.396666 1.420708 0.684275 77.000000 7 348.479133
0.525484 1.880814 0.663585 25.000000 5 348.479136
0.478497 1.712640 0.429081 23.000000 3 348.479138
0.484009 1.731201 0.254013 12.000000 1 348.479141
0.675722 2.408826 2.308619 17.000000 14 348.479149
0.683030 2.434869 1.924916 23.000000 12 348.479151
0.433926 1.545830 1.028735 26.000000 10 348.479154
0.396491 1.412463 0.765647 82.000000 8 348.479156
0.662967 2.360172 0.941895 5.000000 6 348.479159
0.477487 1.698723 0.516304 28.000000 4 348.479161
0.490731 1.744672 0.344673 15.000000 2 348.479164
0.489924 1.740638 0.166620 10.000000 0 348.479167
0.028916 0.055402 5.614060 98.000000 31 348.479177
0.181154 0.584010 3.887620 33.000000 28 348.479180
0.233901 0.750943 3.804852 90.000000 27 348.479182
0.331956 1.144468 3.854388 32.000000 25 348.479185
0.433803 1.526999 3.799302 13.000000 23 348.479187
0.375667 1.323227 2.587029 19.000000 21 348.479190
0.418268 1.473266 2.321929 26.000000 19 348.479192
0.659836 2.324104 2.968142 12.000000 17 348.479195
0.115368 0.315991 5.639947 97.000000 30 348.479203
0.196063 0.582181 5.677165 88.000000 29 348.479205
0.280198 0.941163 3.815619 93.000000 26 348.479208
0.387425 1.354765 3.886025 11.000000 24 348.479210
0.368851 1.291504 2.839779 13.000000 22 348.479213
0.384839 1.348356 2.363747 19.000000 20 348.479215
0.620310 2.173333 3.066446 15.000000 18 348.479218
0.669323 2.345043 2.722013 15.000000 16 348.479221
0.671236 2.375290 2.505398 15.000000 15 348.479178
0.683648 2.419204 2.108723 19.000000 13 348.479181
0.693521 2.452505 1.755598 19.000000 11 348.479183
0.398209 1.408188 0.852265 75.000000 9 348.479186
0.401623 1.419315 0.684275 77.000000 7 348.479189
0.530739 1.874352 0.662176 25.000000 5 348.479191
0.483134 1.706233 0.428148 23.000000 3 348.479194
0.490049 1.729501 0.254013 12.000000 1 348.479196
0.684126 2.406453 2.308619 17.000000 14 348.479204
0.691525 2.432470 1.924916 22.000000 12 348.479207
0.418085 1.469665 0.983152 18.000000 10 348.479209
0.401419 1.411070 0.765647 80.000000 8 348.479212
0.668616 2.348759 0.938610 5.000000 6 348.479214
0.483414 1.697046 0.516304 27.000000 4 348.479217
0.496818 1.742949 0.344673 16.000000 2 348.479219
0.495997 1.738917 0.166620 12.000000 0 348.479222
0.029109 0.055301 5.614060 98.000000 31 348.479233
0.183192 0.583374 3.887620 33.000000 28 348.479235
0.236521 0.750122 3.804852 90.000000 27 348.479238
0.336370 1.144735 3.859159 29.000000 25 348.479240
0.439131 1.525475 3.799302 13.000000 23 348.479243
0.379621 1.319605 2.582641 19.000000 21 348.479245
0.423408 1.471797 2.321929 26.000000 19 348.479248
0.667944 2.321787 2.968142 12.000000 17 348.479250
0.116470 0.315586 5.639947 98.000000 30 348.479258
0.198267 0.581998 5.682136 100.000000 29 348.479261
0.283482 0.940179 3.815619 92.000000 26 348.479263
0.392152 1.353404 3.886025 10.000000 24 348.479266
0.373357 1.290209 2.839779 13.000000 22 348.479268
0.389544 1.347005 2.363747 19.000000 20 348.479271
0.628730 2.174050 3.070436 15.000000 18 348.479274
0.677504 2.342692 2.722013 15.000000 16 348.479276
0.679523 2.372933 2.505398 15.000000 15 348.479234
0.692089 2.416803 2.108723 18.000000 13 348.479236
0.702078 2.450070 1.755598 19.000000 11 348.479239
0.403122 1.406789 0.852265 75.000000 9 348.479241
0.406575 1.417904 0.684275 81.000000 7 348.479244
0.538602 1.877100 0.663585 26.000000 5 348.479247
0.489087 1.704536 0.428148 24.000000 3 348.479249
0.496083 1.727780 0.254013 13.000000 1 348.479252
0.692522 2.404050 2.308619 17.000000 14 348.479259
0.698893 2.426158 1.921973 22.000000 12 348.479262
0.401719 1.393631 0.937568 10.000000 10 348.479265
0.406342 1.409660 0.765647 80.000000 8 348.479267
0.709531 2.459847 0.979677 17.000000 6 348.479270
0.487987 1.690678 0.515132 27.000000 4 348.479272
0.504273 1.745962 0.345363 17.000000 2 348.479275
0.502064 1.737175 0.166620 12.000000 0 348.479277
0.029325 0.055236 5.619060 99.000000 31 348.479288
0.185227 0.582731 3.887620 35.000000 28 348.479291
0.239138 0.749291 3.804852 88.000000 27 348.479293
0.341216 1.146417 3.868703 27.000000 25 348.479296
0.445000 1.525809 3.803904 13.000000 23 348.479298
0.384225 1.318272 2.582641 20.000000 21 348.479301
0.429330 1.473011 2.326062 26.000000 19 348.479303
0.675148 2.316363 2.964305 12.000000 17 348.479306
0.117571 0.315177 5.639947 97.000000 30 348.479314
0.200472 0.581807 5.687108 104.000000 29 348.479316
0.286762 0.939184 3.815619 92.000000 26 348.479319
0.396874 1.352027 3.886025 11.000000 24 348.479321
0.377246 1.286808 2.835278 13.000000 22 348.479324
0.394243 1.345637 2.363747 19.000000 20 348.479327
0.637162 2.174734 3.074425 15.000000 18 348.479329
0.685678 2.340313 2.722013 15.000000 16 348.479332
0.687802 2.370546 2.505398 15.000000 15 348.479289
0.700521 2.414372 2.108723 18.000000 13 348.479292
0.709460 2.443588 1.752857 19.000000 11 348.479294
0.408030 1.405374 0.852265 75.000000 9 348.479297
0.411522 1.416477 0.684275 77.000000 7 348.479300
0.546490 1.879815 0.664994 23.000000 5 348.479302
0.493663 1.698102 0.427215 24.000000 3 348.479305
0.502111 1.726038 0.254013 13.000000 1 348.479307
0.699863 2.398033 2.305294 18.000000 14 348.479315
0.707358 2.423703 1.921973 22.000000 12 348.479318
0.479095 1.640522 1.089514 39.000000 10 348.479320
0.411260 1.408233 0.765647 80.000000 8 348.479323
0.740632 2.534415 1.007603 21.000000 6 348.479325
0.493885 1.688965 0.515132 28.000000 4 348.479328
0.510365 1.744191 0.345363 17.000000 2 348.479330
0.508125 1.735412 0.166620 12.000000 0 348.479333
0.029517 0.055133 5.619060 99.000000 31 348.479344
0.187022 0.581342 3.882681 35.000000 28 348.479346
0.241752 0.748452 3.804852 88.000000 27 348.479349
0.346078 1.148079 3.878246 25.000000 25 348.479351
0.451431 1.527993 3.813110 14.000000 23 348.479354
0.388146 1.314625 2.578252 20.000000 21 348.479356
0.434469 1.471504 2.326062 25.000000 19 348.479359
0.683229 2.313992 2.964305 12.000000 17 348.479361
0.118670 0.314765 5.639947 97.000000 30 348.479369
0.202501 0.581104 5.687108 103.000000 29 348.479372
0.290038 0.938177 3.815619 92.000000 26 348.479374
0.401591 1.350634 3.886025 11.000000 24 348.479377
0.381735 1.285483 2.835278 13.000000 22 348.479379
0.398196 1.341752 2.359481 20.000000 20 348.479382
0.644750 2.172497 3.074425 15.000000 18 348.479385
0.692878 2.334656 2.718338 15.000000 16 348.479387
0.696073 2.368131 2.505398 16.000000 15 348.479345
0.708944 2.411912 2.108723 19.000000 13 348.479347
0.717986 2.441097 1.752857 18.000000 11 348.479350
0.412933 1.403941 0.852265 75.000000 9 348.479353
0.416464 1.415032 0.684275 75.000000 7 348.479355
0.500975 1.701080 0.428148 24.000000 3 348.479360
0.508133 1.724275 0.254013 13.000000 1 348.479363
0.708230 2.395576 2.305294 18.000000 14 348.479371
0.715814 2.421219 1.921973 23.000000 12 348.479373
0.472589 1.597499 1.064189 47.000000 10 348.479376
0.416173 1.406789 0.765647 80.000000 8 348.479378
0.748134 2.527285 1.005960 22.000000 6 348.479381
0.499778 1.687230 0.515132 28.000000 4 348.479383
0.516450 1.742399 0.345363 17.000000 2 348.479386
0.512759 1.728838 0.166418 12.000000 0 348.479388
0.029710 0.055030 5.619060 97.000000 31 348.479399
0.189050 0.580685 3.882681 35.000000 28 348.479402
0.244363 0.747604 3.804852 90.000000 27 348.479404
0.350520 1.148292 3.883018 23.000000 25 348.479407
0.457322 1.528280 3.817712 13.000000 23 348.479409
0.392733 1.313263 2.578252 20.000000 21 348.479412
0.440410 1.472674 2.330195 25.000000 19 348.479414
0.691302 2.311593 2.964305 12.000000 17 348.479417
0.119768 0.314349 5.639947 97.000000 30 348.479425
0.204707 0.580896 5.692079 103.000000 29 348.479427
0.293312 0.937159 3.815619 92.000000 26 348.479430
0.406303 1.349224 3.886025 10.000000 24 348.479432
0.386220 1.284143 2.835278 13.000000 22 348.479435
0.402877 1.340354 2.359481 20.000000 20 348.479438
0.653197 2.173119 3.078415 15.000000 18 348.479440
0.701024 2.332222 2.718338 15.000000 16 348.479443
0.704335 2.365687 2.505398 16.000000 15 348.479400
0.717359 2.409423 2.108723 19.000000 13 348.479403
0.726502 2.438576 1.752857 18.000000 11 348.479405
0.417831 1.402491 0.852265 73.000000 9 348.479408
0.421401 1.413569 0.684275 77.000000 7 348.479411
0.722789 2.423012 0.832689 14.000000 5 348.479413
0.506910 1.699321 0.428148 24.000000 3 348.479416
0.514149 1.722490 0.254013 13.000000 1 348.479418
0.716587 2.393089 2.305294 18.000000 14 348.479426
0.723101 2.414834 1.919029 23.000000 12 348.479429
0.468263 1.562801 1.043930 57.000000 10 348.479431
0.421081 1.405328 0.765647 80.000000 8 348.479434
0.756951 2.524658 1.005960 22.000000 6 348.479436
0.505664 1.685475 0.515132 29.000000 4 348.479439
0.522529 1.740585 0.345363 18.000000 2 348.479441
0.518791 1.727037 0.166418 12.000000 0 348.479444
0.029902 0.054926 5.619060 97.000000 31 348.479455
0.190832 0.579284 3.877742 35.000000 28 348.479457
0.246971 0.746746 3.804852 90.000000 27 348.479460
0.354526 1.147061 3.883018 20.000000 25 348.479462
0.463220 1.528544 3.822315 13.000000 23 348.479465
0.396620 1.309591 2.573864 20.000000 21 348.479467
0.445547 1.471128 2.330195 25.000000 19 348.479470
0.699367 2.309166 2.964305 12.000000 17 348.479473
0.120865 0.313929 5.639947 97.000000 30 348.479480
0.206733 0.580178 5.692079 103.000000 29 348.479483
0.296581 0.936129 3.815619 92.000000 26 348.479485
0.410507 1.346147 3.881332 11.000000 24 348.479488
0.390700 1.282787 2.835278 13.000000 22 348.479491
0.406794 1.336444 2.355215 20.000000 20 348.479493
0.661656 2.173709 3.082404 15.000000 18 348.479496
0.709160 2.329761 2.718338 15.000000 16 348.479498
0.712588 2.363214 2.505398 16.000000 15 348.479456
0.724641 2.403177 2.105585 19.000000 13 348.479458
0.735010 2.436025 1.752857 19.000000 11 348.479461
0.422725 1.401024 0.852265 73.000000 9 348.479464
0.426332 1.412090 0.684275 77.000000 7 348.479466
0.752053 2.489359 0.853826 17.000000 5 348.479469
0.512839 1.697541 0.428148 22.000000 3 348.479471
0.520158 1.720685 0.254013 13.000000 1 348.479474
0.724937 2.390573 2.305294 18.000000 14 348.479482
0.731526 2.412295 1.919029 23.000000 12 348.479484
0.467456 1.540529 1.031268 68.000000 10 348.479487
0.425984 1.403849 0.765647 82.000000 8 348.479489
0.764387 2.517482 1.004318 23.000000 6 348.479492
0.512958 1.688351 0.516304 29.000000 4 348.479494
0.527161 1.734013 0.344673 17.000000 2 348.479497
0.524816 1.725216 0.166418 12.000000 0 348.479499
0.030093 0.054821 5.619060 98.000000 31 348.479510
0.192853 0.578614 3.877742 35.000000 28 348.479513
0.249576 0.745879 3.804852 89.000000 27 348.479515
0.358528 1.145817 3.883018 18.000000 25 348.479518
0.469699 1.530653 3.831520 12.000000 23 348.479520
0.401189 1.308198 2.573864 20.000000 21 348.479523
0.450680 1.469564 2.330195 25.000000 19 348.479525
0.707423 2.306711 2.964305 13.000000 17 348.479528
0.121960 0.313505 5.639947 98.000000 30 348.479536
0.208575 0.578951 5.687108 103.000000 29 348.479538
0.299847 0.935088 3.815619 92.000000 26 348.479541
0.415203 1.344705 3.881332 11.000000 24 348.479543
0.395175 1.281415 2.835278 13.000000 22 348.479546
0.411456 1.335016 2.355215 20.000000 20 348.479549
0.670127 2.174267 3.086394 14.000000 18 348.479551
0.717288 2.327272 2.718338 15.000000 16 348.479554
0.720833 2.360712 2.505398 16.000000 15 348.479511
0.733025 2.400633 2.105585 19.000000 13 348.479514
0.743509 2.433444 1.752857 18.000000 11 348.479517
0.427612 1.399540 0.852265 73.000000 9 348.479519
0.431259 1.410593 0.684275 75.000000 7 348.479522
0.759335 2.482131 0.852417 17.000000 5 348.479524
0.520198 1.700438 0.429081 20.000000 3 348.479527
0.524704 1.714097 0.253567 14.000000 1 348.479529
0.733277 2.388028 2.305294 18.000000 14 348.479537
0.738756 2.405863 1.916086 23.000000 12 348.479540
0.467766 1.522404 1.021138 76.000000 10 348.479542
0.430882 1.402354 0.765647 80.000000 8 348.479545
0.773170 2.514799 1.004318 23.000000 6 348.479547
0.518848 1.686550 0.516304 28.000000 4 348.479550
0.533211 1.732162 0.344673 16.000000 2 348.479552
0.530835 1.723374 0.166418 12.000000 0 348.479555
0.030284 0.054716 5.619060 98.000000 31 348.479566
0.194871 0.577938 3.877742 35.000000 28 348.479568
0.252179 0.745004 3.804852 90.000000 27 348.479571
0.362074 1.143135 3.878246 16.000000 25 348.479573
0.475619 1.530870 3.836122 12.000000 23 348.479576
0.405753 1.306790 2.573864 20.000000 21 348.479578
