# .PCD v.7 - Point Cloud Data file format
VERSION .7
FIELDS x y z intensity ring timestamp
SIZE 4 4 4 4 2 8
TYPE F F F F U D
COUNT 1 1 1 1 1 1
WIDTH 943
HEIGHT 1
VIEWPOINT 0 0 0 1 0 0 0
POINTS 943
DATA ascii
0.906525 1.603589 0.348812 18.000000 2 348.583224
0.897537 1.587042 0.167224 12.000000 0 348.583226
0.041025 0.046680 5.574061 98.000000 31 348.583237
0.320566 0.533426 3.956770 9.000000 28 348.583240
0.400662 0.664967 3.755900 86.000000 27 348.583242
0.585879 1.017032 3.797127 91.000000 25 348.583245
0.781902 1.374761 3.785494 9.000000 23 348.583247
0.692856 1.218688 2.635305 18.000000 21 348.583250
0.745794 1.311794 2.288866 26.000000 19 348.583252
1.211496 2.130907 3.010348 13.000000 17 348.583255
0.185808 0.277288 5.595022 98.000000 30 348.583263
0.326710 0.515176 5.637393 101.000000 29 348.583265
0.490444 0.837651 3.772066 92.000000 26 348.583268
0.689344 1.207127 3.834405 11.000000 24 348.583270
0.681850 1.194961 2.907291 13.000000 22 348.583273
0.702474 1.231594 2.389343 22.000000 20 348.583276
0.837557 1.468415 2.312431 26.000000 18 348.583278
1.223382 2.144832 2.755089 15.000000 16 348.583281
1.234910 2.178275 2.540443 16.000000 15 348.583238
1.255190 2.214040 2.133825 18.000000 13 348.583241
1.265598 2.231491 1.766564 20.000000 11 348.583243
1.279270 2.255592 1.443362 23.000000 9 348.583246
1.295278 2.282889 1.148787 25.000000 7 348.583249
1.312111 2.311618 0.870737 20.000000 5 348.583251
0.887499 1.563556 0.432811 26.000000 3 348.583254
0.895006 1.576141 0.255352 13.000000 1 348.583256
1.250187 2.197170 2.331893 18.000000 14 348.583264
1.260634 2.215524 1.939632 23.000000 12 348.583267
1.272017 2.234623 1.595999 22.000000 10 348.583269
1.298280 2.280754 1.300650 25.000000 8 348.583272
1.308950 2.298566 1.009246 24.000000 6 348.583274
0.890301 1.562770 0.524511 27.000000 4 348.583277
0.912117 1.600415 0.348812 18.000000 2 348.583279
0.905545 1.588239 0.167426 12.000000 0 348.583282
0.041188 0.046536 5.574061 98.000000 31 348.583293
0.322426 0.532304 3.956770 9.000000 28 348.583295
0.402981 0.663564 3.755900 85.000000 27 348.583298
0.589426 1.014980 3.797127 91.000000 25 348.583300
0.786696 1.372023 3.785494 8.000000 23 348.583303
0.697106 1.216262 2.635305 18.000000 21 348.583305
0.750368 1.309183 2.288866 26.000000 19 348.583308
1.218927 2.126665 3.010348 13.000000 17 348.583310
0.186774 0.276638 5.595022 98.000000 30 348.583318
0.328506 0.514032 5.637393 101.000000 29 348.583321
0.493365 0.835934 3.772066 92.000000 26 348.583323
0.694415 1.206209 3.839097 11.000000 24 348.583326
0.687102 1.194461 2.911792 14.000000 22 348.583328
0.708069 1.231395 2.393609 22.000000 20 348.583331
0.842678 1.465483 2.312431 26.000000 18 348.583334
1.230861 2.140548 2.755089 15.000000 16 348.583336
1.242507 2.173951 2.540443 16.000000 15 348.583294
1.262910 2.209646 2.133825 18.000000 13 348.583296
1.275455 2.230690 1.769306 20.000000 11 348.583299
1.289335 2.254959 1.445680 22.000000 9 348.583302
1.303239 2.278353 1.148787 24.000000 7 348.583304
1.322555 2.311187 0.872146 20.000000 5 348.583307
0.890512 1.556185 0.431878 27.000000 3 348.583309
0.900502 1.573007 0.255352 13.000000 1 348.583312
1.259707 2.196032 2.335218 18.000000 14 348.583320
1.268360 2.211110 1.939632 23.000000 12 348.583322
1.279810 2.230169 1.595999 22.000000 10 348.583325
1.308492 2.280145 1.302748 24.000000 8 348.583327
1.316965 2.293983 1.009246 24.000000 6 348.583330
0.895751 1.559653 0.524511 27.000000 4 348.583332
0.917698 1.597221 0.348812 18.000000 2 348.583335
0.911084 1.585069 0.167426 12.000000 0 348.583337
0.041319 0.046362 5.569062 98.000000 31 348.583348
0.324282 0.531175 3.956770 9.000000 28 348.583351
0.405295 0.662153 3.755900 90.000000 27 348.583353
0.592965 1.012917 3.797127 90.000000 25 348.583356
0.792458 1.370960 3.790097 8.000000 23 348.583358
0.702546 1.215896 2.639693 18.000000 21 348.583361
0.754933 1.306555 2.288866 26.000000 19 348.583363
1.226343 2.122397 3.010348 12.000000 17 348.583366
0.187739 0.275984 5.595022 99.000000 30 348.583374
0.330298 0.512882 5.637393 101.000000 29 348.583376
0.496280 0.834207 3.772066 92.000000 26 348.583379
0.698621 1.203778 3.839097 11.000000 24 348.583381
0.691268 1.192056 2.911792 14.000000 22 348.583384
0.712363 1.228916 2.393609 22.000000 20 348.583387
0.847789 1.462532 2.312431 26.000000 18 348.583389
1.238325 2.136239 2.755089 15.000000 16 348.583392
1.250088 2.169601 2.540443 16.000000 15 348.583349
1.272559 2.208596 2.136963 18.000000 13 348.583352
1.283234 2.226224 1.769306 20.000000 11 348.583354
1.297198 2.250445 1.445680 22.000000 9 348.583357
1.311183 2.273790 1.148787 24.000000 7 348.583360
1.330615 2.306557 0.872146 21.000000 5 348.583362
0.895938 1.553068 0.431878 27.000000 3 348.583365
0.905988 1.569855 0.255352 13.000000 1 348.583367
1.267365 2.191621 2.335218 18.000000 14 348.583375
1.276070 2.206669 1.939632 23.000000 12 348.583378
1.289746 2.229420 1.598531 22.000000 10 348.583380
1.318716 2.279492 1.304846 24.000000 8 348.583383
1.327330 2.293459 1.010888 24.000000 6 348.583385
0.901190 1.556517 0.524511 26.000000 4 348.583388
0.923268 1.594008 0.348812 18.000000 2 348.583390
0.916611 1.581879 0.167426 12.000000 0 348.583393
0.041481 0.046217 5.569062 98.000000 31 348.583404
0.326542 0.530702 3.961709 9.000000 28 348.583406
0.407604 0.660735 3.755900 90.000000 27 348.583409
0.596497 1.010841 3.797127 90.000000 25 348.583411
0.797239 1.368186 3.790097 8.000000 23 348.583414
0.706786 1.213436 2.639693 18.000000 21 348.583416
0.758073 1.301481 2.284733 26.000000 19 348.583419
1.233744 2.118103 3.010348 12.000000 17 348.583422
0.188701 0.275327 5.595022 99.000000 30 348.583429
0.332087 0.511726 5.637393 101.000000 29 348.583432
0.499188 0.832469 3.772066 92.000000 26 348.583434
0.702819 1.201332 3.839097 11.000000 24 348.583437
0.696524 1.191516 2.916293 14.000000 22 348.583440
0.716648 1.226422 2.393609 23.000000 20 348.583442
0.852889 1.459564 2.312431 26.000000 18 348.583445
1.245775 2.131903 2.755089 15.000000 16 348.583447
1.257653 2.165224 2.540443 16.000000 15 348.583405
1.280261 2.204141 2.136963 18.000000 13 348.583407
1.293098 2.225347 1.772047 20.000000 11 348.583410
1.307271 2.249733 1.447998 22.000000 9 348.583413
1.321443 2.273207 1.150661 23.000000 7 348.583415
1.338658 2.301898 0.872146 21.000000 5 348.583418
0.901354 1.549931 0.431878 27.000000 3 348.583420
0.911462 1.566683 0.255352 13.000000 1 348.583423
1.276888 2.190410 2.338543 18.000000 14 348.583431
1.285801 2.205693 1.942575 23.000000 12 348.583433
1.297520 2.224904 1.598531 21.000000 10 348.583436
1.326665 2.274875 1.304846 24.000000 8 348.583438
1.335328 2.288812 1.010888 24.000000 6 348.583441
0.906617 1.553361 0.524511 26.000000 4 348.583443
0.928826 1.590775 0.348812 18.000000 2 348.583446
0.922127 1.578670 0.167426 12.000000 0 348.583448
0.041642 0.046072 5.569062 99.000000 31 348.583459
0.328392 0.529559 3.961709 9.000000 28 348.583462
0.410446 0.660172 3.760795 90.000000 27 348.583464
0.600786 1.010036 3.801899 91.000000 25 348.583467
0.802010 1.365394 3.790097 9.000000 23 348.583469
0.711017 1.210961 2.639693 18.000000 21 348.583472
0.762612 1.298827 2.284733 26.000000 19 348.583474
1.241130 2.113784 3.010348 12.000000 17 348.583477
0.189661 0.274667 5.595022 98.000000 30 348.583485
0.333871 0.510564 5.637393 102.000000 29 348.583487
0.502091 0.830722 3.772066 93.000000 26 348.583490
0.707008 1.198871 3.839097 11.000000 24 348.583492
0.700679 1.189077 2.916293 14.000000 22 348.583495
0.720925 1.223913 2.393609 23.000000 20 348.583498
0.857978 1.456578 2.312431 26.000000 18 348.583500
1.254930 2.130463 2.758764 15.000000 16 348.583503
1.263402 2.157743 2.536939 16.000000 15 348.583460
1.289914 2.203018 2.140101 18.000000 13 348.583463
1.300858 2.220819 1.772047 20.000000 11 348.583466
1.315116 2.245156 1.447998 22.000000 9 348.583468
1.329369 2.268581 1.150661 23.000000 7 348.583471
1.349111 2.301350 0.873555 21.000000 5 348.583473
0.906759 1.546775 0.431878 27.000000 3 348.583476
0.916925 1.563492 0.255352 13.000000 1 348.583478
1.284526 2.185940 2.338543 18.000000 14 348.583486
1.293492 2.201192 1.942575 23.000000 12 348.583489
1.305278 2.220362 1.598531 21.000000 10 348.583491
1.336897 2.274142 1.306944 24.000000 8 348.583494
1.345703 2.288207 1.012531 24.000000 6 348.583496
0.912034 1.550187 0.524511 27.000000 4 348.583499
0.934373 1.587523 0.348812 19.000000 2 348.583501
0.927632 1.575441 0.167426 12.000000 0 348.583504
0.041834 0.045957 5.574061 99.000000 31 348.583515
0.330239 0.528409 3.961709 9.000000 28 348.583517
0.412748 0.658736 3.760795 91.000000 27 348.583520
0.604308 1.007933 3.801899 89.000000 25 348.583522
0.807766 1.364268 3.794699 9.000000 23 348.583525
0.716460 1.210534 2.644082 18.000000 21 348.583527
0.767141 1.296157 2.284733 26.000000 19 348.583530
1.250133 2.112197 3.014185 12.000000 17 348.583533
0.190785 0.274240 5.600014 98.000000 30 348.583540
0.335651 0.509395 5.637393 102.000000 29 348.583543
0.504988 0.828964 3.772066 93.000000 26 348.583545
0.711189 1.196396 3.839097 11.000000 24 348.583548
0.704825 1.186624 2.916293 14.000000 22 348.583551
0.725193 1.221389 2.393609 23.000000 20 348.583553
0.863057 1.453574 2.312431 26.000000 18 348.583556
1.262359 2.126069 2.758764 14.000000 16 348.583558
1.270926 2.153320 2.536939 16.000000 15 348.583516
1.297596 2.198502 2.140101 18.000000 13 348.583518
1.310728 2.219866 1.774789 19.000000 11 348.583521
1.322945 2.240552 1.447998 21.000000 9 348.583524
1.337280 2.263927 1.150661 23.000000 7 348.583526
1.357136 2.296626 0.873555 20.000000 5 348.583529
0.912153 1.543600 0.431878 26.000000 3 348.583531
0.922377 1.560281 0.255352 13.000000 1 348.583534
1.292149 2.181442 2.338543 18.000000 14 348.583542
1.303228 2.200141 1.945518 23.000000 12 348.583544
1.315219 2.219501 1.601064 21.000000 10 348.583547
1.344828 2.269462 1.306944 24.000000 8 348.583549
1.353682 2.283496 1.012531 24.000000 6 348.583552
0.917440 1.546994 0.524511 27.000000 4 348.583554
0.939909 1.584252 0.348812 17.000000 2 348.583557
0.933126 1.572193 0.167426 12.000000 0 348.583560
0.041994 0.045810 5.574061 99.000000 31 348.583570
0.332081 0.527253 3.961709 8.000000 28 348.583573
0.415045 0.657291 3.760795 91.000000 27 348.583575
0.607822 1.005817 3.801899 89.000000 25 348.583578
0.812523 1.361440 3.794699 11.000000 23 348.583580
0.720681 1.208025 2.644082 17.000000 21 348.583583
0.771661 1.293471 2.284733 27.000000 19 348.583586
1.257499 2.107821 3.014185 12.000000 17 348.583588
0.191741 0.273573 5.600014 98.000000 30 348.583596
0.337427 0.508221 5.637393 103.000000 29 348.583598
0.507878 0.827196 3.772066 92.000000 26 348.583601
0.715360 1.193906 3.839097 11.000000 24 348.583604
0.708963 1.184156 2.916293 15.000000 22 348.583606
0.729452 1.218850 2.393609 23.000000 20 348.583609
0.868126 1.450553 2.312431 26.000000 18 348.583611
1.271513 2.124559 2.762439 15.000000 16 348.583614
1.278435 2.148870 2.536939 16.000000 15 348.583571
1.305262 2.193959 2.140101 18.000000 13 348.583574
1.318469 2.215277 1.774789 19.000000 11 348.583577
1.333024 2.239727 1.450316 21.000000 9 348.583579
1.345175 2.259245 1.150661 23.000000 7 348.583582
1.365145 2.291875 0.873555 20.000000 5 348.583584
0.920049 1.544627 0.432811 26.000000 3 348.583587
0.927818 1.557052 0.255352 13.000000 1 348.583589
1.299756 2.176919 2.338543 18.000000 14 348.583597
1.310900 2.195578 1.945518 23.000000 12 348.583600
1.322958 2.214896 1.601064 20.000000 10 348.583602
1.352741 2.264754 1.306944 24.000000 8 348.583605
1.361645 2.278757 1.012531 24.000000 6 348.583607
0.922834 1.543782 0.524511 27.000000 4 348.583610
0.945434 1.580962 0.348812 17.000000 2 348.583612
0.938608 1.568927 0.167426 12.000000 0 348.583615
0.042154 0.045664 5.574061 99.000000 31 348.583626
0.333920 0.526091 3.961709 9.000000 28 348.583628
0.417336 0.655838 3.760795 90.000000 27 348.583631
0.611330 1.003689 3.801899 91.000000 25 348.583633
0.818278 1.360269 3.799302 11.000000 23 348.583636
0.724894 1.205502 2.644082 17.000000 21 348.583638
0.776171 1.290769 2.284733 27.000000 19 348.583641
1.264849 2.103418 3.014185 12.000000 17 348.583644
0.192695 0.272902 5.600014 97.000000 30 348.583651
0.339496 0.507483 5.642365 103.000000 29 348.583654
0.510763 0.825418 3.772066 92.000000 26 348.583656
0.719524 1.191402 3.839097 11.000000 24 348.583659
0.713092 1.181674 2.916293 14.000000 22 348.583662
0.733702 1.216297 2.393609 23.000000 20 348.583664
0.873184 1.447514 2.312431 26.000000 18 348.583667
1.278922 2.120108 2.762439 15.000000 16 348.583669
1.287762 2.147453 2.540443 15.000000 15 348.583627
1.314915 2.192728 2.143239 18.000000 13 348.583630
1.328344 2.214247 1.777530 18.000000 11 348.583632
1.340834 2.235061 1.450316 21.000000 9 348.583635
1.355438 2.258511 1.152534 23.000000 7 348.583637
1.375606 2.291209 0.874964 20.000000 5 348.583640
0.925435 1.541406 0.432811 25.000000 3 348.583642
0.933248 1.553804 0.255352 12.000000 1 348.583645
1.307347 2.172369 2.338543 17.000000 14 348.583653
1.320640 2.194452 1.948461 23.000000 12 348.583655
1.332905 2.213959 1.603596 20.000000 10 348.583658
1.360638 2.260018 1.306944 23.000000 8 348.583660
1.372028 2.278035 1.014174 24.000000 6 348.583663
0.928217 1.540552 0.524511 28.000000 4 348.583665
0.950946 1.577652 0.348812 17.000000 2 348.583668
0.944079 1.565641 0.167426 12.000000 0 348.583671
0.042313 0.045516 5.574061 99.000000 31 348.583681
0.335754 0.524922 3.961709 9.000000 28 348.583684
0.419623 0.654377 3.760795 90.000000 27 348.583686
0.614829 1.001549 3.801899 90.000000 25 348.583689
0.824034 1.359075 3.803904 11.000000 23 348.583691
0.730339 1.205013 2.648471 18.000000 21 348.583694
0.780672 1.288052 2.284733 27.000000 19 348.583697
1.272183 2.098990 3.014185 12.000000 17 348.583699
0.193646 0.272227 5.600014 98.000000 30 348.583707
0.341266 0.506295 5.642365 104.000000 29 348.583709
0.513641 0.823630 3.772066 93.000000 26 348.583712
0.723678 1.188883 3.839097 11.000000 24 348.583715
0.718344 1.181039 2.920794 14.000000 22 348.583717
0.737943 1.213728 2.393609 23.000000 20 348.583720
0.878231 1.444457 2.312431 26.000000 18 348.583722
1.288076 2.118527 2.766115 14.000000 16 348.583725
1.295250 2.142945 2.540443 15.000000 15 348.583682
1.322561 2.188125 2.143239 18.000000 13 348.583685
1.336066 2.209596 1.777530 18.000000 11 348.583688
1.350920 2.234158 1.452634 21.000000 9 348.583690
1.363314 2.253766 1.152534 24.000000 7 348.583693
1.383595 2.286393 0.874964 20.000000 5 348.583695
0.933353 1.542369 0.433744 25.000000 3 348.583698
0.938666 1.550537 0.255352 12.000000 1 348.583700
1.314922 2.167792 2.338543 17.000000 14 348.583708
1.330388 2.193285 1.951404 23.000000 12 348.583711
1.340626 2.209292 1.603596 20.000000 10 348.583713
1.370874 2.259135 1.309042 23.000000 8 348.583716
1.379971 2.273232 1.014174 24.000000 6 348.583718
0.933589 1.537302 0.524511 27.000000 4 348.583721
0.956448 1.574323 0.348812 17.000000 2 348.583724
0.952133 1.566605 0.167627 11.000000 0 348.583726
0.042471 0.045368 5.574061 99.000000 31 348.583737
0.337584 0.523747 3.961709 9.000000 28 348.583739
0.421905 0.652909 3.760795 91.000000 27 348.583742
0.618322 0.999397 3.801899 91.000000 25 348.583744
0.828773 1.356190 3.803904 12.000000 23 348.583747
0.734541 1.202457 2.648471 18.000000 21 348.583750
0.785163 1.285319 2.284733 27.000000 19 348.583752
1.279502 2.094537 3.014185 12.000000 17 348.583755
0.194595 0.271550 5.600014 98.000000 30 348.583762
0.343031 0.505101 5.642365 104.000000 29 348.583765
0.516513 0.821832 3.772066 92.000000 26 348.583768
0.727823 1.186350 3.839097 11.000000 24 348.583770
0.722462 1.178524 2.920794 15.000000 22 348.583773
0.743538 1.213369 2.397875 23.000000 20 348.583775
0.883268 1.441383 2.312431 26.000000 18 348.583778
1.297234 2.116909 2.769790 14.000000 16 348.583780
1.302722 2.138411 2.540443 15.000000 15 348.583738
1.332216 2.186819 2.146376 18.000000 13 348.583741
1.343770 2.204919 1.777530 18.000000 11 348.583743
1.358711 2.229429 1.452634 21.000000 9 348.583746
1.373586 2.252951 1.154407 24.000000 7 348.583748
1.391568 2.281549 0.874964 21.000000 5 348.583751
0.938731 1.539102 0.433744 25.000000 3 348.583753
0.946666 1.551502 0.255798 12.000000 1 348.583756
1.322481 2.163189 2.338543 17.000000 14 348.583764
1.338036 2.188628 1.951404 22.000000 12 348.583766
1.350579 2.208277 1.606128 20.000000 10 348.583769
1.378751 2.254336 1.309042 23.000000 8 348.583771
1.390362 2.272429 1.015816 24.000000 6 348.583774
0.938950 1.534034 0.524511 27.000000 4 348.583776
0.964523 1.575198 0.349502 18.000000 2 348.583779
0.957596 1.563272 0.167627 11.000000 0 348.583782
0.042630 0.045220 5.574061 99.000000 31 348.583792
0.339411 0.522565 3.961709 9.000000 28 348.583795
0.424181 0.651432 3.760795 91.000000 27 348.583797
0.621806 0.997233 3.801899 91.000000 25 348.583800
0.834527 1.354953 3.808507 11.000000 23 348.583802
0.738734 1.199885 2.648471 18.000000 21 348.583805
0.789645 1.282571 2.284733 27.000000 19 348.583807
1.286806 2.090058 3.014185 12.000000 17 348.583810
0.195542 0.270869 5.600014 98.000000 30 348.583818
0.345094 0.504341 5.647336 104.000000 29 348.583820
0.519378 0.820024 3.772066 92.000000 26 348.583823
0.731960 1.183802 3.839097 11.000000 24 348.583825
0.727716 1.177848 2.925295 15.000000 22 348.583828
0.747769 1.210766 2.397875 23.000000 20 348.583830
0.888294 1.438291 2.312431 26.000000 18 348.583833
1.304616 2.112368 2.769790 14.000000 16 348.583836
1.310179 2.133851 2.540443 15.000000 15 348.583793
1.339841 2.182156 2.146376 18.000000 13 348.583796
1.353647 2.203778 1.780272 18.000000 11 348.583798
1.368803 2.228447 1.454952 20.000000 9 348.583801
1.383869 2.252093 1.156280 22.000000 7 348.583804
1.402036 2.280765 0.876374 21.000000 5 348.583806
0.946671 1.540000 0.434676 25.000000 3 348.583809
0.952076 1.548188 0.255798 13.000000 1 348.583811
1.330024 2.158559 2.338543 16.000000 14 348.583819
1.347788 2.187385 1.954347 21.000000 12 348.583822
1.360541 2.207219 1.608661 20.000000 10 348.583824
1.388993 2.253373 1.311140 22.000000 8 348.583827
1.398286 2.267562 1.015816 24.000000 6 348.583829
0.944299 1.530747 0.524511 27.000000 4 348.583832
0.970016 1.571821 0.349502 18.000000 2 348.583834
0.963047 1.559920 0.167627 12.000000 0 348.583837
0.042787 0.045071 5.574061 99.000000 31 348.583848
0.341233 0.521377 3.961709 9.000000 28 348.583850
0.426453 0.649947 3.760795 90.000000 27 348.583853
0.625284 0.995056 3.801899 90.000000 25 348.583855
0.839251 1.352031 3.808507 11.000000 23 348.583858
0.744181 1.199335 2.652859 18.000000 21 348.583860
0.794117 1.279806 2.284733 28.000000 19 348.583863
1.295784 2.088277 3.018022 11.000000 17 348.583865
0.196486 0.270185 5.600014 98.000000 30 348.583873
0.346852 0.503133 5.647336 105.000000 29 348.583876
0.522238 0.818206 3.772066 92.000000 26 348.583878
0.736088 1.181240 3.839097 11.000000 24 348.583881
0.732974 1.177149 2.929795 15.000000 22 348.583883
0.753369 1.210362 2.402140 23.000000 20 348.583886
0.893309 1.435181 2.312431 26.000000 18 348.583889
1.311981 2.107800 2.769790 13.000000 16 348.583891
1.317620 2.129264 2.540443 15.000000 15 348.583849
1.349499 2.180776 2.149514 18.000000 13 348.583851
1.361332 2.199039 1.780272 17.000000 11 348.583854
1.378906 2.227422 1.457270 20.000000 9 348.583856
1.391722 2.247248 1.156280 22.000000 7 348.583859
1.409989 2.275857 0.876374 21.000000 5 348.583862
0.952040 1.536686 0.434676 25.000000 3 348.583864
0.957474 1.544855 0.255798 11.000000 1 348.583867
1.337550 2.153903 2.338543 16.000000 14 348.583874
1.357548 2.186101 1.957291 21.000000 12 348.583877
1.370512 2.206119 1.611193 19.000000 10 348.583880
1.396850 2.248510 1.311140 22.000000 8 348.583882
1.406193 2.262667 1.015816 24.000000 6 348.583885
0.952203 1.531569 0.525683 27.000000 4 348.583887
0.975497 1.568426 0.349502 18.000000 2 348.583890
0.971126 1.560790 0.167829 11.000000 0 348.583892
0.042944 0.044921 5.574061 93.000000 31 348.583903
0.343050 0.520183 3.961709 9.000000 28 348.583906
0.428719 0.648455 3.760795 90.000000 27 348.583908
0.628753 0.992867 3.801899 91.000000 25 348.583911
0.843965 1.349094 3.808507 10.000000 23 348.583913
0.748363 1.196730 2.652859 18.000000 21 348.583916
0.798580 1.277027 2.284733 27.000000 19 348.583918
1.291167 2.064714 2.991163 9.000000 17 348.583921
0.197428 0.269497 5.600014 97.000000 30 348.583929
0.348607 0.501919 5.647336 105.000000 29 348.583931
0.525091 0.816379 3.772066 92.000000 26 348.583934
0.740207 1.178663 3.839097 11.000000 24 348.583936
0.738237 1.176428 2.934296 15.000000 22 348.583939
0.757589 1.207725 2.402140 23.000000 20 348.583942
0.898314 1.432054 2.312431 26.000000 18 348.583944
1.310323 2.088849 2.751414 11.000000 16 348.583947
1.325044 2.124652 2.540443 15.000000 15 348.583904
1.359163 2.179355 2.152652 18.000000 13 348.583907
1.371213 2.197822 1.783013 17.000000 11 348.583909
1.389017 2.226354 1.459588 20.000000 9 348.583912
1.399557 2.242377 1.156280 22.000000 7 348.583915
1.415383 2.266852 0.874964 21.000000 5 348.583917
0.957399 1.533354 0.434676 25.000000 3 348.583920
0.965500 1.545727 0.256244 11.000000 1 348.583922
1.345061 2.149221 2.338543 16.000000 14 348.583930
1.367315 2.184775 1.960234 21.000000 12 348.583933
1.378205 2.201321 1.611193 19.000000 10 348.583935
1.407099 2.247468 1.313239 22.000000 8 348.583938
1.414082 2.257745 1.015816 24.000000 6 348.583940
0.957543 1.528236 0.525683 27.000000 4 348.583943
0.980966 1.565011 0.349502 18.000000 2 348.583945
0.976568 1.557391 0.167829 11.000000 0 348.583948
0.043101 0.044771 5.574061 93.000000 31 348.583959
0.344434 0.518335 3.956770 9.000000 28 348.583961
0.430415 0.646107 3.755900 91.000000 27 348.583964
0.631412 0.989408 3.797127 90.000000 25 348.583966
0.849711 1.347792 3.813110 10.000000 23 348.583969
0.753813 1.196137 2.657248 18.000000 21 348.583971
0.804533 1.276612 2.288866 27.000000 19 348.583974
1.281273 2.033072 2.952794 7.000000 17 348.583976
0.198368 0.268806 5.600014 98.000000 30 348.583984
0.350357 0.500699 5.647336 105.000000 29 348.583987
0.527937 0.814541 3.772066 92.000000 26 348.583989
0.744317 1.176072 3.839097 11.000000 24 348.583992
0.742339 1.173844 2.934296 16.000000 22 348.583994
0.763194 1.207278 2.406406 22.000000 20 348.583997
0.904918 1.431457 2.316420 26.000000 18 348.584000
1.303114 2.061337 2.722013 8.000000 16 348.584002
1.328657 2.113975 2.533434 12.000000 15 348.583960
1.366762 2.174598 2.152652 17.000000 13 348.583962
1.381102 2.196562 1.785755 17.000000 11 348.583965
1.396780 2.221492 1.459588 19.000000 9 348.583968
1.409845 2.241402 1.158153 22.000000 7 348.583970
1.423288 2.261898 0.874964 20.000000 5 348.583973
0.965361 1.534160 0.435609 25.000000 3 348.583975
0.970889 1.542348 0.256244 13.000000 1 348.583978
1.346578 2.135037 2.328568 15.000000 14 348.583986
1.377089 2.183408 1.963177 20.000000 12 348.583988
1.388181 2.200143 1.613726 19.000000 10 348.583991
1.414936 2.242543 1.313239 22.000000 8 348.583993
1.421955 2.252795 1.015816 24.000000 6 348.583996
0.962872 1.524884 0.525683 27.000000 4 348.583998
0.986422 1.561578 0.349502 18.000000 2 348.584001
0.981998 1.553973 0.167829 12.000000 0 348.584003
0.043257 0.044620 5.574061 99.000000 31 348.584014
0.346241 0.517130 3.956770 9.000000 28 348.584017
0.432667 0.644601 3.755900 90.000000 27 348.584019
0.634861 0.987198 3.797127 91.000000 25 348.584022
0.854411 1.344818 3.813110 9.000000 23 348.584024
0.759268 1.195521 2.661637 17.000000 21 348.584027
0.808984 1.273796 2.288866 27.000000 19 348.584029
1.288362 2.028588 2.952794 7.000000 17 348.584032
0.199131 0.267881 5.595022 98.000000 30 348.584040
0.351794 0.499037 5.642365 104.000000 29 348.584042
0.530777 0.812693 3.772066 93.000000 26 348.584045
0.748417 1.173467 3.839097 11.000000 24 348.584047
0.747602 1.173082 2.938797 15.000000 22 348.584050
0.768805 1.206806 2.410672 22.000000 20 348.584053
0.909909 1.428290 2.316420 26.000000 18 348.584055
1.308480 2.053917 2.718338 8.000000 16 348.584058
1.318853 2.082209 2.501893 10.000000 15 348.584015
1.361846 2.150081 2.133825 14.000000 13 348.584018
1.384285 2.184664 1.780272 17.000000 11 348.584020
1.404526 2.216603 1.459588 19.000000 9 348.584023
1.415178 2.232551 1.156280 22.000000 7 348.584026
1.431175 2.256916 0.874964 20.000000 5 348.584028
0.970711 1.530781 0.435609 25.000000 3 348.584031
0.976267 1.538949 0.256244 13.000000 1 348.584033
1.333991 2.098808 2.295320 11.000000 14 348.584041
1.376029 2.164943 1.951404 16.000000 12 348.584044
1.393539 2.191646 1.611193 17.000000 10 348.584046
1.432496 2.252909 1.321631 19.000000 8 348.584049
1.432344 2.251802 1.017459 22.000000 6 348.584051
0.968189 1.521514 0.525683 27.000000 4 348.584054
0.991867 1.558125 0.349502 19.000000 2 348.584056
0.987417 1.550535 0.167829 12.000000 0 348.584059
0.043412 0.044469 5.574061 99.000000 31 348.584070
0.348044 0.515918 3.956770 9.000000 28 348.584072
0.434915 0.643086 3.755900 88.000000 27 348.584075
0.638304 0.984975 3.797127 90.000000 25 348.584077
0.859100 1.341827 3.813110 9.000000 23 348.584080
0.763437 1.192863 2.661637 17.000000 21 348.584082
0.813426 1.270965 2.288866 27.000000 19 348.584085
1.271241 1.986275 2.899077 7.000000 17 348.584088
0.200065 0.267184 5.595022 98.000000 30 348.584095
0.353534 0.497806 5.642365 104.000000 29 348.584098
0.533611 0.810835 3.772066 93.000000 26 348.584100
0.751576 1.169395 3.834405 11.000000 24 348.584103
0.751692 1.170465 2.938797 15.000000 22 348.584106
0.773013 1.204115 2.410672 22.000000 20 348.584108
0.914889 1.425105 2.316420 26.000000 18 348.584111
1.291832 2.012250 2.670560 9.000000 16 348.584113
1.318439 2.065568 2.487875 10.000000 15 348.584071
1.356776 2.125626 2.114999 9.000000 13 348.584073
1.380650 2.162197 1.766564 13.000000 11 348.584076
1.405102 2.200485 1.452634 14.000000 9 348.584079
1.422962 2.227598 1.156280 15.000000 7 348.584081
1.426128 2.231694 0.867918 11.000000 5 348.584084
0.976048 1.527383 0.435609 25.000000 3 348.584086
0.984316 1.539728 0.256690 13.000000 1 348.584089
1.341309 2.094139 2.295320 11.000000 14 348.584097
1.359597 2.122686 1.919029 11.000000 12 348.584099
1.389551 2.168618 1.598531 12.000000 10 348.584102
1.401175 2.186754 1.288062 10.000000 8 348.584104
1.422356 2.218959 1.005960 10.000000 6 348.584107
0.976118 1.522217 0.526855 28.000000 4 348.584109
0.997300 1.554653 0.349502 20.000000 2 348.584112
0.992823 1.547079 0.167829 12.000000 0 348.584114
0.043567 0.044317 5.574061 99.000000 31 348.584125
0.350280 0.515342 3.961709 9.000000 28 348.584128
0.437157 0.641564 3.755900 85.000000 27 348.584130
0.641738 0.982741 3.797127 90.000000 25 348.584133
0.863779 1.338820 3.813110 9.000000 23 348.584135
0.768894 1.192205 2.666025 17.000000 21 348.584138
0.817857 1.268117 2.288866 26.000000 19 348.584140
1.262528 1.957578 2.864544 8.000000 17 348.584143
0.200997 0.266484 5.595022 99.000000 30 348.584151
0.355269 0.496569 5.642365 105.000000 29 348.584153
0.536438 0.808968 3.772066 92.000000 26 348.584156
0.755653 1.166765 3.834405 11.000000 24 348.584158
0.755773 1.167834 2.938797 15.000000 22 348.584161
0.778628 1.203599 2.414938 22.000000 20 348.584164
0.919858 1.421903 2.316420 26.000000 18 348.584166
1.276751 1.973571 2.626458 10.000000 16 348.584169
1.314065 2.042958 2.466848 10.000000 15 348.584126
1.364188 2.120877 2.114999 9.000000 13 348.584129
1.367826 2.125717 1.741891 10.000000 11 348.584132
1.388802 2.158311 1.429453 10.000000 9 348.584134
1.408146 2.187534 1.139422 9.000000 7 348.584137
1.415728 2.198469 0.858054 9.000000 5 348.584139
0.981374 1.523967 0.435609 25.000000 3 348.584142
0.989684 1.536283 0.256690 13.000000 1 348.584144
1.334435 2.067481 2.272046 11.000000 14 348.584152
1.366998 2.117927 1.919029 11.000000 12 348.584155
1.380742 2.138402 1.580804 10.000000 10 348.584157
1.406337 2.178036 1.285964 10.000000 8 348.584160
1.430093 2.213980 1.005960 10.000000 6 348.584162
0.981425 1.518800 0.526855 27.000000 4 348.584165
1.002721 1.551162 0.349502 19.000000 2 348.584167
0.998217 1.543604 0.167829 12.000000 0 348.584170
0.043722 0.044165 5.574061 99.000000 31 348.584181
0.352077 0.514117 3.961709 9.000000 28 348.584183
0.439394 0.640035 3.755900 85.000000 27 348.584186
0.645164 0.980495 3.797127 90.000000 25 348.584188
0.869512 1.337435 3.817712 10.000000 23 348.584191
0.773051 1.189514 2.666025 17.000000 21 348.584193
0.822279 1.265255 2.288866 26.000000 19 348.584196
1.239654 1.907461 2.799316 8.000000 17 348.584199
0.201926 0.265781 5.595022 98.000000 30 348.584206
0.357000 0.495326 5.642365 105.000000 29 348.584209
0.539258 0.807090 3.772066 92.000000 26 348.584211
0.759721 1.164120 3.834405 11.000000 24 348.584214
0.758656 1.163365 2.934296 15.000000 22 348.584217
0.782825 1.200874 2.414938 22.000000 20 348.584219
0.924816 1.418683 2.316420 26.000000 18 348.584222
1.257713 1.929342 2.575006 10.000000 16 348.584224
1.295972 1.999454 2.421289 11.000000 15 348.584182
1.341940 2.070369 2.071070 11.000000 13 348.584184
1.363863 2.103387 1.728184 9.000000 11 348.584187
1.396327 2.153450 1.429453 10.000000 9 348.584190
1.415774 2.182606 1.139422 9.000000 7 348.584192
1.410336 2.173392 0.851008 9.000000 5 348.584195
0.986688 1.520532 0.435609 25.000000 3 348.584197
0.995041 1.532819 0.256690 13.000000 1 348.584200
1.315175 2.022114 2.228823 12.000000 14 348.584208
1.354549 2.082647 1.892541 12.000000 12 348.584210
1.378793 2.119114 1.570675 10.000000 10 348.584213
1.391655 2.138876 1.267081 11.000000 8 348.584215
1.414627 2.173354 0.991176 10.000000 6 348.584218
0.989373 1.519439 0.528027 27.000000 4 348.584220
1.010832 1.551802 0.350192 19.000000 2 348.584223
1.003599 1.540110 0.167829 12.000000 0 348.584226
0.043876 0.044012 5.574061 98.000000 31 348.584236
0.354311 0.513524 3.966648 10.000000 28 348.584239
0.442205 0.639334 3.760795 91.000000 27 348.584241
0.649408 0.979482 3.801899 90.000000 25 348.584244
0.874175 1.334391 3.817712 10.000000 23 348.584246
0.778511 1.188812 2.670414 17.000000 21 348.584249
0.826690 1.262377 2.288866 26.000000 19 348.584252
1.232254 1.881667 2.768620 8.000000 17 348.584254
0.202852 0.265074 5.595022 98.000000 30 348.584262
0.358727 0.494077 5.642365 105.000000 29 348.584264
0.542072 0.805203 3.772066 93.000000 26 348.584267
0.763780 1.161461 3.834405 11.000000 24 348.584270
0.762712 1.160709 2.934296 14.000000 22 348.584272
0.788443 1.200314 2.419204 22.000000 20 348.584275
0.929762 1.415446 2.316420 26.000000 18 348.584277
1.249550 1.902272 2.545605 10.000000 16 348.584280
1.283442 1.965060 2.386243 11.000000 15 348.584237
1.330000 2.036339 2.042830 11.000000 13 348.584240
1.352899 2.070610 1.706252 9.000000 11 348.584243
1.389296 2.126311 1.415545 11.000000 9 348.584245
1.400556 2.142726 1.122565 10.000000 7 348.584248
1.404787 2.148381 0.843962 9.000000 5 348.584250
0.991989 1.517079 0.435609 25.000000 3 348.584253
1.000385 1.529336 0.256690 13.000000 1 348.584255
1.299709 1.983154 2.192249 13.000000 14 348.584263
1.339654 2.044099 1.863109 13.000000 12 348.584266
1.364908 2.081840 1.547883 11.000000 10 348.584268
1.384182 2.111233 1.254493 12.000000 8 348.584271
1.401485 2.136812 0.978034 11.000000 6 348.584273
0.994671 1.515976 0.528027 27.000000 4 348.584276
1.016243 1.548264 0.350192 19.000000 2 348.584278
1.008969 1.536598 0.167829 12.000000 0 348.584281
0.044029 0.043858 5.574061 98.000000 31 348.584292
0.356101 0.512284 3.966648 9.000000 28 348.584294
0.444434 0.637786 3.760795 90.000000 27 348.584297
0.652824 0.977209 3.801899 90.000000 25 348.584299
0.879904 1.332962 3.822315 10.000000 23 348.584302
0.782656 1.186087 2.670414 17.000000 21 348.584304
0.831092 1.259483 2.288866 26.000000 19 348.584307
1.214095 1.839892 2.714903 8.000000 17 348.584310
0.203776 0.264364 5.595022 98.000000 30 348.584317
0.360450 0.492821 5.642365 105.000000 29 348.584320
0.544880 0.803306 3.772066 92.000000 26 348.584322
0.767830 1.158788 3.834405 11.000000 24 348.584325
0.766759 1.158040 2.934296 14.000000 22 348.584328
0.792628 1.197554 2.419204 22.000000 20 348.584330
0.934697 1.412192 2.316420 26.000000 18 348.584333
1.235600 1.866802 2.505178 10.000000 16 348.584335
1.270688 1.930778 2.351198 11.000000 15 348.584293
1.315699 1.999166 2.011452 12.000000 13 348.584296
1.344024 2.041428 1.687062 10.000000 11 348.584298
1.372349 2.084445 1.392365 11.000000 9 348.584301
1.385077 2.102979 1.105708 11.000000 7 348.584303
1.388523 2.107410 0.831279 10.000000 5 348.584306
0.999981 1.517709 0.436542 25.000000 3 348.584308
1.008458 1.529993 0.257137 13.000000 1 348.584311
1.283987 1.944327 2.155676 13.000000 14 348.584319
1.326734 2.009054 1.836621 14.000000 12 348.584321
1.350779 2.044688 1.525091 11.000000 10 348.584324
1.371530 2.076094 1.237709 12.000000 8 348.584326
1.385502 2.096448 0.963250 11.000000 6 348.584329
0.999957 1.512494 0.528027 27.000000 4 348.584331
1.024373 1.548838 0.350881 19.000000 2 348.584334
1.017084 1.537233 0.168030 12.000000 0 348.584337
0.044182 0.043704 5.574061 100.000000 31 348.584347
0.357887 0.511038 3.966648 9.000000 28 348.584350
0.446657 0.636231 3.760795 90.000000 27 348.584352
0.656231 0.974924 3.801899 91.000000 25 348.584355
0.884551 1.329883 3.822315 9.000000 23 348.584357
0.786792 1.183348 2.670414 17.000000 21 348.584360
0.835483 1.256575 2.288866 26.000000 19 348.584363
1.177908 1.771571 2.622817 9.000000 17 348.584365
0.204698 0.263651 5.595022 98.000000 30 348.584373
0.362168 0.491560 5.642365 106.000000 29 348.584375
0.547681 0.801399 3.772066 92.000000 26 348.584378
0.772828 1.157536 3.839097 11.000000 24 348.584381
0.769588 1.153545 2.929795 13.000000 22 348.584383
0.796804 1.194780 2.419204 22.000000 20 348.584386
0.939621 1.408921 2.316420 26.000000 18 348.584388
1.202608 1.803248 2.427999 11.000000 16 348.584391
1.261653 1.902554 2.323161 12.000000 15 348.584348
1.301155 1.962117 1.980074 12.000000 13 348.584351
1.328026 2.001879 1.659647 10.000000 11 348.584354
1.355126 2.042725 1.369185 12.000000 9 348.584356
1.371902 2.067230 1.090724 12.000000 7 348.584359
1.371990 2.066581 0.818597 10.000000 5 348.584361
1.005273 1.514209 0.436542 26.000000 3 348.584364
1.013793 1.526463 0.257137 13.000000 1 348.584366
1.268010 1.905634 2.119102 13.000000 14 348.584374
1.313587 1.974125 1.810133 14.000000 12 348.584377
1.334019 2.004072 1.499767 11.000000 10 348.584379
1.358649 2.041069 1.220924 13.000000 8 348.584382
1.371872 2.060154 0.950109 12.000000 6 348.584384
1.005230 1.508995 0.528027 27.000000 4 348.584387
1.029773 1.545253 0.350881 19.000000 2 348.584390
1.022443 1.533673 0.168030 12.000000 0 348.584392
0.044334 0.043550 5.574061 100.000000 31 348.584403
0.359669 0.509785 3.966648 9.000000 28 348.584405
0.448876 0.634668 3.760795 90.000000 27 348.584408
0.660468 0.973864 3.806670 91.000000 25 348.584410
0.889188 1.326787 3.822315 9.000000 23 348.584413
0.790918 1.180594 2.670414 17.000000 21 348.584416
0.839864 1.253651 2.288866 27.000000 19 348.584418
1.146613 1.711516 2.542241 10.000000 17 348.584421
0.205617 0.262935 5.595022 97.000000 30 348.584428
0.363882 0.490293 5.642365 105.000000 29 348.584431
0.550475 0.799482 3.772066 92.000000 26 348.584434
0.776864 1.154831 3.839097 11.000000 24 348.584436
0.773610 1.150851 2.929795 13.000000 22 348.584439
0.802424 1.194156 2.423470 22.000000 20 348.584441
0.944533 1.405632 2.316420 26.000000 18 348.584444
1.171078 1.742762 2.354496 13.000000 16 348.584446
1.232623 1.844764 2.260080 12.000000 15 348.584404
1.286368 1.925196 1.948696 13.000000 13 348.584407
1.316416 1.969421 1.637715 11.000000 11 348.584409
1.340090 2.004834 1.348322 12.000000 9 348.584412
1.358494 2.031599 1.075739 12.000000 7 348.584414
1.363191 2.037854 0.810141 10.000000 5 348.584417
1.010553 1.510691 0.436542 26.000000 3 348.584419
1.019115 1.522915 0.257137 14.000000 1 348.584422
1.243461 1.854671 2.069230 12.000000 14 348.584430
1.293459 1.929240 1.774815 14.000000 12 348.584432
1.321794 1.970760 1.479507 11.000000 10 348.584435
1.343013 2.002391 1.202042 13.000000 8 348.584437
1.358005 2.023980 0.936967 12.000000 6 348.584440
1.013200 1.509513 0.529200 27.000000 4 348.584442
1.032400 1.537537 0.350192 20.000000 2 348.584445
1.030576 1.534242 0.168232 11.000000 0 348.584448
0.044486 0.043395 5.574061 99.000000 31 348.584458
0.361446 0.508527 3.966648 9.000000 28 348.584461
0.451088 0.633097 3.760795 90.000000 27 348.584463
0.663863 0.971552 3.806670 91.000000 25 348.584466
0.893814 1.323675 3.822315 10.000000 23 348.584468
0.796374 1.179812 2.674803 16.000000 21 348.584471
0.844235 1.250711 2.288866 26.000000 19 348.584473
1.116708 1.654360 2.465502 13.000000 17 348.584476
0.206533 0.262216 5.595022 97.000000 30 348.584484
0.365591 0.489020 5.642365 105.000000 29 348.584486
0.553262 0.797556 3.772066 92.000000 26 348.584489
0.780891 1.152112 3.839097 11.000000 24 348.584491
0.777622 1.148144 2.929795 13.000000 22 348.584494
0.806588 1.191348 2.423470 22.000000 20 348.584496
0.949434 1.402327 2.316420 26.000000 18 348.584499
1.142942 1.688133 2.288343 15.000000 16 348.584502
1.211172 1.799034 2.211016 12.000000 15 348.584459
1.258296 1.869026 1.898492 13.000000 13 348.584462
1.302261 1.933600 1.613042 11.000000 11 348.584464
1.332232 1.978097 1.334414 12.000000 9 348.584467
1.347445 1.999932 1.062628 13.000000 7 348.584470
1.015820 1.507154 0.436542 26.000000 3 348.584475
1.024425 1.519349 0.257137 14.000000 1 348.584477
1.222752 1.810091 2.026007 13.000000 14 348.584485
1.284347 1.901268 1.754212 14.000000 12 348.584488
1.294870 1.916125 1.444053 11.000000 10 348.584490
1.332206 1.971368 1.187355 13.000000 8 348.584493
1.343903 1.987929 0.923826 12.000000 6 348.584495
1.018463 1.505967 0.529200 28.000000 4 348.584498
1.037761 1.533924 0.350192 20.000000 2 348.584500
1.035926 1.530635 0.168232 11.000000 0 348.584503
0.044637 0.043239 5.574061 99.000000 31 348.584514
0.363219 0.507262 3.966648 9.000000 28 348.584516
0.452701 0.630692 3.755900 91.000000 27 348.584519
0.667251 0.969229 3.806670 91.000000 25 348.584521
0.898429 1.320547 3.822315 10.000000 23 348.584524
0.800487 1.177025 2.674803 16.000000 21 348.584526
0.847013 1.245430 2.284733 26.000000 19 348.584529
1.129688 1.661056 2.480850 14.000000 17 348.584531
0.207447 0.261493 5.595022 98.000000 30 348.584539
0.367296 0.487741 5.642365 105.000000 29 348.584542
0.556043 0.795620 3.772066 92.000000 26 348.584544
0.784908 1.149379 3.839097 11.000000 24 348.584547
0.781625 1.145422 2.929795 13.000000 22 348.584549
0.812211 1.190680 2.427736 22.000000 20 348.584552
0.954323 1.399004 2.316420 26.000000 18 348.584555
1.150738 1.686934 2.292018 17.000000 16 348.584557
1.179407 1.738720 2.144429 15.000000 15 348.584515
1.236404 1.822741 1.857701 14.000000 13 348.584517
1.264392 1.863302 1.560954 11.000000 11 348.584520
1.294352 1.907449 1.292690 12.000000 9 348.584522
1.336191 1.968366 1.049517 13.000000 7 348.584525
1.221069 1.798103 0.728408 12.000000 5 348.584528
1.023834 1.507663 0.437474 26.000000 3 348.584530
1.029722 1.515763 0.257137 11.000000 1 348.584533
1.191242 1.750243 1.966160 15.000000 14 348.584540
1.245491 1.829944 1.695349 16.000000 12 348.584543
1.265155 1.858139 1.406067 11.000000 10 348.584546
1.295656 1.902931 1.151688 13.000000 8 348.584548
1.313615 1.928583 0.900828 12.000000 6 348.584551
1.026451 1.506419 0.530372 28.000000 4 348.584553
1.040320 1.526201 0.349502 20.000000 2 348.584556
1.041262 1.527010 0.168232 6.000000 0 348.584558
0.044788 0.043083 5.574061 100.000000 31 348.584569
0.364987 0.505991 3.966648 9.000000 28 348.584572
0.454900 0.629108 3.755900 91.000000 27 348.584574
0.670630 0.966894 3.806670 91.000000 25 348.584577
0.901929 1.315791 3.817712 10.000000 23 348.584579
0.805945 1.176200 2.679191 17.000000 21 348.584582
0.851356 1.242466 2.284733 26.000000 19 348.584584
1.122794 1.638590 2.453991 14.000000 17 348.584587
0.208359 0.260768 5.595022 98.000000 30 348.584595
0.368996 0.486456 5.642365 105.000000 29 348.584597
0.558816 0.793674 3.772066 92.000000 26 348.584600
0.788915 1.146632 3.839097 11.000000 24 348.584602
0.786853 1.144482 2.934296 12.000000 22 348.584605
0.816362 1.187837 2.427736 22.000000 20 348.584608
0.959201 1.395664 2.316420 26.000000 18 348.584610
1.156620 1.682906 2.292018 17.000000 16 348.584613
1.163334 1.702205 2.105880 17.000000 15 348.584570
1.205418 1.763777 1.804359 16.000000 13 348.584573
1.233129 1.803648 1.517091 13.000000 11 348.584575
1.278499 1.870004 1.271828 12.000000 9 348.584578
1.295945 1.894813 1.015802 13.000000 7 348.584581
1.205667 1.762156 0.717134 9.000000 5 348.584583
1.029091 1.504080 0.437474 24.000000 3 348.584586
1.035007 1.512160 0.257137 6.000000 1 348.584588
1.169889 1.706037 1.922937 19.000000 14 348.584596
1.203866 1.755581 1.633543 18.000000 12 348.584599
1.227735 1.789719 1.360483 14.000000 10 348.584601
1.276617 1.860971 1.130708 13.000000 8 348.584604
1.293618 1.885048 0.884401 13.000000 6 348.584606
1.031703 1.502827 0.530372 27.000000 4 348.584609
1.045641 1.522560 0.349502 11.000000 2 348.584611
1.046586 1.523366 0.168232 6.000000 0 348.584614
0.044938 0.042927 5.574061 99.000000 31 348.584625
0.366751 0.504714 3.966648 10.000000 28 348.584627
0.457093 0.627516 3.755900 89.000000 27 348.584630
0.674001 0.964547 3.806670 91.000000 25 348.584632
0.906516 1.312635 3.817712 9.000000 23 348.584635
0.810046 1.173380 2.679191 17.000000 21 348.584637
0.855687 1.239486 2.284733 26.000000 19 348.584640
1.130328 1.637299 2.457828 13.000000 17 348.584642
0.209268 0.260039 5.595022 99.000000 30 348.584650
0.370692 0.485165 5.642365 105.000000 29 348.584653
0.561583 0.791718 3.772066 92.000000 26 348.584655
0.792912 1.143872 3.839097 12.000000 24 348.584658
0.790843 1.141728 2.934296 12.000000 22 348.584660
0.820504 1.184981 2.427736 22.000000 20 348.584663
0.964067 1.392308 2.316420 26.000000 18 348.584666
1.152838 1.664923 2.273643 15.000000 16 348.584668
1.169269 1.698134 2.105880 18.000000 15 348.584626
1.178451 1.711464 1.757292 20.000000 13 348.584628
1.199094 1.740793 1.470486 17.000000 11 348.584631
1.224704 1.777968 1.216195 16.000000 9 348.584634
1.249942 1.813930 0.978341 14.000000 7 348.584636
1.211810 1.757936 0.717134 9.000000 5 348.584639
1.034335 1.500478 0.437474 15.000000 3 348.584641
1.040279 1.508538 0.257137 6.000000 1 348.584644
1.169469 1.692726 1.912962 21.000000 14 348.584652
1.184714 1.714787 1.601168 25.000000 12 348.584654
1.199658 1.735769 1.325029 19.000000 10 348.584657
1.226336 1.774365 1.084551 21.000000 8 348.584659
1.246476 1.802833 0.851548 18.000000 6 348.584662
1.036943 1.499217 0.530372 17.000000 4 348.584664
1.050949 1.518901 0.349502 11.000000 2 348.584667
1.051897 1.519704 0.168232 8.000000 0 348.584669
0.045087 0.042769 5.574061 99.000000 31 348.584680
0.368511 0.503431 3.966648 10.000000 28 348.584683
0.459281 0.625917 3.755900 89.000000 27 348.584685
0.677364 0.962189 3.806670 90.000000 25 348.584688
0.911092 1.309463 3.817712 9.000000 23 348.584690
0.815505 1.172512 2.683580 17.000000 21 348.584693
0.860009 1.236492 2.284733 26.000000 19 348.584695
1.112239 1.599129 2.407948 14.000000 17 348.584698
0.210174 0.259307 5.595022 98.000000 30 348.584706
0.372383 0.483868 5.642365 105.000000 29 348.584708
0.564344 0.789753 3.772066 92.000000 26 348.584711
0.796901 1.141097 3.839097 11.000000 24 348.584713
0.796070 1.140746 2.938797 12.000000 22 348.584716
0.826127 1.184248 2.432002 21.000000 20 348.584719
0.968921 1.388934 2.316420 26.000000 18 348.584721
1.158642 1.660888 2.273643 14.000000 16 348.584724
1.167058 1.682321 2.091861 17.000000 15 348.584681
1.184418 1.707340 1.757292 21.000000 13 348.584684
1.198011 1.726291 1.462262 19.000000 11 348.584686
1.213222 1.748205 1.199969 20.000000 9 348.584689
1.224541 1.763858 0.955865 22.000000 7 348.584692
1.152263 1.659129 0.683314 12.000000 5 348.584694
1.042368 1.500893 0.438407 15.000000 3 348.584697
1.045538 1.504897 0.257137 11.000000 1 348.584699
1.175370 1.688633 1.912962 19.000000 14 348.584707
1.193002 1.713959 1.604111 24.000000 12 348.584710
1.208173 1.735109 1.327562 19.000000 10 348.584712
1.232522 1.770073 1.084551 24.000000 8 348.584715
1.233867 1.771345 0.840049 24.000000 6 348.584717
1.042170 1.495588 0.530372 17.000000 4 348.584720
1.059077 1.519285 0.350192 18.000000 2 348.584722
1.060053 1.520120 0.168433 12.000000 0 348.584725
0.045236 0.042612 5.574061 99.000000 31 348.584736
0.370266 0.502141 3.966648 10.000000 28 348.584738
0.461463 0.624310 3.755900 90.000000 27 348.584741
0.680718 0.959818 3.806670 91.000000 25 348.584743
0.914536 1.304675 3.813110 9.000000 23 348.584746
0.819593 1.169658 2.683580 17.000000 21 348.584748
0.865935 1.235787 2.288866 26.000000 19 348.584751
1.097577 1.566356 2.365741 15.000000 17 348.584754
0.211078 0.258572 5.595022 97.000000 30 348.584761
0.374070 0.482565 5.642365 105.000000 29 348.584764
0.567097 0.787779 3.772066 92.000000 26 348.584766
0.800879 1.138308 3.839097 11.000000 24 348.584769
0.798794 1.136179 2.934296 12.000000 22 348.584772
0.830256 1.181357 2.432002 21.000000 20 348.584774
0.973763 1.385543 2.316420 26.000000 18 348.584777
1.148838 1.634645 2.244241 14.000000 16 348.584779
1.166795 1.669468 2.081348 15.000000 15 348.584737
1.190370 1.703195 1.757292 19.000000 13 348.584739
1.206425 1.725526 1.465003 17.000000 11 348.584742
1.234548 1.765744 1.213877 18.000000 9 348.584745
1.243976 1.778567 0.965230 20.000000 7 348.584747
1.144296 1.635444 0.676268 14.000000 5 348.584750
1.047601 1.497246 0.438407 25.000000 3 348.584752
1.053641 1.505318 0.257583 12.000000 1 348.584755
1.174826 1.675348 1.902988 17.000000 14 348.584763
1.196656 1.706475 1.601168 21.000000 12 348.584765
1.216698 1.734411 1.330094 17.000000 10 348.584768
1.243906 1.773191 1.088747 22.000000 8 348.584770
1.253606 1.786355 0.848262 21.000000 6 348.584773
1.047384 1.491941 0.530372 26.000000 4 348.584775
1.067220 1.519632 0.350881 18.000000 2 348.584778
1.065353 1.516411 0.168433 13.000000 0 348.584780
0.045385 0.042454 5.574061 94.000000 31 348.584791
0.372017 0.500846 3.966648 9.000000 28 348.584794
0.464248 0.623512 3.760795 91.000000 27 348.584796
0.684065 0.957436 3.806670 91.000000 25 348.584799
0.919085 1.301474 3.813110 9.000000 23 348.584801
0.823671 1.166790 2.683580 17.000000 21 348.584804
0.870243 1.232757 2.288866 26.000000 19 348.584806
1.088246 1.541563 2.335046 18.000000 17 348.584809
0.211979 0.257833 5.595022 97.000000 30 348.584817
0.375752 0.481256 5.642365 105.000000 29 348.584819
0.569843 0.785794 3.772066 92.000000 26 348.584822
0.804847 1.135506 3.839097 11.000000 24 348.584824
0.809049 1.142269 2.956800 11.000000 22 348.584827
0.835882 1.180580 2.436268 20.000000 20 348.584830
0.976852 1.379676 2.312431 26.000000 18 348.584832
1.140824 1.611256 2.218515 14.000000 16 348.584835
1.162349 1.650805 2.063825 14.000000 15 348.584792
1.198550 1.702213 1.760430 16.000000 13 348.584795
1.205217 1.711048 1.456779 16.000000 11 348.584798
1.230499 1.746936 1.204605 18.000000 9 348.584800
1.258188 1.785583 0.970849 18.000000 7 348.584803
1.114067 1.580465 0.657948 17.000000 5 348.584805
1.052821 1.493580 0.438407 25.000000 3 348.584808
1.061759 1.505701 0.258029 12.000000 1 348.584810
1.172048 1.659037 1.889688 15.000000 14 348.584818
1.202606 1.702287 1.601168 17.000000 12 348.584821
1.215281 1.719591 1.322497 16.000000 10 348.584823
1.244849 1.761425 1.084551 20.000000 8 348.584826
1.259834 1.781969 0.848262 21.000000 6 348.584828
1.052585 1.488276 0.530372 28.000000 4 348.584831
1.075378 1.519940 0.351571 19.000000 2 348.584833
1.073526 1.516761 0.168635 12.000000 0 348.584836
0.045533 0.042295 5.574061 94.000000 31 348.584847
0.374229 0.500166 3.971588 10.000000 28 348.584849
0.466422 0.621887 3.760795 91.000000 27 348.584852
0.687403 0.955043 3.806670 91.000000 25 348.584854
0.923622 1.298258 3.813110 9.000000 23 348.584857
0.827739 1.163908 2.683580 17.000000 21 348.584859
0.874541 1.229711 2.288866 26.000000 19 348.584862
1.089905 1.532530 2.327372 18.000000 17 348.584865
0.212833 0.257129 5.595022 97.000000 30 348.584872
0.377346 0.480008 5.642365 105.000000 29 348.584875
0.572446 0.783900 3.772066 92.000000 26 348.584877
0.808608 1.132830 3.839097 11.000000 24 348.584880
0.818091 1.146529 2.974804 11.000000 22 348.584883
0.841512 1.179779 2.440534 20.000000 20 348.584885
