# .PCD v.7 - Point Cloud Data file format
VERSION .7
FIELDS x y z intensity ring timestamp
SIZE 4 4 4 4 2 8
TYPE F F F F U D
COUNT 1 1 1 1 1 1
WIDTH 925
HEIGHT 1
VIEWPOINT 0 0 0 1 0 0 0
POINTS 925
DATA ascii
3.528232 -2.151949 1.526691 73.000000 6 348.108344
3.373453 -2.058354 1.043847 80.000000 4 348.108346
3.326498 -2.030500 0.635086 81.000000 2 348.108349
3.236374 -1.975488 0.246627 97.000000 0 348.108351
0.033520 -0.030026 3.604136 11.000000 31 348.108362
0.419380 -0.271467 3.176367 30.000000 28 348.108365
0.986693 -0.640774 5.679724 93.000000 27 348.108367
1.499112 -0.931902 5.686729 33.000000 25 348.108370
1.386084 -0.851034 3.891353 36.000000 23 348.108372
1.770590 -1.086702 3.872907 35.000000 21 348.108375
2.130280 -1.307469 3.743664 61.000000 19 348.108377
2.534488 -1.555559 3.635770 87.000000 17 348.108380
0.161210 -0.115426 3.258950 79.000000 30 348.108388
0.297285 -0.202370 3.305801 15.000000 29 348.108390
1.240935 -0.783355 5.683552 33.000000 26 348.108393
1.756457 -1.082244 5.664584 34.000000 24 348.108395
1.573814 -0.969332 3.883972 35.000000 22 348.108398
1.969118 -1.212342 3.852558 34.000000 20 348.108401
2.299311 -1.415640 3.648913 84.000000 18 348.108403
2.766917 -1.702875 3.600377 91.000000 16 348.108406
3.032981 -1.856420 3.574284 82.000000 15 348.108363
3.628343 -2.220833 3.511309 85.000000 13 348.108366
3.828204 -2.344083 3.027639 30.000000 11 348.108369
3.673622 -2.249431 2.340438 36.000000 9 348.108371
3.487792 -2.135644 1.740666 39.000000 7 348.108374
3.412029 -2.090072 1.265311 61.000000 5 348.108376
3.367456 -2.063577 0.841299 78.000000 3 348.108379
3.277531 -2.009257 0.437405 83.000000 1 348.108381
3.315485 -2.036502 3.545463 87.000000 14 348.108389
3.925122 -2.410970 3.437700 30.000000 12 348.108392
3.741236 -2.298019 2.664683 42.000000 10 348.108394
3.582015 -2.200222 2.030772 28.000000 8 348.108397
3.525100 -2.166109 1.528334 73.000000 6 348.108399
3.366609 -2.069529 1.043847 80.000000 4 348.108402
3.319746 -2.041520 0.635086 80.000000 2 348.108404
3.229459 -1.986773 0.246627 97.000000 0 348.108407
0.033420 -0.030137 3.604136 10.000000 31 348.108418
0.418477 -0.272856 3.176367 30.000000 28 348.108420
0.984562 -0.644043 5.679724 93.000000 27 348.108423
1.494748 -0.936075 5.681958 32.000000 25 348.108425
1.383255 -0.855626 3.891353 36.000000 23 348.108428
1.766977 -1.092568 3.872907 35.000000 21 348.108430
2.128326 -1.316006 3.747797 61.000000 19 348.108433
2.526589 -1.562269 3.631933 87.000000 17 348.108436
0.160806 -0.115988 3.258950 90.000000 30 348.108443
0.296577 -0.203406 3.305801 15.000000 29 348.108446
1.238193 -0.787682 5.683552 33.000000 26 348.108448
1.752669 -1.088368 5.664584 34.000000 24 348.108451
1.570590 -0.974545 3.883972 35.000000 22 348.108454
1.962871 -1.217491 3.848292 34.000000 20 348.108456
2.294604 -1.423257 3.648913 84.000000 18 348.108459
2.758075 -1.710736 3.596702 90.000000 16 348.108461
3.026808 -1.866468 3.574284 82.000000 15 348.108419
3.620959 -2.232853 3.511309 84.000000 13 348.108421
3.823968 -2.358960 3.030380 30.000000 11 348.108424
3.617126 -2.231364 2.310303 28.000000 9 348.108427
3.464535 -2.138067 1.733174 77.000000 7 348.108429
3.408795 -2.104490 1.266721 61.000000 5 348.108432
3.360594 -2.074732 0.841299 77.000000 3 348.108434
3.270850 -2.020115 0.437405 85.000000 1 348.108437
3.308714 -2.047485 3.545463 87.000000 14 348.108445
3.917106 -2.423973 3.437700 28.000000 12 348.108447
3.711197 -2.297448 2.649488 30.000000 10 348.108450
3.520288 -2.179268 2.001400 65.000000 8 348.108452
3.521532 -2.180887 1.529977 73.000000 6 348.108455
3.359364 -2.081268 1.043847 81.000000 4 348.108457
3.312599 -2.053095 0.635086 80.000000 2 348.108460
3.226750 -2.000667 0.246829 97.000000 0 348.108463
0.033344 -0.030286 3.609136 10.000000 31 348.108473
0.417522 -0.274315 3.176367 30.000000 28 348.108476
0.982308 -0.647475 5.679724 92.000000 27 348.108478
1.491471 -0.941287 5.681958 32.000000 25 348.108481
1.378601 -0.859416 3.886750 36.000000 23 348.108483
1.763152 -1.098729 3.872907 34.000000 21 348.108486
2.123720 -1.323427 3.747797 61.000000 19 348.108489
2.521120 -1.571079 3.631933 87.000000 17 348.108491
0.160400 -0.116549 3.258950 94.000000 30 348.108499
0.296304 -0.204745 3.310773 15.000000 29 348.108501
1.235436 -0.792000 5.683552 33.000000 26 348.108504
1.748859 -1.094480 5.664584 34.000000 24 348.108507
1.567179 -0.980022 3.883972 35.000000 22 348.108509
1.958609 -1.224335 3.848292 34.000000 20 348.108512
2.289622 -1.431258 3.648913 84.000000 18 348.108514
2.752086 -1.720353 3.596702 90.000000 16 348.108517
3.020274 -1.877022 3.574284 82.000000 15 348.108474
3.613142 -2.245479 3.511309 84.000000 13 348.108477
3.815711 -2.372294 3.030380 29.000000 11 348.108480
3.567929 -2.218246 2.284805 29.000000 9 348.108482
3.460988 -2.152597 1.735047 79.000000 7 348.108485
3.401428 -2.116376 1.266721 62.000000 5 348.108487
3.353332 -2.086450 0.841299 77.000000 3 348.108490
3.268006 -2.034152 0.437852 84.000000 1 348.108492
3.298378 -2.057046 3.542138 88.000000 14 348.108500
3.908621 -2.437631 3.437700 24.000000 12 348.108503
3.699497 -2.308107 2.646956 29.000000 10 348.108505
3.516510 -2.193944 2.003498 84.000000 8 348.108508
3.513898 -2.193166 1.529977 74.000000 6 348.108510
3.356202 -2.095556 1.045020 81.000000 4 348.108513
3.309613 -2.067269 0.635775 79.000000 2 348.108515
3.219747 -2.011918 0.246829 97.000000 0 348.108518
0.033238 -0.030402 3.609136 10.000000 31 348.108529
0.417210 -0.276200 3.181306 30.000000 28 348.108531
0.980042 -0.650900 5.679724 93.000000 27 348.108534
1.486916 -0.945686 5.677186 31.000000 25 348.108536
1.375593 -0.864223 3.886750 36.000000 23 348.108539
1.759306 -1.104877 3.872907 34.000000 21 348.108541
2.121470 -1.332329 3.751930 61.000000 19 348.108544
2.515620 -1.579870 3.631933 87.000000 17 348.108547
0.159992 -0.117108 3.258950 94.000000 30 348.108554
0.295587 -0.205778 3.310773 15.000000 29 348.108557
1.232664 -0.796307 5.683552 33.000000 26 348.108559
1.745028 -1.100577 5.664584 34.000000 24 348.108562
1.563749 -0.985486 3.883972 36.000000 22 348.108565
1.954324 -1.231164 3.848292 34.000000 20 348.108567
2.284612 -1.439242 3.648913 84.000000 18 348.108570
2.746064 -1.729949 3.596702 90.000000 16 348.108572
3.010681 -1.885660 3.570780 83.000000 15 348.108530
3.601983 -2.256011 3.508172 85.000000 13 348.108533
3.810950 -2.387819 3.033122 28.000000 11 348.108535
3.541393 -2.218925 2.273215 68.000000 9 348.108538
3.453453 -2.164665 1.735047 80.000000 7 348.108540
3.398084 -2.130785 1.268130 60.000000 5 348.108543
3.346028 -2.098143 0.841299 76.000000 3 348.108545
3.260885 -2.045547 0.437852 76.000000 1 348.108548
3.291177 -2.068547 3.542138 87.000000 14 348.108556
3.903510 -2.453411 3.440644 21.000000 12 348.108558
3.603824 -2.265931 2.586178 34.000000 10 348.108561
3.512672 -2.208622 2.005596 86.000000 8 348.108563
3.510219 -2.207934 1.531619 73.000000 6 348.108566
3.348867 -2.107259 1.045020 80.000000 4 348.108568
3.302377 -2.078809 0.635775 77.000000 2 348.108571
3.216932 -2.025807 0.247030 97.000000 0 348.108574
0.033132 -0.030518 3.609136 9.000000 31 348.108584
0.416243 -0.277655 3.181306 30.000000 28 348.108587
0.976918 -0.653751 5.674829 93.000000 27 348.108589
1.483606 -0.950871 5.677186 31.000000 25 348.108592
1.372568 -0.869019 3.886750 36.000000 23 348.108594
1.755439 -1.111011 3.872907 34.000000 21 348.108597
2.116807 -1.339726 3.751930 61.000000 19 348.108600
2.510090 -1.588641 3.631933 88.000000 17 348.108602
0.159583 -0.117666 3.258950 94.000000 30 348.108610
0.295303 -0.207116 3.315744 14.000000 29 348.108612
1.228822 -0.799919 5.678713 33.000000 26 348.108615
1.741176 -1.106662 5.664584 34.000000 24 348.108618
1.560299 -0.990939 3.883972 36.000000 22 348.108620
1.950014 -1.237979 3.848292 34.000000 20 348.108623
2.277030 -1.445592 3.644923 84.000000 18 348.108625
2.737146 -1.737707 3.593026 90.000000 16 348.108628
3.004081 -1.896158 3.570780 83.000000 15 348.108585
3.594086 -2.268570 3.508172 85.000000 13 348.108588
3.802592 -2.401107 3.033122 28.000000 11 348.108591
3.533626 -2.231274 2.273215 72.000000 9 348.108593
3.449795 -2.179182 1.736920 82.000000 7 348.108596
3.390626 -2.142633 1.268130 60.000000 5 348.108598
3.342836 -2.112434 0.842231 70.000000 3 348.108601
3.253725 -2.056917 0.437852 76.000000 1 348.108603
3.280782 -2.078025 3.538813 87.000000 14 348.108611
3.894923 -2.467022 3.440644 20.000000 12 348.108614
3.570400 -2.262344 2.568450 68.000000 10 348.108616
3.504942 -2.220870 2.005596 86.000000 8 348.108619
3.502490 -2.220173 1.531619 72.000000 6 348.108621
3.345596 -2.121539 1.046192 80.000000 4 348.108624
3.299282 -2.092977 0.636465 78.000000 2 348.108627
3.209841 -2.037024 0.247030 97.000000 0 348.108629
0.033025 -0.030633 3.609136 8.000000 31 348.108640
0.415271 -0.279106 3.181306 30.000000 28 348.108642
0.974630 -0.657157 5.674829 90.000000 27 348.108645
1.480278 -0.956044 5.677186 32.000000 25 348.108647
1.367879 -0.872754 3.882147 36.000000 23 348.108650
1.749530 -1.115844 3.868518 34.000000 21 348.108653
2.114490 -1.348620 3.756063 61.000000 19 348.108655
2.504530 -1.597393 3.631933 88.000000 17 348.108658
0.159171 -0.118222 3.258950 95.000000 30 348.108665
0.294579 -0.208145 3.315744 14.000000 29 348.108668
1.226023 -0.804203 5.678713 33.000000 26 348.108671
1.737302 -1.112733 5.664584 33.000000 24 348.108673
1.554996 -0.995205 3.879471 36.000000 22 348.108676
1.945681 -1.244778 3.848292 34.000000 20 348.108678
2.271970 -1.453532 3.644923 84.000000 18 348.108681
2.731064 -1.747251 3.593026 90.000000 16 348.108683
2.994435 -1.904719 3.567275 83.000000 15 348.108641
3.582860 -2.279013 3.505034 85.000000 13 348.108644
3.797715 -2.416611 3.035863 27.000000 11 348.108646
3.525816 -2.243595 2.273215 74.000000 9 348.108649
3.442167 -2.191211 1.736920 82.000000 7 348.108651
3.387172 -2.157033 1.269539 60.000000 5 348.108654
3.335442 -2.124090 0.842231 67.000000 3 348.108656
3.250726 -2.070938 0.438298 83.000000 1 348.108659
3.273508 -2.089464 3.538813 87.000000 14 348.108667
3.889694 -2.482777 3.443587 20.000000 12 348.108669
3.562482 -2.274793 2.568450 73.000000 10 348.108672
3.497168 -2.233091 2.005596 86.000000 8 348.108674
3.498698 -2.234927 1.533262 73.000000 6 348.108677
3.338170 -2.133204 1.046192 79.000000 4 348.108679
3.291955 -2.104481 0.636465 76.000000 2 348.108682
3.206919 -2.050907 0.247232 97.000000 0 348.108685
0.032830 -0.030651 3.594137 10.000000 31 348.108696
0.414937 -0.280990 3.186245 26.000000 28 348.108699
0.972330 -0.660555 5.674829 90.000000 27 348.108701
1.476931 -0.961205 5.677186 32.000000 25 348.108704
1.364825 -0.877524 3.882147 36.000000 23 348.108706
1.745624 -1.121944 3.868518 34.000000 21 348.108709
2.109769 -1.355993 3.756063 61.000000 19 348.108711
2.498938 -1.606126 3.631933 88.000000 17 348.108714
0.158757 -0.118777 3.258950 97.000000 30 348.108722
0.294285 -0.209483 3.320716 15.000000 29 348.108724
1.223208 -0.808478 5.678713 33.000000 26 348.108727
1.731957 -1.117855 5.659891 33.000000 24 348.108729
1.551513 -1.000627 3.879471 36.000000 22 348.108732
1.941324 -1.251562 3.848292 34.000000 20 348.108734
2.266882 -1.461454 3.644923 84.000000 18 348.108737
2.724948 -1.756773 3.593026 90.000000 16 348.108740
2.987768 -1.915159 3.567275 83.000000 15 348.108697
3.574883 -2.291506 3.505034 85.000000 13 348.108700
3.792776 -2.432110 3.038604 27.000000 11 348.108702
3.517963 -2.255889 2.273215 75.000000 9 348.108705
3.438399 -2.205716 1.738793 85.000000 7 348.108708
3.383660 -2.171434 1.270948 60.000000 5 348.108710
3.332142 -2.138373 0.843164 65.000000 3 348.108713
3.243477 -2.082272 0.438298 85.000000 1 348.108715
3.266195 -2.100878 3.538813 87.000000 14 348.108723
3.881004 -2.496340 3.443587 20.000000 12 348.108726
3.558145 -2.289547 2.570983 74.000000 10 348.108728
3.493168 -2.247741 2.007694 85.000000 8 348.108731
3.490875 -2.247127 1.533262 73.000000 6 348.108733
3.334790 -2.147475 1.047364 79.000000 4 348.108736
3.284590 -2.115959 0.636465 75.000000 2 348.108738
3.199741 -2.062089 0.247232 97.000000 0 348.108741
0.032665 -0.030700 3.584137 10.000000 31 348.108752
0.413954 -0.282437 3.186245 26.000000 28 348.108754
0.970019 -0.663945 5.674829 92.000000 27 348.108757
1.473567 -0.966355 5.677186 32.000000 25 348.108759
1.361753 -0.882282 3.882147 36.000000 23 348.108762
1.741697 -1.128030 3.868518 34.000000 21 348.108764
2.107385 -1.364879 3.760195 62.000000 19 348.108767
2.490626 -1.613096 3.628096 88.000000 17 348.108769
0.158342 -0.119331 3.258950 98.000000 30 348.108777
0.293552 -0.210509 3.320716 15.000000 29 348.108780
1.221425 -0.813440 5.683552 33.000000 26 348.108782
1.728045 -1.123894 5.659891 34.000000 24 348.108785
1.548011 -1.006037 3.879471 36.000000 22 348.108787
1.936943 -1.258331 3.848292 34.000000 20 348.108790
2.259239 -1.467716 3.640934 84.000000 18 348.108793
2.718800 -1.766274 3.593026 90.000000 16 348.108795
2.981064 -1.925577 3.567275 84.000000 15 348.108753
3.566863 -2.303970 3.505034 80.000000 13 348.108755
3.784264 -2.445334 3.038604 27.000000 11 348.108758
3.513788 -2.270559 2.275533 76.000000 9 348.108760
3.430679 -2.217704 1.738793 85.000000 7 348.108763
3.376059 -2.183232 1.270948 59.000000 5 348.108766
3.328782 -2.152658 0.844097 57.000000 3 348.108768
3.240370 -2.096286 0.438744 84.000000 1 348.108771
3.258841 -2.112266 3.538813 88.000000 14 348.108778
3.875658 -2.512070 3.446530 22.000000 12 348.108781
3.546514 -2.299608 2.568450 73.000000 10 348.108784
3.485301 -2.259920 2.007694 85.000000 8 348.108786
3.486972 -2.261868 1.534905 73.000000 6 348.108789
3.327273 -2.159103 1.047364 79.000000 4 348.108791
3.281337 -2.130108 0.637155 77.000000 2 348.108794
3.196713 -2.075967 0.247433 98.000000 0 348.108796
0.032471 -0.030716 3.569138 11.000000 31 348.108807
0.412966 -0.283880 3.186245 30.000000 28 348.108810
0.966857 -0.666749 5.669934 88.000000 27 348.108812
1.470185 -0.971493 5.677186 32.000000 25 348.108815
1.358665 -0.887030 3.882147 36.000000 23 348.108817
1.737749 -1.134103 3.868518 34.000000 21 348.108820
2.102608 -1.372227 3.760195 62.000000 19 348.108822
2.484980 -1.621781 3.628096 88.000000 17 348.108825
0.157924 -0.119883 3.258950 85.000000 30 348.108833
0.293247 -0.211846 3.325687 16.000000 29 348.108835
1.218578 -0.817699 5.683552 33.000000 26 348.108838
1.724111 -1.129919 5.659891 34.000000 24 348.108840
1.544490 -1.011434 3.879471 36.000000 22 348.108843
1.930357 -1.263656 3.844026 34.000000 20 348.108846
2.254102 -1.475593 3.640934 83.000000 18 348.108848
2.712617 -1.775754 3.593026 91.000000 16 348.108851
2.974325 -1.935971 3.567275 84.000000 15 348.108808
3.555536 -2.314283 3.501896 80.000000 13 348.108811
3.779209 -2.460810 3.041346 27.000000 11 348.108813
3.505841 -2.282811 2.275533 75.000000 9 348.108816
3.426802 -2.232197 1.740666 85.000000 7 348.108819
3.372437 -2.197622 1.272357 59.000000 5 348.108821
3.325363 -2.166947 0.845029 47.000000 3 348.108824
3.233033 -2.107585 0.438744 84.000000 1 348.108826
3.251448 -2.123629 3.538813 88.000000 14 348.108834
3.870250 -2.527794 3.449473 23.000000 12 348.108837
3.538465 -2.311974 2.568450 73.000000 10 348.108839
3.477391 -2.272072 2.007694 86.000000 8 348.108842
3.483008 -2.276610 1.536547 72.000000 6 348.108844
3.323784 -2.173364 1.048536 80.000000 4 348.108847
3.273882 -2.141549 0.637155 78.000000 2 348.108849
3.189447 -2.087113 0.247433 98.000000 0 348.108852
0.032306 -0.030764 3.559138 10.000000 31 348.108863
0.411334 -0.284877 3.181306 30.000000 28 348.108865
0.964524 -0.670120 5.669934 88.000000 27 348.108868
1.465542 -0.975791 5.672414 31.000000 25 348.108870
1.355561 -0.891768 3.882147 36.000000 23 348.108873
1.733780 -1.140162 3.868518 34.000000 21 348.108875
2.100156 -1.381104 3.764328 62.000000 19 348.108878
2.479304 -1.630445 3.628096 88.000000 17 348.108880
0.157505 -0.120433 3.258950 85.000000 30 348.108888
0.292506 -0.212868 3.325687 16.000000 29 348.108891
1.215717 -0.821948 5.683552 33.000000 26 348.108893
1.718716 -1.134979 5.655198 34.000000 24 348.108896
1.540950 -1.016820 3.879471 36.000000 22 348.108898
1.925934 -1.270387 3.844026 34.000000 20 348.108901
2.248938 -1.483452 3.640934 83.000000 18 348.108904
2.703573 -1.783346 3.589352 91.000000 16 348.108906
2.967549 -1.946342 3.567275 84.000000 15 348.108864
3.547436 -2.326680 3.501896 85.000000 13 348.108866
3.774092 -2.476281 3.044088 27.000000 11 348.108869
3.501555 -2.297465 2.277851 75.000000 9 348.108872
3.418989 -2.244145 1.740666 84.000000 7 348.108874
3.368756 -2.212014 1.273767 59.000000 5 348.108877
3.321885 -2.181238 0.845962 39.000000 3 348.108879
3.229819 -2.121591 0.439190 84.000000 1 348.108882
3.244015 -2.134965 3.538813 88.000000 14 348.108890
3.868156 -2.545732 3.455359 27.000000 12 348.108892
3.533974 -2.326682 2.570983 73.000000 10 348.108895
3.473230 -2.286693 2.009792 86.000000 8 348.108897
3.475040 -2.288754 1.536547 72.000000 6 348.108900
3.316177 -2.184953 1.048536 80.000000 4 348.108902
3.270521 -2.155689 0.637845 76.000000 2 348.108905
3.186313 -2.100983 0.247635 98.000000 0 348.108907
0.032083 -0.030745 3.539139 11.000000 31 348.108918
0.410337 -0.286311 3.181306 29.000000 28 348.108921
0.962179 -0.673482 5.669934 91.000000 27 348.108923
1.462127 -0.980900 5.672414 30.000000 25 348.108926
1.352439 -0.896494 3.882147 36.000000 23 348.108928
1.729789 -1.146207 3.868518 34.000000 21 348.108931
2.095322 -1.388427 3.764328 62.000000 19 348.108933
2.473598 -1.639089 3.628096 88.000000 17 348.108936
0.156876 -0.120777 3.253958 87.000000 30 348.108944
0.292229 -0.214153 3.330658 16.000000 29 348.108946
1.212984 -0.825974 5.683552 33.000000 26 348.108949
1.714943 -1.140672 5.655198 33.000000 24 348.108951
1.537391 -1.022192 3.879471 36.000000 22 348.108954
1.921488 -1.277102 3.844026 34.000000 20 348.108957
2.241236 -1.489625 3.636945 83.000000 18 348.108959
2.697644 -1.792301 3.589352 91.000000 16 348.108962
2.960737 -1.956689 3.567275 84.000000 15 348.108919
3.539293 -2.339049 3.501896 85.000000 13 348.108922
3.768913 -2.491746 3.046829 27.000000 11 348.108924
3.493514 -2.309674 2.277851 76.000000 9 348.108927
3.415395 -2.258027 1.742539 86.000000 7 348.108930
3.361402 -2.223173 1.273767 59.000000 5 348.108932
3.318347 -2.195530 0.846894 35.000000 3 348.108935
3.222394 -2.132853 0.439190 84.000000 1 348.108937
3.236543 -2.146276 3.538813 87.000000 14 348.108945
3.859246 -2.559219 3.455359 33.000000 12 348.108948
3.526239 -2.338388 2.570983 73.000000 10 348.108950
3.465628 -2.298198 2.009792 85.000000 8 348.108953
3.471367 -2.302876 1.538190 73.000000 6 348.108955
3.312963 -2.198625 1.049709 80.000000 4 348.108958
3.263355 -2.166523 0.637845 76.000000 2 348.108960
3.179329 -2.111538 0.247635 97.000000 0 348.108963
0.031924 -0.030786 3.529139 11.000000 31 348.108974
0.409385 -0.287670 3.181306 30.000000 28 348.108976
0.960772 -0.677256 5.674829 91.000000 27 348.108979
1.457628 -0.984907 5.667643 32.000000 25 348.108981
1.349459 -0.900974 3.882147 36.000000 23 348.108984
1.725979 -1.151937 3.868518 34.000000 21 348.108986
2.093047 -1.396929 3.768461 62.000000 19 348.108989
2.465482 -1.645503 3.624259 88.000000 17 348.108992
0.156454 -0.121324 3.253958 86.000000 30 348.108999
0.291479 -0.215172 3.330658 16.000000 29 348.109002
1.210094 -0.830204 5.683552 33.000000 26 348.109004
1.710951 -1.146652 5.655198 34.000000 24 348.109007
1.533813 -1.027553 3.879471 35.000000 22 348.109010
1.919186 -1.285252 3.848292 35.000000 20 348.109012
2.236022 -1.497439 3.636945 83.000000 18 348.109015
2.691057 -1.802176 3.589352 90.000000 16 348.109017
2.954232 -1.966496 3.567275 84.000000 15 348.108975
3.531517 -2.350773 3.501896 84.000000 13 348.108977
3.764110 -2.506548 3.049571 28.000000 11 348.108980
3.489523 -2.323701 2.280169 76.000000 9 348.108983
3.407493 -2.269935 1.742539 85.000000 7 348.108985
3.357613 -2.237554 1.275176 59.000000 5 348.108988
3.310663 -2.207100 0.846894 29.000000 3 348.108990
3.219072 -2.146851 0.439636 83.000000 1 348.108993
3.222822 -2.153411 3.532163 88.000000 14 348.109001
3.860372 -2.579412 3.464189 39.000000 12 348.109003
3.521229 -2.353693 2.573515 73.000000 10 348.109006
3.460954 -2.313406 2.011890 85.000000 8 348.109008
3.466829 -2.318209 1.539833 73.000000 6 348.109011
3.304883 -2.210753 1.049709 79.000000 4 348.109013
3.259508 -2.181223 0.638535 76.000000 2 348.109016
3.176091 -2.125401 0.247837 97.000000 0 348.109018
0.031725 -0.030803 3.514140 12.000000 31 348.109029
0.408962 -0.289618 3.186245 30.000000 28 348.109032
0.958283 -0.680773 5.674829 91.000000 27 348.109034
1.454009 -0.990243 5.667643 32.000000 25 348.109037
1.346148 -0.905914 3.882147 34.000000 23 348.109039
1.721745 -1.158255 3.868518 34.000000 21 348.109042
2.087913 -1.404591 3.768461 62.000000 19 348.109044
2.459434 -1.654529 3.624259 88.000000 17 348.109047
0.156029 -0.121869 3.253958 87.000000 30 348.109055
0.291154 -0.216507 3.335630 16.000000 29 348.109057
1.207189 -0.834423 5.683552 34.000000 26 348.109060
1.706938 -1.152617 5.655198 34.000000 24 348.109062
1.530217 -1.032900 3.879471 35.000000 22 348.109065
1.914688 -1.291944 3.848292 35.000000 20 348.109068
2.230782 -1.505236 3.636945 83.000000 18 348.109070
2.682255 -1.809195 3.585676 91.000000 16 348.109073
2.947005 -1.977311 3.567275 84.000000 15 348.109030
3.519645 -2.361532 3.498758 86.000000 13 348.109033
3.758369 -2.522658 3.052312 28.000000 11 348.109036
3.480983 -2.336476 2.280169 77.000000 9 348.109038
3.403397 -2.284400 1.744412 85.000000 7 348.109041
3.353765 -2.251935 1.276585 58.000000 5 348.109043
3.302939 -2.218643 0.846894 23.000000 3 348.109046
3.211558 -2.158075 0.439636 82.000000 1 348.109048
3.209090 -2.160477 3.525513 79.000000 14 348.109056
3.841285 -2.586099 3.455359 52.000000 12 348.109059
3.513405 -2.365357 2.573515 74.000000 10 348.109061
3.453264 -2.324871 2.011890 86.000000 8 348.109064
3.463039 -2.332330 1.541475 74.000000 6 348.109066
3.301565 -2.224416 1.050881 80.000000 4 348.109069
3.256363 -2.194788 0.639224 76.000000 2 348.109071
3.168653 -2.136475 0.247837 97.000000 0 348.109074
0.031566 -0.030842 3.504140 12.000000 31 348.109085
0.407999 -0.290973 3.186245 29.000000 28 348.109087
0.956021 -0.683947 5.674829 92.000000 27 348.109090
1.450717 -0.995059 5.667643 31.000000 25 348.109092
1.343136 -0.910373 3.882147 34.000000 23 348.109095
1.717895 -1.163958 3.868518 34.000000 21 348.109097
2.085573 -1.413086 3.772594 62.000000 19 348.109100
2.453934 -1.662675 3.624259 89.000000 17 348.109103
0.155603 -0.122413 3.253958 84.000000 30 348.109110
0.290823 -0.217843 3.340601 16.000000 29 348.109113
1.204268 -0.838631 5.683552 34.000000 26 348.109115
1.702904 -1.158568 5.655198 34.000000 24 348.109118
1.524983 -1.036744 3.874970 35.000000 22 348.109121
1.910393 -1.298286 3.848292 35.000000 20 348.109123
2.225778 -1.512625 3.636945 83.000000 18 348.109126
2.675923 -1.818546 3.585676 91.000000 16 348.109128
2.937476 -1.985075 3.563771 87.000000 15 348.109086
3.511794 -2.373190 3.498758 84.000000 13 348.109088
3.753448 -2.537449 3.055053 28.000000 11 348.109091
3.476886 -2.350487 2.282487 78.000000 9 348.109094
3.395402 -2.296265 1.744412 85.000000 7 348.109096
3.349857 -2.266316 1.277994 56.000000 5 348.109099
3.291495 -2.226831 0.845962 20.000000 3 348.109101
3.208509 -2.171504 0.440083 83.000000 1 348.109104
3.158636 -2.141766 3.478966 64.000000 14 348.109112
3.825997 -2.594286 3.449473 65.000000 12 348.109114
3.508694 -2.380026 2.576048 73.000000 10 348.109117
3.448883 -2.339458 2.013988 85.000000 8 348.109119
3.458784 -2.347056 1.543118 74.000000 6 348.109122
3.297802 -2.238657 1.052053 80.000000 4 348.109124
3.252779 -2.208924 0.639914 75.000000 2 348.109127
3.165308 -2.150330 0.248038 97.000000 0 348.109130
0.031374 -0.030852 3.489141 12.000000 31 348.109140
0.407612 -0.292849 3.191185 29.000000 28 348.109143
0.953627 -0.687280 5.674829 92.000000 27 348.109145
1.448463 -1.000967 5.672414 32.000000 25 348.109148
1.339950 -0.915056 3.882147 36.000000 23 348.109150
1.713822 -1.169948 3.868518 33.000000 21 348.109153
2.080628 -1.420357 3.772594 60.000000 19 348.109156
2.448115 -1.671231 3.624259 89.000000 17 348.109158
0.155174 -0.122955 3.253958 83.000000 30 348.109166
0.290061 -0.218857 3.340601 17.000000 29 348.109168
1.201334 -0.842830 5.683552 34.000000 26 348.109171
1.698850 -1.164505 5.655198 34.000000 24 348.109174
1.521354 -1.042061 3.874970 35.000000 22 348.109176
1.905849 -1.304947 3.848292 35.000000 20 348.109179
2.220484 -1.520385 3.636945 83.000000 18 348.109181
2.669559 -1.827876 3.585676 90.000000 16 348.109184
2.930529 -1.995317 3.563771 87.000000 15 348.109141
3.503489 -2.385434 3.498758 84.000000 13 348.109144
3.744567 -2.550535 3.055053 28.000000 11 348.109147
3.472322 -2.365103 2.284805 78.000000 9 348.109149
3.391197 -2.310714 1.746285 84.000000 7 348.109152
3.341926 -2.277995 1.277994 56.000000 5 348.109154
3.283702 -2.238307 0.845962 19.000000 3 348.109157
3.200909 -2.182690 0.440083 83.000000 1 348.109159
3.111056 -2.125393 3.435743 36.000000 14 348.109167
3.826931 -2.614466 3.458302 34.000000 12 348.109170
3.500365 -2.392260 2.576048 73.000000 10 348.109172
3.440696 -2.351483 2.013988 86.000000 8 348.109175
3.454469 -2.361780 1.544761 74.000000 6 348.109177
3.289967 -2.250155 1.052053 80.000000 4 348.109180
3.245049 -2.220265 0.639914 76.000000 2 348.109182
3.161905 -2.164188 0.248240 96.000000 0 348.109185
0.031181 -0.030862 3.474141 12.000000 31 348.109196
0.406587 -0.294270 3.191185 29.000000 28 348.109198
0.951223 -0.690605 5.674829 91.000000 27 348.109201
1.444961 -1.006016 5.672414 33.000000 25 348.109203
1.336748 -0.919727 3.882147 35.000000 23 348.109206
1.709727 -1.175923 3.868518 33.000000 21 348.109208
2.077976 -1.429206 3.776727 62.000000 19 348.109211
2.439625 -1.677950 3.620422 88.000000 17 348.109214
0.154744 -0.123496 3.253958 95.000000 30 348.109221
0.289720 -0.220192 3.345573 17.000000 29 348.109224
1.198384 -0.847018 5.683552 34.000000 26 348.109226
1.694774 -1.170429 5.655198 34.000000 24 348.109229
1.517708 -1.047366 3.874970 36.000000 22 348.109232
1.899136 -1.310110 3.844026 35.000000 20 348.109234
2.212683 -1.526415 3.632955 84.000000 18 348.109237
2.660372 -1.835258 3.582001 91.000000 16 348.109239
2.920605 -2.003517 3.560266 85.000000 15 348.109197
3.491931 -2.395447 3.495621 80.000000 13 348.109200
3.739089 -2.565957 3.057795 29.000000 11 348.109202
3.467698 -2.379717 2.287123 77.000000 9 348.109205
3.383111 -2.322537 1.746285 84.000000 7 348.109207
3.337908 -2.292363 1.279404 52.000000 5 348.109210
3.275869 -2.249756 0.845962 18.000000 3 348.109212
3.197375 -2.196670 0.440529 83.000000 1 348.109215
3.085161 -2.123536 3.415793 37.000000 14 348.109223
2.745675 -1.889867 2.510605 2.000000 12 348.109225
3.495544 -2.406909 2.578580 72.000000 10 348.109228
3.436205 -2.366053 2.016086 86.000000 8 348.109230
3.446204 -2.373825 1.544761 75.000000 6 348.109233
3.286095 -2.264383 1.053226 79.000000 4 348.109235
3.241355 -2.234389 0.640604 77.000000 2 348.109238
3.154331 -2.175212 0.248240 96.000000 0 348.109241
0.030989 -0.030870 3.459142 13.000000 31 348.109251
0.406185 -0.296146 3.196124 29.000000 28 348.109254
0.947984 -0.693320 5.669934 92.000000 27 348.109256
1.441440 -1.011054 5.672414 33.000000 25 348.109259
1.335135 -0.925501 3.886750 35.000000 23 348.109261
1.703643 -1.180520 3.864130 34.000000 21 348.109264
2.075288 -1.438054 3.780860 60.000000 19 348.109267
2.433753 -1.686455 3.620422 88.000000 17 348.109269
0.154312 -0.124036 3.253958 95.000000 30 348.109277
0.289373 -0.221528 3.350544 17.000000 29 348.109279
1.195421 -0.851196 5.683552 34.000000 26 348.109282
1.690678 -1.176337 5.655198 34.000000 24 348.109285
1.514042 -1.052657 3.874970 36.000000 22 348.109287
1.894551 -1.316732 3.844026 35.000000 20 348.109290
2.207341 -1.534130 3.632955 83.000000 18 348.109292
2.653950 -1.844534 3.582001 89.000000 16 348.109295
2.913594 -2.013699 3.560266 85.000000 15 348.109252
3.464333 -2.394342 3.476794 50.000000 13 348.109255
3.733549 -2.581371 3.060536 29.000000 11 348.109258
3.459370 -2.391807 2.287123 77.000000 9 348.109260
3.378796 -2.336970 1.748158 84.000000 7 348.109263
3.333831 -2.306730 1.280813 52.000000 5 348.109265
3.263956 -2.258382 0.845029 17.000000 3 348.109268
3.189688 -2.207818 0.440529 83.000000 1 348.109270
3.068524 -2.127908 3.405819 56.000000 14 348.109278
2.722454 -1.887923 2.495889 5.000000 12 348.109281
3.490664 -2.421553 2.581113 72.000000 10 348.109283
3.427925 -2.378033 2.016086 86.000000 8 348.109286
3.441777 -2.388532 1.546404 75.000000 6 348.109288
3.282163 -2.278612 1.054398 78.000000 4 348.109291
3.237604 -2.248515 0.641294 77.000000 2 348.109294
3.150822 -2.189060 0.248441 97.000000 0 348.109296
0.030798 -0.030877 3.444142 13.000000 31 348.109307
0.405149 -0.297562 3.196124 29.000000 28 348.109309
0.945558 -0.696624 5.669934 91.000000 27 348.109312
1.437902 -1.016080 5.672414 32.000000 25 348.109314
1.331896 -0.930156 3.886750 34.000000 23 348.109317
1.699512 -1.186459 3.864130 34.000000 21 348.109320
2.072562 -1.446900 3.784993 62.000000 19 348.109322
2.427852 -1.694940 3.620422 88.000000 17 348.109325
0.153878 -0.124574 3.253958 95.000000 30 348.109332
0.289020 -0.222863 3.355515 17.000000 29 348.109335
1.192442 -0.855364 5.683552 34.000000 26 348.109338
1.686562 -1.182232 5.655198 35.000000 24 348.109340
1.510359 -1.057935 3.874970 36.000000 22 348.109343
1.889943 -1.323337 3.844026 34.000000 20 348.109345
2.201973 -1.541825 3.632955 83.000000 18 348.109348
2.647495 -1.853786 3.582001 89.000000 16 348.109350
2.906547 -2.023858 3.560266 83.000000 15 348.109308
3.727947 -2.596778 3.063278 29.000000 11 348.109313
3.454635 -2.406399 2.289441 77.000000 9 348.109316
3.370618 -2.348750 1.748158 83.000000 7 348.109318
3.329694 -2.321096 1.282222 55.000000 5 348.109321
3.256053 -2.269762 0.845029 16.000000 3 348.109323
3.186047 -2.221787 0.440975 83.000000 1 348.109326
3.064139 -2.140745 3.409144 57.000000 14 348.109334
2.646265 -1.848802 2.434083 5.000000 12 348.109336
3.482189 -2.433723 2.581113 73.000000 10 348.109339
3.423323 -2.392584 2.018184 87.000000 8 348.109341
3.437288 -2.403237 1.548046 76.000000 6 348.109344
3.278173 -2.292841 1.055570 79.000000 4 348.109346
3.233793 -2.262641 0.641984 78.000000 2 348.109349
3.147255 -2.202910 0.248643 97.000000 0 348.109352
0.030606 -0.030884 3.429143 13.000000 31 348.109362
0.404107 -0.298974 3.196124 29.000000 28 348.109365
0.943121 -0.699921 5.669934 91.000000 27 348.109367
1.434346 -1.021093 5.672414 32.000000 25 348.109370
1.330239 -0.935923 3.891353 32.000000 23 348.109372
1.693400 -1.191006 3.859741 34.000000 21 348.109375
2.069801 -1.455744 3.789126 63.000000 19 348.109377
2.421920 -1.703405 3.620422 89.000000 17 348.109380
0.153443 -0.125110 3.253958 87.000000 30 348.109388
0.288661 -0.224199 3.360487 18.000000 29 348.109390
1.189449 -0.859521 5.683552 34.000000 26 348.109393
1.682425 -1.188112 5.655198 34.000000 24 348.109395
1.506657 -1.063201 3.874970 35.000000 22 348.109398
1.883181 -1.328422 3.839760 35.000000 20 348.109400
2.196577 -1.549502 3.632955 83.000000 18 348.109403
2.641008 -1.863016 3.582001 90.000000 16 348.109406
2.884868 -2.023751 3.542744 72.000000 15 348.109363
2.704987 -1.897566 2.745692 5.000000 13 348.109366
3.722282 -2.612177 3.066019 29.000000 11 348.109368
3.449840 -2.420989 2.291759 77.000000 9 348.109371
3.366193 -2.363165 1.750031 85.000000 7 348.109374
3.321572 -2.332705 1.282222 56.000000 5 348.109376
3.248110 -2.281114 0.845029 16.000000 3 348.109379
3.178272 -2.232895 0.440975 82.000000 1 348.109381
3.047486 -2.144980 3.399169 57.000000 14 348.109389
2.563772 -1.804518 2.366390 6.000000 12 348.109392
3.477198 -2.448345 2.583645 73.000000 10 348.109394
3.418662 -2.407132 2.020282 87.000000 8 348.109397
3.432739 -2.417941 1.549689 79.000000 6 348.109399
3.274123 -2.307070 1.056743 78.000000 4 348.109402
3.225875 -2.273916 0.641984 78.000000 2 348.109404
3.139546 -2.213883 0.248643 97.000000 0 348.109407
0.030415 -0.030889 3.414144 13.000000 31 348.109418
0.403684 -0.300848 3.201063 30.000000 28 348.109420
0.940672 -0.703209 5.669934 90.000000 27 348.109423
1.430773 -1.026093 5.672414 32.000000 25 348.109425
1.326964 -0.940561 3.891353 32.000000 23 348.109428
1.689233 -1.196910 3.859741 34.000000 21 348.109430
2.067003 -1.464587 3.793259 65.000000 19 348.109433
2.415960 -1.711848 3.620422 88.000000 17 348.109435
0.153228 -0.125830 3.258950 87.000000 30 348.109443
0.288297 -0.225535 3.365458 18.000000 29 348.109446
1.186441 -0.863668 5.683552 34.000000 26 348.109448
1.678267 -1.193977 5.655198 34.000000 24 348.109451
1.502936 -1.068454 3.874970 36.000000 22 348.109453
1.878533 -1.334988 3.839760 35.000000 20 348.109456
2.191155 -1.557160 3.632955 83.000000 18 348.109459
2.634488 -1.872224 3.582001 91.000000 16 348.109461
2.848662 -2.013226 3.507698 36.000000 15 348.109419
2.676093 -1.891270 2.723727 6.000000 13 348.109421
3.716555 -2.627568 3.068761 28.000000 11 348.109424
3.444986 -2.435574 2.294077 76.000000 9 348.109426
3.361709 -2.377577 1.751904 84.000000 7 348.109429
3.317325 -2.347056 1.283631 58.000000 5 348.109432
3.240128 -2.292438 0.845029 16.000000 3 348.109434
3.174523 -2.246853 0.441421 73.000000 1 348.109437
3.043026 -2.157764 3.402494 57.000000 14 348.109444
2.501405 -1.773711 2.316356 7.000000 12 348.109447
3.472147 -2.462963 2.586178 73.000000 10 348.109450
3.410239 -2.419051 2.020282 87.000000 8 348.109452
3.428130 -2.432642 1.551332 79.000000 6 348.109455
3.266050 -2.318485 1.056743 79.000000 4 348.109457
3.221956 -2.288030 0.642674 78.000000 2 348.109460
3.135872 -2.227721 0.248844 96.000000 0 348.109462
0.030252 -0.030928 3.404144 12.000000 31 348.109473
0.402631 -0.302255 3.201063 30.000000 28 348.109476
0.938212 -0.706488 5.669934 90.000000 27 348.109478
1.427183 -1.031081 5.672414 32.000000 25 348.109481
1.325263 -0.946323 3.895955 30.000000 23 348.109483
1.685044 -1.202799 3.859741 34.000000 21 348.109486
2.064168 -1.473429 3.797392 66.000000 19 348.109488
2.409969 -1.720271 3.620422 89.000000 17 348.109491
0.152788 -0.126364 3.258950 88.000000 30 348.109499
0.287926 -0.226872 3.370430 18.000000 29 348.109501
1.183419 -0.867804 5.683552 33.000000 26 348.109504
1.674089 -1.199828 5.655198 34.000000 24 348.109506
1.499197 -1.073694 3.874970 36.000000 22 348.109509
1.873861 -1.341537 3.839760 34.000000 20 348.109512
2.185706 -1.564799 3.632955 83.000000 18 348.109514
2.627937 -1.881409 3.582001 91.000000 16 348.109517
2.818376 -2.006610 3.479662 36.000000 15 348.109474
2.615565 -1.862216 2.670385 6.000000 13 348.109477
3.714173 -2.645377 3.074244 28.000000 11 348.109479
3.440072 -2.450154 2.296395 78.000000 9 348.109482
3.357164 -2.391988 1.753777 84.000000 7 348.109485
3.309112 -2.358622 1.283631 58.000000 5 348.109487
3.232106 -2.303734 0.845029 16.000000 3 348.109490
3.166661 -2.257920 0.441421 73.000000 1 348.109492
3.026360 -2.161861 3.392520 40.000000 14 348.109500
2.432707 -1.737791 2.260436 8.000000 12 348.109503
3.467036 -2.477574 2.588710 74.000000 10 348.109505
3.405466 -2.433579 2.022380 87.000000 8 348.109508
3.423459 -2.447340 1.552974 81.000000 6 348.109510
3.261890 -2.332699 1.057915 78.000000 4 348.109513
3.217977 -2.302144 0.643363 78.000000 2 348.109515
3.132139 -2.241561 0.249046 96.000000 0 348.109518
0.030144 -0.031033 3.404144 12.000000 31 348.109529
0.402193 -0.304128 3.206002 31.000000 28 348.109531
0.935740 -0.709759 5.669934 93.000000 27 348.109534
1.423575 -1.036057 5.672414 31.000000 25 348.109536
1.323537 -0.952084 3.900557 28.000000 23 348.109539
1.680835 -1.208674 3.859741 34.000000 21 348.109541
2.059013 -1.480625 3.797392 68.000000 19 348.109544
2.403950 -1.728673 3.620422 89.000000 17 348.109546
0.152346 -0.126897 3.258950 94.000000 30 348.109554
0.287133 -0.227875 3.370430 17.000000 29 348.109557
1.180383 -0.871930 5.683552 33.000000 26 348.109559
1.669891 -1.205665 5.655198 34.000000 24 348.109562
1.495440 -1.078920 3.874970 36.000000 22 348.109564
1.869167 -1.348070 3.839760 34.000000 20 348.109567
2.177786 -1.570656 3.628965 83.000000 18 348.109570
2.618604 -1.888587 3.578326 91.000000 16 348.109572
2.782376 -1.995651 3.444616 44.000000 15 348.109530
2.529966 -1.814613 2.591941 6.000000 13 348.109532
3.708313 -2.660764 3.076985 30.000000 11 348.109535
3.435098 -2.464731 2.298713 78.000000 9 348.109538
3.348794 -2.403692 1.753777 84.000000 7 348.109540
3.304756 -2.372956 1.285040 59.000000 5 348.109543
3.224045 -2.315002 0.845029 16.000000 3 348.109545
3.162805 -2.271866 0.441867 80.000000 1 348.109548
3.015764 -2.170231 3.389195 25.000000 14 348.109556
2.354449 -1.694330 2.195687 23.000000 12 348.109558
3.461865 -2.492180 2.591242 76.000000 10 348.109561
3.396950 -2.445451 2.022380 87.000000 8 348.109563
3.418727 -2.462034 1.554617 81.000000 6 348.109566
3.257671 -2.346911 1.059087 77.000000 4 348.109568
3.209922 -2.313363 0.643363 78.000000 2 348.109571
3.124296 -2.252481 0.249046 96.000000 0 348.109573
0.030035 -0.031138 3.404144 16.000000 31 348.109584
0.401747 -0.306001 3.210942 29.000000 28 348.109587
0.933257 -0.713021 5.669934 93.000000 27 348.109589
1.418746 -1.040137 5.667643 31.000000 25 348.109592
1.320206 -0.956698 3.900557 27.000000 23 348.109594
1.676606 -1.214534 3.859741 34.000000 21 348.109597
2.056111 -1.489454 3.801525 69.000000 19 348.109599
2.397901 -1.737054 3.620422 89.000000 17 348.109602
0.151924 -0.127401 3.258950 88.000000 30 348.109610
0.286792 -0.229160 3.375401 16.000000 29 348.109612
1.176476 -0.875088 5.678713 33.000000 26 348.109615
1.665884 -1.211195 5.655198 34.000000 24 348.109617
1.489904 -1.082853 3.870470 36.000000 22 348.109620
1.864450 -1.354586 3.839760 34.000000 20 348.109623
2.172290 -1.578248 3.628965 84.000000 18 348.109625
2.609584 -1.895268 3.574651 84.000000 16 348.109628
2.772502 -2.003262 3.441112 52.000000 15 348.109585
2.466819 -1.782394 2.535461 7.000000 13 348.109588
3.705781 -2.678591 3.082468 30.000000 11 348.109590
3.426473 -2.476706 2.298713 77.000000 9 348.109593
3.348319 -2.420215 1.757523 81.000000 7 348.109596
3.296869 -2.383902 1.285040 60.000000 5 348.109598
3.215945 -2.326242 0.845029 15.000000 3 348.109601
3.158890 -2.285811 0.442314 81.000000 1 348.109603
2.322340 -1.683560 2.172141 40.000000 12 348.109614
3.460563 -2.508708 2.596307 76.000000 10 348.109616
3.399846 -2.464694 2.028675 91.000000 8 348.109619
3.410544 -2.473358 1.554617 80.000000 6 348.109621
3.253805 -2.360556 1.060260 77.000000 4 348.109624
3.206240 -2.326903 0.644053 78.000000 2 348.109626
3.120852 -2.265764 0.249247 96.000000 0 348.109629
0.029932 -0.031237 3.404144 17.000000 31 348.109640
0.401346 -0.307805 3.215881 29.000000 28 348.109642
0.930887 -0.716111 5.669934 92.000000 27 348.109645
1.416490 -1.045723 5.672414 32.000000 25 348.109647
1.317026 -0.961071 3.900557 24.000000 23 348.109650
1.672569 -1.220087 3.859741 35.000000 21 348.109652
2.051160 -1.496264 3.801525 69.000000 19 348.109655
2.392128 -1.744996 3.620422 89.000000 17 348.109658
0.151478 -0.127931 3.258950 88.000000 30 348.109665
0.286406 -0.230495 3.380373 16.000000 29 348.109668
1.173414 -0.879190 5.678713 33.000000 26 348.109670
1.660254 -1.215984 5.650506 34.000000 24 348.109673
1.486115 -1.088048 3.870470 36.000000 22 348.109676
1.859710 -1.361086 3.839760 35.000000 20 348.109678
2.166768 -1.585822 3.628965 81.000000 18 348.109681
2.594413 -1.898813 3.563625 70.000000 16 348.109683
2.765844 -2.012445 3.441112 58.000000 15 348.109641
2.397939 -1.744758 2.472705 7.000000 13 348.109643
3.700258 -2.693326 3.085210 30.000000 11 348.109646
3.418241 -2.488055 2.298713 79.000000 9 348.109649
3.272393 -2.382769 1.723809 16.000000 7 348.109651
3.292405 -2.398220 1.286450 63.000000 5 348.109654
3.211775 -2.340346 0.845962 15.000000 3 348.109656
3.154916 -2.299757 0.442760 82.000000 1 348.109659
2.502936 -1.827841 2.840595 5.000000 14 348.109667
2.316449 -1.691656 2.172141 55.000000 12 348.109669
3.451345 -2.521374 2.596307 78.000000 10 348.109672
3.383460 -2.471784 2.024478 33.000000 8 348.109674
3.405269 -2.488628 1.556260 79.000000 6 348.109677
3.249056 -2.375335 1.061432 75.000000 4 348.109679
3.197690 -2.338639 0.644053 78.000000 2 348.109682
3.116956 -2.279593 0.249449 96.000000 0 348.109684
0.029817 -0.031347 3.404144 17.000000 31 348.109695
0.401444 -0.310225 3.225760 32.000000 28 348.109698
0.928256 -0.719519 5.669934 86.000000 27 348.109700
1.411449 -1.050016 5.667643 32.000000 25 348.109703
1.313495 -0.965891 3.900557 20.000000 23 348.109705
1.668086 -1.226209 3.859741 34.000000 21 348.109708
2.047930 -1.505439 3.805658 70.000000 19 348.109710
2.385716 -1.753752 3.620422 89.000000 17 348.109713
0.151031 -0.128459 3.258950 88.000000 30 348.109721
0.286013 -0.231831 3.385344 17.000000 29 348.109723
1.170338 -0.883280 5.678713 34.000000 26 348.109726
1.654610 -1.220747 5.645813 34.000000 24 348.109728
1.482308 -1.093228 3.870470 36.000000 22 348.109731
1.854948 -1.367570 3.839760 34.000000 20 348.109734
2.161219 -1.593375 3.628965 83.000000 18 348.109736
2.558082 -1.885282 3.523199 37.000000 16 348.109739
2.758449 -2.022569 3.441112 58.000000 15 348.109696
2.331880 -1.709799 2.413087 8.000000 13 348.109699
3.693734 -2.709343 3.087951 30.000000 11 348.109702
3.409099 -2.500567 2.298713 45.000000 9 348.109704
3.260317 -2.391435 1.721936 15.000000 7 348.109707
3.287881 -2.412536 1.287859 64.000000 5 348.109709
3.203586 -2.351543 0.845962 15.000000 3 348.109712
3.146869 -2.310756 0.442760 81.000000 1 348.109714
2.433371 -1.790096 2.770773 5.000000 14 348.109722
2.317042 -1.704522 2.178028 23.000000 12 348.109725
3.446438 -2.535360 2.598840 71.000000 10 348.109727
3.258258 -2.396929 1.957341 13.000000 8 348.109730
3.400801 -2.502706 1.557902 78.000000 6 348.109732
3.241161 -2.386096 1.061432 76.000000 4 348.109735
3.193905 -2.352167 0.644743 78.000000 2 348.109737
3.113003 -2.293423 0.249650 96.000000 0 348.109740
0.029686 -0.031411 3.399144 16.000000 31 348.109751
0.401026 -0.312032 3.230699 33.000000 28 348.109753
0.925865 -0.722593 5.669934 86.000000 27 348.109756
1.407960 -1.054691 5.667643 31.000000 25 348.109758
1.308714 -0.969079 3.895955 18.000000 23 348.109761
1.664011 -1.231734 3.859741 34.000000 21 348.109763
2.042926 -1.512222 3.805658 70.000000 19 348.109766
2.379887 -1.761654 3.620422 90.000000 17 348.109769
0.150581 -0.128985 3.258950 93.000000 30 348.109776
0.285615 -0.233166 3.390315 17.000000 29 348.109779
1.167248 -0.887360 5.678713 33.000000 26 348.109781
1.647569 -1.224456 5.636427 36.000000 24 348.109784
1.478674 -1.098138 3.870470 36.000000 22 348.109787
1.850403 -1.373713 3.839760 34.000000 20 348.109789
2.155923 -1.600533 3.628965 84.000000 18 348.109792
2.529709 -1.878034 3.493797 37.000000 16 348.109794
2.748858 -2.029587 3.437607 58.000000 15 348.109752
2.263563 -1.671277 2.350332 10.000000 13 348.109754
3.684729 -2.721576 3.087951 29.000000 11 348.109757
3.318826 -2.451320 2.245399 12.000000 9 348.109760
3.184836 -2.353212 1.688221 16.000000 7 348.109762
3.283298 -2.426850 1.289268 65.000000 5 348.109765
3.199721 -2.365074 0.846894 15.000000 3 348.109767
3.143193 -2.324140 0.443206 81.000000 1 348.109770
2.361405 -1.749253 2.697626 5.000000 14 348.109778
3.402928 -2.521707 2.573515 17.000000 10 348.109783
3.231639 -2.394777 1.946850 12.000000 8 348.109785
3.392044 -2.514561 1.557902 78.000000 6 348.109788
3.236716 -2.400290 1.062604 74.000000 4 348.109790
3.185675 -2.363301 0.644743 79.000000 2 348.109793
3.104978 -2.304276 0.249650 96.000000 0 348.109796
0.029576 -0.031515 3.399144 15.000000 31 348.109806
0.401768 -0.314870 3.245517 33.000000 28 348.109809
0.922537 -0.725191 5.665039 90.000000 27 348.109811
1.404270 -1.059599 5.667643 31.000000 25 348.109814
1.303758 -0.972474 3.891353 16.000000 23 348.109816
1.659701 -1.237535 3.859741 34.000000 21 348.109819
2.039891 -1.521026 3.809791 68.000000 19 348.109822
2.371153 -1.768034 3.616585 89.000000 17 348.109824
0.150130 -0.129510 3.258950 79.000000 30 348.109832
0.285211 -0.234502 3.395287 17.000000 29 348.109834
1.163144 -0.890664 5.673873 33.000000 26 348.109837
1.641903 -1.229166 5.631735 38.000000 24 348.109840
1.474832 -1.103293 3.870470 36.000000 22 348.109842
1.843507 -1.378602 3.835494 34.000000 20 348.109845
2.150323 -1.608049 3.628965 83.000000 18 348.109847
2.501419 -1.870610 3.464396 47.000000 16 348.109850
2.736033 -2.034913 3.430598 55.000000 15 348.109807
2.185872 -1.625734 2.278163 36.000000 13 348.109810
3.681916 -2.739414 3.093434 29.000000 11 348.109813
3.296032 -2.452312 2.236127 11.000000 9 348.109815
3.128257 -2.328332 1.663872 21.000000 7 348.109818
3.274806 -2.438296 1.289268 65.000000 5 348.109820
3.191445 -2.376228 0.846894 15.000000 3 348.109823
3.139055 -2.338072 0.443652 81.000000 1 348.109825
2.298419 -1.715052 2.634454 7.000000 14 348.109833
3.698378 -2.759693 3.443587 86.000000 12 348.109836
3.307734 -2.469097 2.510205 10.000000 10 348.109838
3.165068 -2.362605 1.913282 12.000000 8 348.109841
3.387030 -2.529212 1.559545 77.000000 6 348.109843
3.232212 -2.414483 1.063776 74.000000 4 348.109846
3.181373 -2.377371 0.645433 78.000000 2 348.109848
3.100917 -2.318091 0.249852 95.000000 0 348.109851
0.029439 -0.031583 3.394144 15.000000 31 348.109862
0.401886 -0.317234 3.255395 34.000000 28 348.109864
0.920000 -0.728407 5.665039 89.000000 27 348.109867
1.400562 -1.064494 5.667643 31.000000 25 348.109869
1.298793 -0.975845 3.886750 15.000000 23 348.109872
1.655371 -1.243320 3.859741 34.000000 21 348.109874
2.034569 -1.528137 3.809791 58.000000 19 348.109877
2.364967 -1.776300 3.616585 89.000000 17 348.109880
0.149677 -0.130033 3.258950 77.000000 30 348.109887
0.284802 -0.235837 3.400258 17.000000 29 348.109890
1.160028 -0.894719 5.673873 34.000000 26 348.109892
1.627958 -1.227617 5.598885 51.000000 24 348.109895
1.470972 -1.108434 3.870470 36.000000 22 348.109898
1.838684 -1.385028 3.835494 34.000000 20 348.109900
2.144697 -1.615546 3.628965 83.000000 18 348.109903
2.494874 -1.879330 3.464396 64.000000 16 348.109905
2.720351 -2.038037 3.420084 34.000000 15 348.109863
2.170837 -1.626352 2.268750 49.000000 13 348.109866
3.672331 -2.752250 3.093434 28.000000 11 348.109868
3.230731 -2.421292 2.199038 10.000000 9 348.109871
3.086727 -2.314209 1.647014 38.000000 7 348.109873
3.270113 -2.452591 1.290677 65.000000 5 348.109876
3.187061 -2.390302 0.847827 15.000000 3 348.109878
3.130875 -2.349015 0.443652 80.000000 1 348.109881
2.238686 -1.682677 2.574607 8.000000 14 348.109889
3.685491 -2.770157 3.440644 86.000000 12 348.109891
3.292203 -2.475446 2.505140 10.000000 10 348.109894
3.109645 -2.338181 1.886007 12.000000 8 348.109896
3.381954 -2.543858 1.561188 75.000000 6 348.109899
3.227648 -2.428673 1.064949 74.000000 4 348.109901
3.177012 -2.391440 0.646123 78.000000 2 348.109904
3.092806 -2.328902 0.249852 95.000000 0 348.109907
0.029329 -0.031686 3.394144 14.000000 31 348.109917
0.402599 -0.320087 3.270213 34.000000 28 348.109920
0.917452 -0.731613 5.665039 89.000000 27 348.109922
1.395652 -1.068469 5.662871 32.000000 25 348.109925
1.295379 -0.980373 3.886750 14.000000 23 348.109927
1.651021 -1.249091 3.859741 34.000000 21 348.109930
2.029222 -1.535230 3.809791 50.000000 19 348.109933
2.358752 -1.784545 3.616585 90.000000 17 348.109935
0.149006 -0.130363 3.253958 77.000000 30 348.109943
0.284795 -0.237515 3.410201 17.000000 29 348.109945
1.156898 -0.898763 5.673873 34.000000 26 348.109948
1.633282 -1.240598 5.631735 36.000000 24 348.109951
1.467094 -1.113562 3.870470 35.000000 22 348.109953
1.833838 -1.391438 3.835494 34.000000 20 348.109956
2.139045 -1.623022 3.628965 83.000000 18 348.109958
2.485598 -1.885978 3.460721 65.000000 16 348.109961
2.593662 -1.957295 3.272893 9.000000 15 348.109918
2.177576 -1.643300 2.281301 73.000000 13 348.109921
3.615980 -2.729781 3.055053 17.000000 11 348.109924
3.169222 -2.392516 2.164268 10.000000 9 348.109926
3.063832 -2.313794 1.639522 55.000000 7 348.109929
3.265360 -2.466882 1.292086 66.000000 5 348.109931
3.178698 -2.401412 0.847827 15.000000 3 348.109934
3.126629 -2.362932 0.444099 82.000000 1 348.109936
2.185162 -1.654415 2.521409 9.000000 14 348.109944
3.675799 -2.783005 3.440644 85.000000 12 348.109947
3.211370 -2.432260 2.451959 10.000000 10 348.109949
3.050813 -2.310658 1.856634 12.000000 8 348.109952
