# .PCD v.7 - Point Cloud Data file format
VERSION .7
FIELDS x y z intensity ring timestamp
SIZE 4 4 4 4 2 8
TYPE F F F F U D
COUNT 1 1 1 1 1 1
WIDTH 922
HEIGHT 1
VIEWPOINT 0 0 0 1 0 0 0
POINTS 922
DATA ascii
0.313642 -1.480626 1.302314 39.000000 13 348.721893
0.308682 -1.458467 1.062008 39.000000 11 348.721896
0.304848 -1.440362 0.856901 44.000000 9 348.721899
0.300623 -1.420401 0.674910 44.000000 7 348.721901
0.297823 -1.408386 0.512801 45.000000 5 348.721904
0.295495 -1.398583 0.362865 36.000000 3 348.721906
0.290027 -1.373885 0.218763 26.000000 1 348.721909
0.311824 -1.483522 1.430859 38.000000 14 348.721917
0.306499 -1.458199 1.168524 39.000000 12 348.721919
0.303656 -1.444674 0.952762 47.000000 10 348.721922
0.301764 -1.435686 0.765647 55.000000 8 348.721924
0.298081 -1.419395 0.593646 52.000000 6 348.721927
0.294481 -1.403470 0.436587 42.000000 4 348.721929
0.290577 -1.386068 0.289488 28.000000 2 348.721932
0.289801 -1.383567 0.150699 34.000000 0 348.721934
0.000034 -0.061754 5.529063 36.000000 31 348.721945
0.154293 -0.848518 5.483001 105.000000 28 348.721948
0.201193 -1.113672 5.464334 64.000000 27 348.721950
0.228550 -1.136018 3.749410 39.000000 25 348.721953
0.314929 -1.521969 3.721059 36.000000 23 348.721955
0.337253 -1.628455 3.113669 23.000000 21 348.721958
0.324845 -1.568556 2.425253 31.000000 19 348.721960
0.318304 -1.536982 1.955188 36.000000 17 348.721963
0.042984 -0.326627 5.520148 36.000000 30 348.721971
0.092559 -0.588385 5.503165 102.000000 29 348.721973
0.183296 -0.945517 3.743031 40.000000 26 348.721976
0.272714 -1.329623 3.745242 38.000000 24 348.721978
0.340446 -1.656967 3.559912 14.000000 22 348.721981
0.327620 -1.593153 2.730617 29.000000 20 348.721984
0.317439 -1.543656 2.160830 36.000000 18 348.721986
0.310255 -1.508731 1.748094 36.000000 16 348.721989
0.312181 -1.498208 1.583702 37.000000 15 348.721946
0.307936 -1.477847 1.299176 39.000000 13 348.721949
0.302992 -1.455389 1.059266 40.000000 11 348.721951
0.300069 -1.441365 0.856901 45.000000 9 348.721954
0.295663 -1.421441 0.674910 44.000000 7 348.721957
0.292905 -1.409417 0.512801 45.000000 5 348.721959
0.289856 -1.394746 0.361932 36.000000 3 348.721962
0.285469 -1.374839 0.218763 26.000000 1 348.721964
0.306147 -1.480891 1.427534 38.000000 14 348.721972
0.301661 -1.459207 1.168524 39.000000 12 348.721975
0.297739 -1.441503 0.950230 45.000000 10 348.721977
0.295833 -1.432286 0.763549 55.000000 8 348.721980
0.292170 -1.415802 0.592004 52.000000 6 348.721982
0.288599 -1.399729 0.435414 42.000000 4 348.721985
0.284738 -1.382223 0.288798 27.000000 2 348.721987
0.283963 -1.379677 0.150497 34.000000 0 348.721990
-0.000181 -0.061754 5.529063 36.000000 31 348.722001
0.151330 -0.849052 5.483001 105.000000 28 348.722003
0.197481 -1.115370 5.469230 86.000000 27 348.722006
0.224583 -1.136809 3.749410 39.000000 25 348.722008
0.309614 -1.523059 3.721059 36.000000 23 348.722011
0.330611 -1.624927 3.104891 24.000000 21 348.722013
0.318246 -1.564165 2.416987 31.000000 19 348.722016
0.312298 -1.534942 1.951351 36.000000 17 348.722019
0.041843 -0.326775 5.520148 38.000000 30 348.722026
0.090585 -0.589233 5.508136 103.000000 29 348.722029
0.179995 -0.946151 3.743031 40.000000 26 348.722031
0.268071 -1.330567 3.745242 38.000000 24 348.722034
0.333799 -1.653875 3.550910 14.000000 22 348.722037
0.321024 -1.589174 2.722085 29.000000 20 348.722039
0.311452 -1.541800 2.156841 36.000000 18 348.722042
0.304315 -1.506481 1.744419 37.000000 16 348.722044
0.306234 -1.495795 1.580198 37.000000 15 348.722002
0.301995 -1.475099 1.296039 39.000000 13 348.722004
0.297072 -1.452341 1.056525 40.000000 11 348.722007
0.294149 -1.438064 0.854583 45.000000 9 348.722010
0.289771 -1.417923 0.673037 44.000000 7 348.722012
0.287024 -1.405730 0.511392 43.000000 5 348.722015
0.284986 -1.395749 0.361932 36.000000 3 348.722017
0.279673 -1.370948 0.218316 26.000000 1 348.722020
0.300232 -1.478291 1.424209 38.000000 14 348.722028
0.295761 -1.456290 1.165580 39.000000 12 348.722030
0.291848 -1.438308 0.947698 45.000000 10 348.722033
0.290831 -1.433310 0.763549 55.000000 8 348.722035
0.287227 -1.416813 0.592004 52.000000 6 348.722038
0.283711 -1.400728 0.435414 40.000000 4 348.722040
0.279912 -1.383209 0.288798 27.000000 2 348.722043
0.279145 -1.380660 0.150497 34.000000 0 348.722045
-0.000397 -0.061753 5.529063 36.000000 31 348.722056
0.148366 -0.849575 5.483001 105.000000 28 348.722059
0.194108 -1.119063 5.483915 94.000000 27 348.722061
0.220614 -1.137586 3.749410 39.000000 25 348.722064
0.304296 -1.524131 3.721059 34.000000 23 348.722066
0.323998 -1.621373 3.096114 24.000000 21 348.722069
0.312233 -1.562507 2.412854 32.000000 19 348.722071
0.306310 -1.532879 1.947514 36.000000 17 348.722074
0.040737 -0.327206 5.525140 38.000000 30 348.722082
0.088528 -0.589545 5.508136 103.000000 29 348.722084
0.176691 -0.946774 3.743031 43.000000 26 348.722087
0.263425 -1.331495 3.745242 38.000000 24 348.722089
0.327177 -1.650758 3.541909 15.000000 22 348.722092
0.314460 -1.585169 2.713554 29.000000 20 348.722095
0.305482 -1.539921 2.152851 35.000000 18 348.722097
0.297735 -1.500884 1.737069 37.000000 16 348.722100
0.300308 -1.493359 1.576693 37.000000 15 348.722057
0.296076 -1.472328 1.292901 39.000000 13 348.722060
0.292000 -1.453369 1.056525 40.000000 11 348.722063
0.288254 -1.434738 0.852265 45.000000 9 348.722065
0.283907 -1.414380 0.671164 44.000000 7 348.722068
0.281172 -1.402020 0.509983 43.000000 5 348.722070
0.279146 -1.391919 0.360999 36.000000 3 348.722073
0.274886 -1.371916 0.218316 26.000000 1 348.722075
0.295070 -1.479330 1.424209 38.000000 14 348.722083
0.289886 -1.453349 1.162637 39.000000 12 348.722086
0.286826 -1.439318 0.947698 45.000000 10 348.722088
0.284939 -1.429865 0.761451 55.000000 8 348.722091
0.281357 -1.413175 0.590361 52.000000 6 348.722093
0.277872 -1.396943 0.434242 40.000000 4 348.722096
0.274116 -1.379320 0.288108 27.000000 2 348.722098
0.273351 -1.376726 0.150296 34.000000 0 348.722101
-0.000613 -0.061751 5.529063 36.000000 31 348.722112
0.145399 -0.850087 5.483001 104.000000 28 348.722114
0.190030 -1.118729 5.479020 96.000000 27 348.722117
0.216641 -1.138349 3.749410 40.000000 25 348.722119
0.298598 -1.523266 3.716457 34.000000 23 348.722122
0.317414 -1.617792 3.087337 24.000000 21 348.722124
0.305693 -1.558064 2.404588 33.000000 19 348.722127
0.299723 -1.527647 1.939841 36.000000 17 348.722130
0.039595 -0.327346 5.525140 38.000000 30 348.722137
0.086469 -0.589851 5.508136 103.000000 29 348.722140
0.173385 -0.947385 3.743031 43.000000 26 348.722142
0.258776 -1.332406 3.745242 39.000000 24 348.722145
0.320581 -1.647615 3.532907 15.000000 22 348.722148
0.307928 -1.581137 2.705022 28.000000 20 348.722150
0.299528 -1.538020 2.148862 36.000000 18 348.722153
0.291846 -1.498586 1.733393 36.000000 16 348.722155
0.293712 -1.487401 1.569684 38.000000 15 348.722113
0.290181 -1.469533 1.289763 38.000000 13 348.722115
0.286116 -1.450277 1.053783 39.000000 11 348.722118
0.282387 -1.431389 0.849947 45.000000 9 348.722121
0.278072 -1.410814 0.669291 46.000000 7 348.722123
0.275349 -1.398286 0.508574 40.000000 5 348.722126
0.274286 -1.392885 0.360999 35.000000 3 348.722128
0.269134 -1.367981 0.217870 26.000000 1 348.722131
0.289187 -1.476686 1.420884 38.000000 14 348.722139
0.284034 -1.450386 1.159694 39.000000 12 348.722141
0.280972 -1.436079 0.945165 42.000000 10 348.722144
0.279075 -1.426397 0.759353 55.000000 8 348.722146
0.276422 -1.414149 0.590361 52.000000 6 348.722149
0.272994 -1.397904 0.434242 40.000000 4 348.722151
0.269300 -1.380269 0.288108 26.000000 2 348.722154
0.267588 -1.372768 0.150094 34.000000 0 348.722157
-0.000828 -0.061748 5.529063 36.000000 31 348.722167
0.142431 -0.850590 5.483001 103.000000 28 348.722170
0.186290 -1.120391 5.483915 96.000000 27 348.722172
0.212666 -1.139098 3.749410 40.000000 25 348.722175
0.293279 -1.524300 3.716457 36.000000 23 348.722177
0.310859 -1.614185 3.078559 22.000000 21 348.722180
0.299720 -1.556359 2.400455 33.000000 19 348.722183
0.293782 -1.525536 1.936003 36.000000 17 348.722185
0.038509 -0.327476 5.525140 38.000000 30 348.722193
0.084513 -0.590134 5.508136 103.000000 29 348.722195
0.170242 -0.947954 3.743031 41.000000 26 348.722198
0.254356 -1.333257 3.745242 38.000000 24 348.722201
0.314011 -1.644446 3.523906 15.000000 22 348.722203
0.301917 -1.579640 2.700756 28.000000 20 348.722206
0.293026 -1.533135 2.140883 36.000000 18 348.722208
0.286238 -1.496216 1.729718 37.000000 16 348.722211
0.288518 -1.488417 1.569684 38.000000 15 348.722168
0.284309 -1.466715 1.286625 38.000000 13 348.722171
0.280257 -1.447162 1.051042 40.000000 11 348.722174
0.277389 -1.432366 0.849947 47.000000 9 348.722176
0.272511 -1.407177 0.667418 46.000000 7 348.722179
0.270711 -1.399191 0.508574 40.000000 5 348.722181
0.268490 -1.389011 0.360067 36.000000 3 348.722184
0.264357 -1.368912 0.217870 26.000000 1 348.722186
0.283326 -1.474020 1.417560 39.000000 14 348.722194
0.278206 -1.447399 1.156751 39.000000 12 348.722197
0.275394 -1.432769 0.942633 44.000000 10 348.722199
0.273487 -1.422858 0.757255 53.000000 8 348.722202
0.270841 -1.410420 0.588718 52.000000 6 348.722204
0.267441 -1.394028 0.433070 40.000000 4 348.722207
0.263789 -1.376291 0.287418 26.000000 2 348.722209
0.262094 -1.368741 0.149893 34.000000 0 348.722212
-0.001033 -0.061745 5.529063 36.000000 31 348.722223
0.139609 -0.851057 5.483001 105.000000 28 348.722225
0.182574 -1.121002 5.483915 97.000000 27 348.722228
0.208888 -1.139797 3.749410 40.000000 25 348.722230
0.288223 -1.525264 3.716457 36.000000 23 348.722233
0.304614 -1.610499 3.069782 22.000000 21 348.722235
0.293512 -1.551814 2.392190 33.000000 19 348.722238
0.287530 -1.520202 1.928330 36.000000 17 348.722241
0.037366 -0.327608 5.525140 36.000000 30 348.722248
0.082379 -0.589897 5.503165 103.000000 29 348.722251
0.166932 -0.948543 3.743031 41.000000 26 348.722253
0.249700 -1.334137 3.745242 38.000000 24 348.722256
0.307753 -1.641197 3.514904 15.000000 22 348.722259
0.295715 -1.575506 2.692224 30.000000 20 348.722261
0.287385 -1.531136 2.136893 36.000000 18 348.722264
0.279763 -1.490542 1.722368 37.000000 16 348.722266
0.282914 -1.485862 1.566179 38.000000 15 348.722224
0.278715 -1.463826 1.283488 39.000000 13 348.722227
0.274675 -1.443976 1.048300 40.000000 11 348.722229
0.271809 -1.428926 0.847629 47.000000 9 348.722232
0.266732 -1.403566 0.665545 46.000000 7 348.722234
0.264930 -1.395414 0.507164 40.000000 5 348.722237
0.262966 -1.385068 0.359134 35.000000 3 348.722239
0.258888 -1.364888 0.217424 26.000000 1 348.722242
0.277743 -1.471281 1.414235 39.000000 14 348.722250
0.272655 -1.444342 1.153808 39.000000 12 348.722252
0.269593 -1.429485 0.940100 44.000000 10 348.722255
0.267677 -1.419344 0.755157 55.000000 8 348.722257
0.265042 -1.406716 0.587075 52.000000 6 348.722260
0.262573 -1.394953 0.433070 40.000000 4 348.722262
0.258983 -1.377203 0.287418 25.000000 2 348.722265
0.256393 -1.364737 0.149691 34.000000 0 348.722268
-0.001248 -0.061741 5.529063 35.000000 31 348.722278
0.136638 -0.851539 5.483001 105.000000 28 348.722281
0.178660 -1.121633 5.483915 97.000000 27 348.722283
0.204644 -1.139049 3.744638 40.000000 25 348.722286
0.282897 -1.526261 3.716457 36.000000 23 348.722288
0.298116 -1.606841 3.061005 23.000000 21 348.722291
0.287580 -1.550062 2.388057 33.000000 19 348.722294
0.281637 -1.518044 1.924493 36.000000 17 348.722296
0.036222 -0.327737 5.525140 36.000000 30 348.722304
0.080320 -0.590181 5.503165 103.000000 29 348.722306
0.163620 -0.949120 3.743031 40.000000 26 348.722309
0.245042 -1.335000 3.745242 38.000000 24 348.722312
0.301235 -1.637978 3.505902 15.000000 22 348.722314
0.289742 -1.573964 2.687958 30.000000 20 348.722317
0.280947 -1.526202 2.128914 36.000000 18 348.722319
0.273945 -1.488176 1.718693 37.000000 16 348.722322
0.277071 -1.483335 1.562675 38.000000 15 348.722279
0.272889 -1.460963 1.280350 39.000000 13 348.722282
0.268866 -1.440815 1.045559 40.000000 11 348.722285
0.266007 -1.425511 0.845311 47.000000 9 348.722287
0.260981 -1.399930 0.663672 44.000000 7 348.722290
0.259179 -1.391614 0.505755 40.000000 5 348.722292
0.257230 -1.381148 0.358202 35.000000 3 348.722295
0.254122 -1.365783 0.217424 25.000000 1 348.722297
0.271926 -1.468570 1.410910 39.000000 14 348.722305
0.266876 -1.441310 1.150865 38.000000 12 348.722308
0.263817 -1.426178 0.937568 42.000000 10 348.722310
0.262721 -1.420269 0.755157 52.000000 8 348.722313
0.259271 -1.402989 0.585433 52.000000 6 348.722315
0.256820 -1.391081 0.431897 40.000000 4 348.722318
0.253276 -1.373229 0.286729 25.000000 2 348.722321
0.251627 -1.365624 0.149691 34.000000 0 348.722323
-0.001468 -0.061780 5.534063 35.000000 31 348.722334
0.133665 -0.852011 5.483001 105.000000 28 348.722336
0.174744 -1.122249 5.483915 97.000000 27 348.722339
0.200667 -1.139757 3.744638 39.000000 25 348.722341
0.277567 -1.527239 3.716457 37.000000 23 348.722344
0.291648 -1.603158 3.052227 23.000000 21 348.722347
0.281160 -1.545519 2.379791 33.000000 19 348.722349
0.275763 -1.515864 1.920656 36.000000 17 348.722352
0.035078 -0.327861 5.525140 36.000000 30 348.722359
0.078259 -0.590458 5.503165 103.000000 29 348.722362
0.160306 -0.949685 3.743031 40.000000 26 348.722365
0.240380 -1.335847 3.745242 38.000000 24 348.722367
0.294742 -1.634733 3.496901 15.000000 22 348.722370
0.283319 -1.569833 2.679426 30.000000 20 348.722372
0.275083 -1.524207 2.124924 36.000000 18 348.722375
0.268146 -1.485786 1.715018 37.000000 16 348.722377
0.271248 -1.480785 1.559170 38.000000 15 348.722335
0.267086 -1.458078 1.277212 39.000000 13 348.722338
0.263835 -1.441745 1.045559 40.000000 11 348.722340
0.260232 -1.422073 0.842993 45.000000 9 348.722343
0.256093 -1.400833 0.663672 44.000000 7 348.722345
0.253458 -1.387792 0.504346 40.000000 5 348.722348
0.251525 -1.377205 0.357269 34.000000 3 348.722350
0.249353 -1.366662 0.217424 25.000000 1 348.722353
0.266131 -1.465836 1.407585 39.000000 14 348.722361
0.261121 -1.438256 1.147921 38.000000 12 348.722363
0.258068 -1.422849 0.935036 42.000000 10 348.722366
0.256952 -1.416712 0.753058 52.000000 8 348.722368
0.254372 -1.403885 0.585433 54.000000 6 348.722371
0.251097 -1.387187 0.430725 40.000000 4 348.722373
0.247600 -1.369231 0.286039 25.000000 2 348.722376
0.245971 -1.361578 0.149489 34.000000 0 348.722379
-0.001683 -0.061774 5.534063 35.000000 31 348.722389
0.130690 -0.852473 5.483001 105.000000 28 348.722392
0.170825 -1.122852 5.483915 97.000000 27 348.722394
0.196687 -1.140450 3.744638 39.000000 25 348.722397
0.271892 -1.526275 3.711854 36.000000 23 348.722399
0.285209 -1.599449 3.043450 23.000000 21 348.722402
0.274776 -1.540951 2.371525 33.000000 19 348.722404
0.269907 -1.513661 1.916819 36.000000 17 348.722407
0.033933 -0.327982 5.525140 36.000000 30 348.722415
0.076197 -0.590727 5.503165 104.000000 29 348.722417
0.156785 -0.948998 3.738191 42.000000 26 348.722420
0.235716 -1.336678 3.745242 39.000000 24 348.722422
0.288276 -1.631463 3.487899 15.000000 22 348.722425
0.277384 -1.568244 2.675160 31.000000 20 348.722427
0.269236 -1.522190 2.120935 36.000000 18 348.722430
0.262368 -1.483375 1.711342 37.000000 16 348.722433
0.265448 -1.478213 1.555666 38.000000 15 348.722390
0.261307 -1.455169 1.274074 39.000000 13 348.722393
0.258062 -1.438541 1.042817 40.000000 11 348.722395
0.255267 -1.422973 0.842993 45.000000 9 348.722398
0.250384 -1.397155 0.661799 44.000000 7 348.722401
0.248612 -1.388668 0.504346 40.000000 5 348.722403
0.245850 -1.373239 0.356336 34.000000 3 348.722406
0.244581 -1.367524 0.217424 24.000000 1 348.722408
0.260358 -1.463079 1.404260 39.000000 14 348.722416
0.255391 -1.435179 1.144978 38.000000 12 348.722419
0.252345 -1.419496 0.932503 42.000000 10 348.722421
0.251211 -1.413132 0.750960 52.000000 8 348.722424
0.248645 -1.400115 0.583790 54.000000 6 348.722426
0.245404 -1.383269 0.429553 40.000000 4 348.722429
0.242819 -1.370087 0.286039 24.000000 2 348.722431
0.240345 -1.357508 0.149288 33.000000 0 348.722434
-0.001899 -0.061768 5.534063 35.000000 31 348.722445
0.127713 -0.852924 5.483001 104.000000 28 348.722447
0.166905 -1.123442 5.483915 97.000000 27 348.722450
0.192705 -1.141130 3.744638 39.000000 25 348.722452
0.266563 -1.527215 3.711854 36.000000 23 348.722455
0.278800 -1.595715 3.034673 24.000000 21 348.722457
0.268911 -1.539129 2.367392 33.000000 19 348.722460
0.264070 -1.511436 1.912982 36.000000 17 348.722462
0.032788 -0.328098 5.525140 36.000000 30 348.722470
0.074135 -0.590990 5.503165 104.000000 29 348.722473
0.153472 -0.949539 3.738191 42.000000 26 348.722475
0.230755 -1.335792 3.740550 39.000000 24 348.722478
0.281466 -1.626022 3.474396 15.000000 22 348.722480
0.271017 -1.564063 2.666628 31.000000 20 348.722483
0.263406 -1.520151 2.116946 36.000000 18 348.722486
0.256609 -1.480941 1.707667 37.000000 16 348.722488
0.259668 -1.475618 1.552161 38.000000 15 348.722446
0.255551 -1.452239 1.270936 39.000000 13 348.722448
0.252315 -1.435315 1.040076 40.000000 11 348.722451
0.249531 -1.419492 0.840675 47.000000 9 348.722453
0.245505 -1.398021 0.661799 42.000000 7 348.722456
0.242935 -1.384802 0.502937 40.000000 5 348.722459
0.240207 -1.369251 0.355404 34.000000 3 348.722461
0.238946 -1.363464 0.216978 22.000000 1 348.722464
0.254608 -1.460300 1.400935 39.000000 14 348.722471
0.249686 -1.432080 1.142035 38.000000 12 348.722474
0.247388 -1.420368 0.932503 42.000000 10 348.722477
0.245498 -1.409529 0.748862 54.000000 8 348.722479
0.242946 -1.396322 0.582147 54.000000 6 348.722482
0.240574 -1.384117 0.429553 40.000000 4 348.722484
0.237188 -1.366047 0.285349 24.000000 2 348.722487
0.235605 -1.358339 0.149288 33.000000 0 348.722489
-0.002115 -0.061761 5.534063 31.000000 31 348.722500
0.124735 -0.853364 5.483001 104.000000 28 348.722503
0.162982 -1.124018 5.483915 97.000000 27 348.722505
0.188720 -1.141795 3.744638 39.000000 25 348.722508
0.261230 -1.528136 3.711854 36.000000 23 348.722510
0.272420 -1.591956 3.025896 25.000000 21 348.722513
0.262587 -1.534510 2.359126 33.000000 19 348.722515
0.258252 -1.509188 1.909145 37.000000 17 348.722518
0.031642 -0.328211 5.525140 36.000000 30 348.722526
0.072072 -0.591245 5.503165 103.000000 29 348.722528
0.150156 -0.950069 3.738191 40.000000 26 348.722531
0.226091 -1.336590 3.740550 38.000000 24 348.722533
0.275060 -1.622700 3.465394 15.000000 22 348.722536
0.265120 -1.562428 2.662362 31.000000 20 348.722539
0.257594 -1.518090 2.112956 37.000000 18 348.722541
0.250871 -1.478486 1.703992 37.000000 16 348.722544
0.253910 -1.473001 1.548657 38.000000 15 348.722501
0.249819 -1.449286 1.267799 38.000000 13 348.722504
0.246594 -1.432066 1.037334 40.000000 11 348.722506
0.243823 -1.415988 0.838357 47.000000 9 348.722509
0.239838 -1.394300 0.659926 44.000000 7 348.722512
0.237287 -1.380913 0.501528 40.000000 5 348.722514
0.234594 -1.365240 0.354471 33.000000 3 348.722517
0.234185 -1.364290 0.216978 22.000000 1 348.722519
0.248881 -1.457499 1.397611 39.000000 14 348.722527
0.244005 -1.428959 1.139092 38.000000 12 348.722530
0.241704 -1.416973 0.929971 44.000000 10 348.722532
0.240576 -1.410378 0.748862 52.000000 8 348.722535
0.238071 -1.397161 0.582147 54.000000 6 348.722537
0.234926 -1.380157 0.428380 39.000000 4 348.722540
0.231588 -1.361985 0.284659 24.000000 2 348.722542
0.230026 -1.354228 0.149086 33.000000 0 348.722545
-0.002330 -0.061753 5.534063 31.000000 31 348.722556
0.121756 -0.853794 5.483001 104.000000 28 348.722558
0.158915 -1.123572 5.479020 97.000000 27 348.722561
0.184495 -1.140973 3.739866 39.000000 25 348.722563
0.255894 -1.529038 3.711854 36.000000 23 348.722566
0.266069 -1.588171 3.017118 25.000000 21 348.722568
0.256764 -1.532642 2.354993 33.000000 19 348.722571
0.252453 -1.506919 1.905308 37.000000 17 348.722573
0.030497 -0.328319 5.525140 36.000000 30 348.722581
0.070007 -0.591493 5.503165 103.000000 29 348.722584
0.146839 -0.950588 3.738191 40.000000 26 348.722586
0.221424 -1.337371 3.740550 38.000000 24 348.722589
0.268681 -1.619354 3.456393 15.000000 22 348.722591
0.259237 -1.560772 2.658096 31.000000 20 348.722594
0.251305 -1.513033 2.104977 36.000000 18 348.722597
0.245153 -1.476008 1.700317 37.000000 16 348.722599
0.248173 -1.470362 1.545152 38.000000 15 348.722557
0.244111 -1.446310 1.264661 38.000000 13 348.722559
0.240898 -1.428795 1.034593 40.000000 11 348.722562
0.238879 -1.416831 0.838357 45.000000 9 348.722565
0.234969 -1.395129 0.659926 46.000000 7 348.722567
0.232465 -1.381733 0.501528 40.000000 5 348.722570
0.229012 -1.361206 0.353538 33.000000 3 348.722572
0.228596 -1.360188 0.216532 24.000000 1 348.722575
0.243176 -1.454676 1.394286 39.000000 14 348.722583
0.239015 -1.429802 1.139092 39.000000 12 348.722585
0.236046 -1.413556 0.927438 44.000000 10 348.722588
0.234904 -1.406732 0.746764 52.000000 8 348.722590
0.232415 -1.393326 0.580505 54.000000 6 348.722593
0.230106 -1.380968 0.428380 39.000000 4 348.722595
0.226832 -1.362785 0.284659 23.000000 2 348.722598
0.224478 -1.350094 0.148885 34.000000 0 348.722600
-0.002546 -0.061745 5.534063 35.000000 31 348.722611
0.118775 -0.854214 5.483001 103.000000 28 348.722614
0.154992 -1.124119 5.479020 97.000000 27 348.722616
0.180511 -1.141610 3.739866 39.000000 25 348.722619
0.250555 -1.529922 3.711854 37.000000 23 348.722621
0.259749 -1.584362 3.008341 25.000000 21 348.722624
0.250502 -1.527975 2.346727 33.000000 19 348.722626
0.246672 -1.504627 1.901471 37.000000 17 348.722629
0.029383 -0.328130 5.520148 38.000000 30 348.722637
0.068045 -0.591722 5.503165 104.000000 29 348.722639
0.143498 -0.949826 3.733352 40.000000 26 348.722642
0.216988 -1.338098 3.740550 39.000000 24 348.722644
0.262329 -1.615982 3.447391 15.000000 22 348.722647
0.252950 -1.556518 2.649565 31.000000 20 348.722650
0.245539 -1.510926 2.100987 36.000000 18 348.722652
0.239713 -1.473467 1.696642 37.000000 16 348.722655
0.242458 -1.467700 1.541648 38.000000 15 348.722612
0.238427 -1.443313 1.261523 39.000000 13 348.722615
0.235229 -1.425501 1.031851 40.000000 11 348.722617
0.233210 -1.413285 0.836038 45.000000 9 348.722620
0.229587 -1.391327 0.658053 42.000000 7 348.722623
0.227102 -1.377763 0.500118 40.000000 5 348.722625
0.224259 -1.361997 0.353538 33.000000 3 348.722628
0.223039 -1.356064 0.216085 25.000000 1 348.722630
0.238097 -1.455516 1.394286 39.000000 14 348.722638
0.233371 -1.426638 1.136149 39.000000 12 348.722641
0.230661 -1.410076 0.924906 42.000000 10 348.722643
0.230238 -1.407503 0.746764 52.000000 8 348.722646
0.227794 -1.394089 0.580505 54.000000 6 348.722648
0.224743 -1.376927 0.427208 39.000000 4 348.722651
0.221515 -1.358642 0.283969 22.000000 2 348.722653
0.219999 -1.350831 0.148885 33.000000 0 348.722656
-0.002746 -0.061693 5.529063 35.000000 31 348.722667
0.115941 -0.854603 5.483001 103.000000 28 348.722669
0.151264 -1.124627 5.479020 97.000000 27 348.722672
0.176725 -1.142202 3.739866 38.000000 25 348.722674
0.245480 -1.530745 3.711854 37.000000 23 348.722677
0.253734 -1.580484 2.999564 25.000000 21 348.722679
0.244988 -1.526019 2.342594 33.000000 19 348.722682
0.241173 -1.502272 1.897634 37.000000 17 348.722685
0.028237 -0.328230 5.520148 37.000000 30 348.722692
0.065980 -0.591955 5.503165 104.000000 29 348.722695
0.140182 -0.950321 3.733352 41.000000 26 348.722697
0.212316 -1.338847 3.740550 39.000000 24 348.722700
0.256627 -1.614693 3.442891 15.000000 22 348.722703
0.247378 -1.554773 2.645299 31.000000 20 348.722705
0.239580 -1.505779 2.093009 36.000000 18 348.722708
0.234036 -1.470946 1.692967 37.000000 16 348.722710
0.237020 -1.464976 1.538143 38.000000 15 348.722668
0.233639 -1.444095 1.261523 38.000000 13 348.722670
0.229833 -1.422146 1.029110 40.000000 11 348.722673
0.227815 -1.409677 0.833720 45.000000 9 348.722676
0.224729 -1.392120 0.658053 42.000000 7 348.722678
0.222291 -1.378548 0.500118 40.000000 5 348.722681
0.219741 -1.362733 0.353538 33.000000 3 348.722683
0.217749 -1.351879 0.215639 24.000000 1 348.722686
0.232678 -1.452610 1.390961 39.000000 14 348.722694
0.227999 -1.423413 1.133206 39.000000 12 348.722696
0.225738 -1.410873 0.924906 42.000000 10 348.722699
0.224606 -1.403817 0.744666 52.000000 8 348.722701
0.222181 -1.390212 0.578862 54.000000 6 348.722704
0.219935 -1.377703 0.427208 39.000000 4 348.722706
0.216771 -1.359407 0.283969 22.000000 2 348.722709
0.214497 -1.346657 0.148683 33.000000 0 348.722711
-0.002961 -0.061683 5.529063 35.000000 31 348.722722
0.112957 -0.855003 5.483001 104.000000 28 348.722725
0.147337 -1.125149 5.479020 94.000000 27 348.722727
0.172514 -1.141335 3.735095 38.000000 25 348.722730
0.240136 -1.531592 3.711854 37.000000 23 348.722732
0.247473 -1.576626 2.990786 25.000000 21 348.722735
0.239223 -1.524085 2.338461 33.000000 19 348.722737
0.235431 -1.499937 1.893797 37.000000 17 348.722740
0.027091 -0.328327 5.520148 37.000000 30 348.722748
0.063913 -0.592182 5.503165 103.000000 29 348.722750
0.136864 -0.950804 3.733352 40.000000 26 348.722753
0.207641 -1.339580 3.740550 39.000000 24 348.722755
0.250655 -1.613427 3.438390 16.000000 22 348.722758
0.241147 -1.550473 2.636767 31.000000 20 348.722761
0.233859 -1.503628 2.089019 37.000000 18 348.722763
0.228379 -1.468404 1.689291 37.000000 16 348.722766
0.231347 -1.462272 1.534639 38.000000 15 348.722723
0.227988 -1.441057 1.258385 38.000000 13 348.722726
0.224215 -1.418809 1.026368 40.000000 11 348.722729
0.222202 -1.406088 0.831402 45.000000 9 348.722731
0.219145 -1.388316 0.656180 44.000000 7 348.722734
0.216731 -1.374576 0.498709 40.000000 5 348.722736
0.214218 -1.358640 0.352606 33.000000 3 348.722739
0.213028 -1.352631 0.215639 24.000000 1 348.722741
0.227029 -1.449724 1.387636 39.000000 14 348.722749
0.222404 -1.420207 1.130262 39.000000 12 348.722752
0.220145 -1.407393 0.922373 42.000000 10 348.722754
0.219003 -1.400108 0.742568 50.000000 8 348.722757
0.216598 -1.386313 0.577219 52.000000 6 348.722759
0.214375 -1.373659 0.426036 39.000000 4 348.722762
0.212024 -1.360155 0.283969 22.000000 2 348.722764
0.209795 -1.347398 0.148683 33.000000 0 348.722767
-0.003176 -0.061672 5.529063 35.000000 31 348.722778
0.109873 -0.854621 5.478061 104.000000 28 348.722780
0.143409 -1.125656 5.479020 94.000000 27 348.722783
0.168529 -1.141930 3.735095 38.000000 25 348.722785
0.234788 -1.532421 3.711854 36.000000 23 348.722788
0.241604 -1.575112 2.986398 25.000000 21 348.722790
0.233475 -1.522130 2.334328 33.000000 19 348.722793
0.229708 -1.497581 1.889960 37.000000 17 348.722796
0.025945 -0.328420 5.520148 36.000000 30 348.722803
0.061845 -0.592402 5.503165 103.000000 29 348.722806
0.133544 -0.951276 3.733352 40.000000 26 348.722808
0.202963 -1.340297 3.740550 39.000000 24 348.722811
0.244368 -1.609986 3.429388 16.000000 22 348.722814
0.235342 -1.548727 2.632501 31.000000 20 348.722816
0.228157 -1.501456 2.085030 37.000000 18 348.722819
0.222742 -1.465841 1.685616 37.000000 16 348.722821
0.225697 -1.459546 1.531134 38.000000 15 348.722779
0.222362 -1.437997 1.255248 38.000000 13 348.722781
0.219261 -1.419583 1.026368 40.000000 11 348.722784
0.216616 -1.402476 0.829084 45.000000 9 348.722787
0.213591 -1.384491 0.654307 44.000000 7 348.722789
0.211200 -1.370583 0.497300 40.000000 5 348.722792
0.209474 -1.359379 0.352606 33.000000 3 348.722794
0.207548 -1.348445 0.215193 24.000000 1 348.722797
0.221967 -1.450508 1.387636 39.000000 14 348.722805
0.216834 -1.416979 1.127319 39.000000 12 348.722807
0.214580 -1.403891 0.919841 44.000000 10 348.722810
0.213429 -1.396378 0.740470 52.000000 8 348.722812
0.211757 -1.387061 0.577219 52.000000 6 348.722815
0.209579 -1.374399 0.426036 39.000000 4 348.722817
0.206530 -1.355991 0.283280 22.000000 2 348.722820
0.204339 -1.343183 0.148482 33.000000 0 348.722823
-0.003392 -0.061661 5.529063 35.000000 31 348.722833
0.106890 -0.855000 5.478061 104.000000 28 348.722836
0.139479 -1.126150 5.479020 97.000000 27 348.722838
0.164541 -1.142512 3.735095 38.000000 25 348.722841
0.229437 -1.533231 3.711854 36.000000 23 348.722843
0.235395 -1.571207 2.977620 25.000000 21 348.722846
0.227327 -1.517369 2.326062 33.000000 19 348.722849
0.224004 -1.495203 1.886123 37.000000 17 348.722851
0.024799 -0.328508 5.520148 36.000000 30 348.722859
0.059724 -0.592083 5.498194 103.000000 29 348.722861
0.130223 -0.951737 3.733352 41.000000 26 348.722864
0.198031 -1.339290 3.735857 38.000000 24 348.722867
0.238427 -1.608675 3.424887 16.000000 22 348.722869
0.229169 -1.544379 2.623969 32.000000 20 348.722872
0.222472 -1.499262 2.081040 37.000000 18 348.722874
0.217127 -1.463256 1.681941 37.000000 16 348.722877
0.220068 -1.456799 1.527629 38.000000 15 348.722834
0.216760 -1.434915 1.252110 39.000000 13 348.722837
0.213680 -1.416205 1.023627 40.000000 11 348.722840
0.211058 -1.398843 0.826766 45.000000 9 348.722842
0.208066 -1.380644 0.652434 44.000000 7 348.722845
0.206415 -1.371312 0.497300 40.000000 5 348.722847
0.203996 -1.355245 0.351673 32.000000 3 348.722850
0.202840 -1.349161 0.215193 24.000000 1 348.722852
0.216350 -1.447580 1.384311 39.000000 14 348.722860
0.211289 -1.413730 1.124376 39.000000 12 348.722863
0.209678 -1.404631 0.919841 44.000000 10 348.722865
0.207883 -1.392626 0.738372 52.000000 8 348.722868
0.206218 -1.383121 0.575577 54.000000 6 348.722870
0.204064 -1.370315 0.424864 39.000000 4 348.722873
0.201795 -1.356704 0.283280 21.000000 2 348.722875
0.199649 -1.343888 0.148482 33.000000 0 348.722878
-0.003607 -0.061648 5.529063 35.000000 31 348.722889
0.103904 -0.855368 5.478061 104.000000 28 348.722891
0.135547 -1.126630 5.479020 97.000000 27 348.722894
0.160552 -1.143079 3.735095 38.000000 25 348.722896
0.224084 -1.534023 3.711854 36.000000 23 348.722899
0.229216 -1.567278 2.968843 26.000000 21 348.722901
0.221622 -1.515369 2.321929 33.000000 19 348.722904
0.218319 -1.492804 1.882286 37.000000 17 348.722907
0.023652 -0.328593 5.520148 36.000000 30 348.722914
0.057657 -0.592287 5.498194 103.000000 29 348.722917
0.126900 -0.952185 3.733352 41.000000 26 348.722919
0.193355 -1.339973 3.735857 38.000000 24 348.722922
0.232187 -1.605186 3.415885 16.000000 22 348.722925
0.223403 -1.542589 2.619703 32.000000 20 348.722927
0.216373 -1.494063 2.073061 37.000000 18 348.722930
0.211532 -1.460650 1.678266 37.000000 16 348.722932
0.214461 -1.454030 1.524125 39.000000 15 348.722890
0.211181 -1.431812 1.248972 39.000000 13 348.722893
0.208126 -1.412806 1.020886 40.000000 11 348.722895
0.205529 -1.395189 0.824448 45.000000 9 348.722898
0.202571 -1.376775 0.650561 44.000000 7 348.722900
0.200929 -1.367278 0.495891 40.000000 5 348.722903
0.198550 -1.351088 0.350741 32.000000 3 348.722905
0.197406 -1.344933 0.214747 23.000000 1 348.722908
0.210757 -1.444631 1.380986 39.000000 14 348.722916
0.205769 -1.410459 1.121433 39.000000 12 348.722918
0.204152 -1.401089 0.917309 44.000000 10 348.722921
0.203021 -1.393343 0.738372 52.000000 8 348.722923
0.200708 -1.379159 0.573934 54.000000 6 348.722926
0.199280 -1.371019 0.424864 39.000000 4 348.722928
0.197058 -1.357400 0.283280 21.000000 2 348.722931
0.194240 -1.339632 0.148280 33.000000 0 348.722934
-0.003822 -0.061635 5.529063 35.000000 31 348.722944
0.100918 -0.855725 5.478061 104.000000 28 348.722947
0.131613 -1.127096 5.479020 97.000000 27 348.722949
0.156561 -1.143633 3.735095 38.000000 25 348.722952
0.218728 -1.534796 3.711854 33.000000 23 348.722954
0.223067 -1.563326 2.960066 26.000000 21 348.722957
0.215933 -1.513348 2.317796 34.000000 19 348.722960
0.212201 -1.487209 1.874612 37.000000 17 348.722962
0.022562 -0.328669 5.520148 36.000000 30 348.722970
0.055693 -0.592475 5.498194 103.000000 29 348.722972
0.123741 -0.952601 3.733352 41.000000 26 348.722975
0.188911 -1.340607 3.735857 38.000000 24 348.722978
0.225974 -1.601674 3.406884 16.000000 22 348.722980
0.217287 -1.538195 2.611171 32.000000 20 348.722983
0.210735 -1.491825 2.069072 37.000000 18 348.722985
0.206212 -1.457987 1.674591 38.000000 16 348.722988
0.208876 -1.451240 1.520620 38.000000 15 348.722945
0.205628 -1.428687 1.245834 39.000000 13 348.722948
0.202598 -1.409385 1.018144 40.000000 11 348.722951
0.200657 -1.395898 0.824448 45.000000 9 348.722953
0.197344 -1.372851 0.648688 46.000000 7 348.722956
0.196394 -1.367937 0.495891 40.000000 5 348.722958
0.193833 -1.351773 0.350741 32.000000 3 348.722961
0.192710 -1.345614 0.214747 23.000000 1 348.722963
0.205187 -1.441661 1.377661 39.000000 14 348.722971
0.200275 -1.407167 1.118490 39.000000 12 348.722974
0.198897 -1.397490 0.914776 44.000000 10 348.722976
0.197760 -1.389515 0.736274 54.000000 8 348.722979
0.195469 -1.375141 0.572291 52.000000 6 348.722981
0.194049 -1.366860 0.423691 38.000000 4 348.722984
0.191861 -1.353143 0.282590 20.000000 2 348.722987
0.189797 -1.340269 0.148280 33.000000 0 348.722989
-0.004032 -0.061666 5.534063 35.000000 31 348.723000
0.098080 -0.856055 5.478061 104.000000 28 348.723002
0.127875 -1.127526 5.479020 96.000000 27 348.723005
0.152768 -1.144146 3.735095 39.000000 25 348.723007
0.213637 -1.535513 3.711854 33.000000 23 348.723010
0.217220 -1.559311 2.951288 26.000000 21 348.723013
0.210137 -1.508481 2.309530 34.000000 19 348.723015
0.206826 -1.484730 1.870776 37.000000 17 348.723018
0.021432 -0.329035 5.525140 37.000000 30 348.723025
0.053624 -0.592666 5.498194 104.000000 29 348.723028
0.120415 -0.953027 3.733352 41.000000 26 348.723031
0.184230 -1.341258 3.735857 39.000000 24 348.723033
0.220364 -1.600258 3.402383 16.000000 22 348.723036
0.211829 -1.536323 2.606905 32.000000 20 348.723038
0.205375 -1.489530 2.065082 37.000000 18 348.723041
0.200658 -1.455339 1.670916 38.000000 16 348.723043
0.203566 -1.448393 1.517116 38.000000 15 348.723001
0.200347 -1.425506 1.242697 39.000000 13 348.723004
0.197342 -1.405908 1.015403 40.000000 11 348.723006
0.195411 -1.392168 0.822130 45.000000 9 348.723009
0.192551 -1.373531 0.648688 46.000000 7 348.723011
0.190953 -1.363863 0.494482 40.000000 5 348.723014
0.188668 -1.347544 0.349808 32.000000 3 348.723016
0.187557 -1.341314 0.214300 23.000000 1 348.723019
0.199891 -1.438635 1.374337 39.000000 14 348.723027
0.195051 -1.403820 1.115547 40.000000 12 348.723029
0.193426 -1.393905 0.912244 42.000000 10 348.723032
0.192908 -1.390197 0.736274 52.000000 8 348.723034
0.190668 -1.375815 0.572291 52.000000 6 348.723037
0.188610 -1.362714 0.422519 38.000000 4 348.723039
0.187136 -1.353804 0.282590 20.000000 2 348.723042
0.184434 -1.335974 0.148079 33.000000 0 348.723045
-0.004247 -0.061651 5.534063 36.000000 31 348.723056
0.095091 -0.856392 5.478061 105.000000 28 348.723059
0.123938 -1.127966 5.479020 96.000000 27 348.723061
0.148773 -1.144672 3.735095 39.000000 25 348.723064
0.208276 -1.536249 3.711854 37.000000 23 348.723066
0.211454 -1.557686 2.946900 24.000000 21 348.723069
0.204492 -1.506417 2.305398 34.000000 19 348.723071
0.201211 -1.482266 1.866939 37.000000 17 348.723074
0.020284 -0.329108 5.525140 37.000000 30 348.723082
0.051555 -0.592850 5.498194 103.000000 29 348.723084
0.117088 -0.953442 3.733352 42.000000 26 348.723087
0.179547 -1.341893 3.735857 38.000000 24 348.723089
0.214198 -1.596700 3.393381 17.000000 22 348.723092
0.205771 -1.531883 2.598373 32.000000 20 348.723094
0.199372 -1.484264 2.057103 37.000000 18 348.723097
0.195126 -1.452671 1.667240 38.000000 16 348.723100
0.198025 -1.445562 1.513611 38.000000 15 348.723057
0.194842 -1.422340 1.239559 39.000000 13 348.723060
0.191867 -1.402446 1.012661 40.000000 11 348.723062
0.189950 -1.388452 0.819812 45.000000 9 348.723065
0.187128 -1.369602 0.646815 44.000000 7 348.723068
0.186191 -1.364521 0.494482 40.000000 5 348.723070
0.183299 -1.343327 0.348875 31.000000 3 348.723073
0.182874 -1.341960 0.214300 22.000000 1 348.723075
0.194367 -1.435623 1.371012 39.000000 14 348.723083
0.190150 -1.404492 1.115547 39.000000 12 348.723086
0.187981 -1.390299 0.909711 44.000000 10 348.723088
0.187446 -1.386364 0.734176 50.000000 8 348.723091
0.185232 -1.371793 0.570649 50.000000 6 348.723093
0.183203 -1.358547 0.421347 38.000000 4 348.723096
0.182409 -1.354449 0.282590 20.000000 2 348.723098
0.179769 -1.336610 0.148079 33.000000 0 348.723101
-0.004468 -0.061679 5.539062 36.000000 31 348.723112
0.092101 -0.856719 5.478061 104.000000 28 348.723114
0.120000 -1.128391 5.479020 97.000000 27 348.723117
0.144777 -1.145184 3.735095 39.000000 25 348.723119
0.202912 -1.536967 3.711854 37.000000 23 348.723122
0.205387 -1.553664 2.938122 24.000000 21 348.723124
0.198495 -1.501542 2.297132 34.000000 19 348.723127
0.195615 -1.479781 1.863102 37.000000 17 348.723129
0.019135 -0.329177 5.525140 37.000000 30 348.723137
0.049485 -0.593026 5.498194 103.000000 29 348.723140
0.113759 -0.953845 3.733352 41.000000 26 348.723142
0.174862 -1.342511 3.735857 38.000000 24 348.723145
0.208341 -1.595279 3.388880 17.000000 22 348.723147
0.200084 -1.530006 2.594107 32.000000 20 348.723150
0.193799 -1.481962 2.053114 36.000000 18 348.723153
0.189614 -1.449982 1.663565 38.000000 16 348.723155
0.192506 -1.442709 1.510107 38.000000 15 348.723113
0.189361 -1.419153 1.236421 39.000000 13 348.723115
0.186970 -1.403107 1.012661 40.000000 11 348.723118
0.185102 -1.389107 0.819812 45.000000 9 348.723120
0.182346 -1.370247 0.646815 46.000000 7 348.723123
0.180795 -1.360407 0.493072 39.000000 5 348.723126
0.177962 -1.339089 0.347943 30.000000 3 348.723128
0.178189 -1.342590 0.214300 22.000000 1 348.723131
0.188866 -1.432591 1.367687 39.000000 14 348.723138
0.184718 -1.401140 1.112604 40.000000 12 348.723141
0.183127 -1.390947 0.909711 44.000000 10 348.723144
0.182606 -1.387010 0.734176 52.000000 8 348.723146
0.180443 -1.372431 0.570649 52.000000 6 348.723149
0.178459 -1.359179 0.421347 38.000000 4 348.723151
0.177036 -1.350168 0.281900 19.000000 2 348.723154
0.174454 -1.332276 0.147877 32.000000 0 348.723156
-0.004684 -0.061663 5.539062 35.000000 31 348.723167
0.089110 -0.857035 5.478061 104.000000 28 348.723170
0.116061 -1.128803 5.479020 97.000000 27 348.723172
0.140778 -1.145683 3.735095 38.000000 25 348.723175
0.197546 -1.537666 3.711854 36.000000 23 348.723177
0.199657 -1.551995 2.933734 26.000000 21 348.723180
0.192893 -1.499435 2.292999 33.000000 19 348.723182
0.190040 -1.477275 1.859265 37.000000 17 348.723185
0.017971 -0.328952 5.520148 37.000000 30 348.723193
0.047415 -0.593195 5.498194 103.000000 29 348.723195
0.110429 -0.954236 3.733352 40.000000 26 348.723198
0.170174 -1.343114 3.735857 38.000000 24 348.723200
0.202223 -1.591676 3.379879 17.000000 22 348.723203
0.194413 -1.528108 2.589841 32.000000 20 348.723206
0.188244 -1.479640 2.049124 37.000000 18 348.723208
0.184124 -1.447271 1.659890 38.000000 16 348.723211
0.187469 -1.443372 1.510107 39.000000 15 348.723168
0.184406 -1.419805 1.236421 39.000000 13 348.723171
0.181534 -1.399604 1.009920 40.000000 11 348.723173
0.179682 -1.385351 0.817494 45.000000 9 348.723176
0.176966 -1.366277 0.644942 46.000000 7 348.723179
0.176045 -1.361030 0.493072 39.000000 5 348.723181
0.172656 -1.334830 0.347010 30.000000 3 348.723184
0.173501 -1.343204 0.214300 22.000000 1 348.723186
0.183389 -1.429537 1.364362 39.000000 14 348.723194
0.179311 -1.397767 1.109660 40.000000 12 348.723197
0.177723 -1.387302 0.907179 42.000000 10 348.723199
0.177187 -1.383137 0.732078 50.000000 8 348.723202
0.175052 -1.368368 0.569006 50.000000 6 348.723204
0.173098 -1.354972 0.420174 38.000000 4 348.723207
0.172322 -1.350777 0.281900 19.000000 2 348.723209
0.169802 -1.332877 0.147877 32.000000 0 348.723212
-0.004893 -0.061603 5.534063 35.000000 31 348.723223
0.086118 -0.857341 5.478061 103.000000 28 348.723225
0.112120 -1.129202 5.479020 96.000000 27 348.723228
0.136778 -1.146167 3.735095 39.000000 25 348.723230
0.191935 -1.536407 3.707252 36.000000 23 348.723233
0.193941 -1.550306 2.929345 26.000000 21 348.723235
0.186959 -1.494514 2.284733 34.000000 19 348.723238
0.184086 -1.471567 1.851591 37.000000 17 348.723240
0.016822 -0.329013 5.520148 36.000000 30 348.723248
0.045384 -0.593890 5.503165 104.000000 29 348.723251
0.107097 -0.954615 3.733352 40.000000 26 348.723253
0.165485 -1.343699 3.735857 38.000000 24 348.723256
0.196398 -1.590211 3.375378 17.000000 22 348.723258
0.188758 -1.526189 2.585575 32.000000 20 348.723261
0.182338 -1.474306 2.041145 36.000000 18 348.723264
0.178655 -1.444541 1.656215 38.000000 16 348.723266
0.181536 -1.436942 1.503098 39.000000 15 348.723224
0.178961 -1.416578 1.233283 39.000000 13 348.723226
0.176124 -1.396081 1.007178 40.000000 11 348.723229
0.174291 -1.381575 0.815176 45.000000 9 348.723232
0.172196 -1.366887 0.644942 46.000000 7 348.723234
0.170694 -1.356876 0.491663 40.000000 5 348.723237
0.167383 -1.330551 0.346077 30.000000 3 348.723239
0.168190 -1.338860 0.213854 22.000000 1 348.723242
0.177936 -1.426463 1.361037 39.000000 14 348.723250
0.173931 -1.394374 1.106717 40.000000 12 348.723252
0.172346 -1.383635 0.904646 42.000000 10 348.723255
0.172357 -1.383747 0.732078 50.000000 8 348.723257
0.169691 -1.364285 0.567363 50.000000 6 348.723260
0.167768 -1.350744 0.419002 38.000000 4 348.723262
0.167606 -1.351371 0.281900 18.000000 2 348.723265
0.164535 -1.328503 0.147676 32.000000 0 348.723267
-0.005108 -0.061586 5.534063 34.000000 31 348.723278
0.083125 -0.857636 5.478061 103.000000 28 348.723281
0.108177 -1.129586 5.479020 96.000000 27 348.723283
0.132777 -1.146637 3.735095 39.000000 25 348.723286
0.186571 -1.537068 3.707252 36.000000 23 348.723288
0.188239 -1.548595 2.924956 27.000000 21 348.723291
0.181402 -1.492365 2.280600 34.000000 19 348.723293
0.178562 -1.469018 1.847754 37.000000 17 348.723296
0.015661 -0.328780 5.515157 36.000000 30 348.723304
0.043311 -0.594044 5.503165 103.000000 29 348.723306
0.103765 -0.954983 3.733352 40.000000 26 348.723309
0.160794 -1.344269 3.735857 38.000000 24 348.723311
0.190328 -1.586562 3.366376 17.000000 22 348.723314
0.182807 -1.521660 2.577044 32.000000 20 348.723317
0.176832 -1.471941 2.037156 36.000000 18 348.723319
0.173207 -1.441790 1.652540 38.000000 16 348.723322
0.176519 -1.437567 1.503098 39.000000 15 348.723279
0.173540 -1.413330 1.230145 39.000000 13 348.723282
0.170740 -1.392537 1.004437 40.000000 11 348.723284
0.169467 -1.382175 0.815176 44.000000 9 348.723287
0.166860 -1.362878 0.643069 48.000000 7 348.723290
0.165375 -1.352702 0.490254 40.000000 5 348.723292
0.162737 -1.331127 0.346077 30.000000 3 348.723295
0.163516 -1.339439 0.213854 22.000000 1 348.723297
0.172506 -1.423368 1.357712 39.000000 14 348.723305
0.169062 -1.394972 1.106717 40.000000 12 348.723308
0.167515 -1.384228 0.904646 44.000000 10 348.723310
0.166981 -1.379835 0.729980 50.000000 8 348.723313
0.164928 -1.364868 0.567363 50.000000 6 348.723315
0.163052 -1.351322 0.419002 38.000000 4 348.723318
0.162888 -1.351947 0.281900 18.000000 2 348.723320
0.159300 -1.324109 0.147474 32.000000 0 348.723323
-0.005316 -0.061525 5.529063 35.000000 31 348.723334
0.080202 -0.858695 5.483001 104.000000 28 348.723336
0.104234 -1.129957 5.479020 97.000000 27 348.723339
0.128773 -1.147094 3.735095 39.000000 25 348.723341
0.181204 -1.537710 3.707252 36.000000 23 348.723344
0.182271 -1.544484 2.916179 27.000000 21 348.723346
0.175862 -1.490194 2.276467 34.000000 19 348.723349
0.173057 -1.466449 1.843917 37.000000 17 348.723352
0.014571 -0.328831 5.515157 37.000000 30 348.723359
0.041341 -0.594185 5.503165 103.000000 29 348.723362
0.100597 -0.955322 3.733352 40.000000 26 348.723364
0.156136 -1.343081 3.731164 39.000000 24 348.723367
0.184285 -1.582891 3.357375 17.000000 22 348.723370
0.177192 -1.519698 2.572778 32.000000 20 348.723372
0.171343 -1.469555 2.033166 36.000000 18 348.723375
0.168425 -1.442356 1.652540 38.000000 16 348.723377
0.171077 -1.434633 1.499593 38.000000 15 348.723335
0.168145 -1.410062 1.227008 39.000000 13 348.723337
0.165384 -1.388972 1.001695 40.000000 11 348.723340
0.164118 -1.378359 0.812858 44.000000 9 348.723343
0.161792 -1.358820 0.641196 46.000000 7 348.723345
0.160888 -1.353243 0.490254 39.000000 5 348.723348
0.157510 -1.326809 0.345145 30.000000 3 348.723350
0.158253 -1.335057 0.213408 18.000000 1 348.723353
0.167100 -1.420253 1.354388 39.000000 14 348.723361
0.163720 -1.391540 1.103774 40.000000 12 348.723363
0.162420 -1.380495 0.902114 44.000000 10 348.723366
0.162404 -1.380381 0.729980 50.000000 8 348.723368
0.159850 -1.360718 0.565721 48.000000 6 348.723371
0.158004 -1.347027 0.417830 37.000000 4 348.723373
0.158404 -1.352480 0.281900 18.000000 2 348.723376
0.154908 -1.324630 0.147474 32.000000 0 348.723378
-0.005520 -0.061507 5.529063 30.000000 31 348.723389
0.077354 -0.858956 5.483001 104.000000 28 348.723392
0.100396 -1.129282 5.474125 97.000000 27 348.723394
0.124969 -1.147515 3.735095 39.000000 25 348.723397
0.176104 -1.538302 3.707252 36.000000 23 348.723399
0.176875 -1.542700 2.911790 27.000000 21 348.723402
0.170598 -1.487973 2.272334 34.000000 19 348.723404
0.167828 -1.463829 1.840080 37.000000 17 348.723407
0.013423 -0.328879 5.515157 35.000000 30 348.723415
0.039266 -0.594325 5.503165 103.000000 29 348.723417
0.097262 -0.955668 3.733352 39.000000 26 348.723420
0.151447 -1.343618 3.731164 39.000000 24 348.723422
0.178790 -1.581329 3.352874 17.000000 22 348.723425
0.171565 -1.515095 2.564246 33.000000 20 348.723428
0.166130 -1.467121 2.029177 36.000000 18 348.723430
0.163008 -1.439567 1.648865 38.000000 16 348.723433
0.165909 -1.431650 1.496089 38.000000 15 348.723390
0.163020 -1.406745 1.223870 39.000000 13 348.723393
0.160297 -1.385359 0.998954 40.000000 11 348.723396
0.159546 -1.378895 0.812858 44.000000 9 348.723398
0.156515 -1.354771 0.639323 46.000000 7 348.723401
0.155614 -1.349031 0.488845 39.000000 5 348.723403
0.153110 -1.327324 0.345145 29.000000 3 348.723406
0.153825 -1.335574 0.213408 18.000000 1 348.723408
0.161966 -1.417089 1.351063 39.000000 14 348.723416
0.159104 -1.392075 1.103774 40.000000 12 348.723419
0.157600 -1.381053 0.902114 45.000000 10 348.723421
0.157070 -1.376430 0.727882 50.000000 8 348.723424
0.154565 -1.356575 0.564078 48.000000 6 348.723426
0.152751 -1.342741 0.416657 37.000000 4 348.723429
0.153682 -1.353025 0.281900 18.000000 2 348.723431
0.149720 -1.320199 0.147273 32.000000 0 348.723434
-0.005728 -0.061444 5.524063 30.000000 31 348.723445
0.074356 -0.859221 5.483001 104.000000 28 348.723447
0.096454 -1.129626 5.474125 97.000000 27 348.723450
0.120962 -1.147944 3.735095 39.000000 25 348.723452
0.170733 -1.538908 3.707252 36.000000 23 348.723455
0.170960 -1.538545 2.903013 27.000000 21 348.723457
0.165403 -1.488560 2.272334 34.000000 19 348.723460
0.162009 -1.458033 1.832406 37.000000 17 348.723463
0.012275 -0.328924 5.515157 36.000000 30 348.723470
0.037191 -0.594459 5.503165 104.000000 29 348.723473
0.094048 -0.957253 3.738191 38.000000 26 348.723475
0.146756 -1.344138 3.731164 39.000000 24 348.723478
0.172795 -1.577614 3.343872 17.000000 22 348.723481
0.165991 -1.513092 2.559980 32.000000 20 348.723483
0.160679 -1.464695 2.025187 37.000000 18 348.723486
0.157612 -1.436757 1.645189 38.000000 16 348.723488
0.160512 -1.428676 1.492584 38.000000 15 348.723446
0.158109 -1.407305 1.223870 39.000000 13 348.723448
0.155460 -1.385910 0.998954 40.000000 11 348.723451
0.154238 -1.375041 0.810540 45.000000 9 348.723454
0.151785 -1.355309 0.639323 46.000000 7 348.723456
0.150371 -1.344798 0.487436 39.000000 5 348.723459
0.147930 -1.322969 0.344212 29.000000 3 348.723461
0.149162 -1.336103 0.213408 21.000000 1 348.723464
0.156607 -1.413934 1.347738 39.000000 14 348.723472
0.153799 -1.388604 1.100831 39.000000 12 348.723474
0.152305 -1.377310 0.899582 44.000000 10 348.723477
0.151766 -1.372459 0.725784 52.000000 8 348.723479
0.149829 -1.357107 0.564078 48.000000 6 348.723482
0.148063 -1.343266 0.416657 37.000000 4 348.723484
0.148416 -1.348631 0.281210 17.000000 2 348.723487
0.145111 -1.320713 0.147273 32.000000 0 348.723490
-0.005942 -0.061424 5.524063 35.000000 31 348.723500
0.071292 -0.858701 5.478061 99.000000 28 348.723503
0.092510 -1.129955 5.474125 97.000000 27 348.723505
0.116955 -1.148359 3.735095 39.000000 25 348.723508
0.165360 -1.539494 3.707252 37.000000 23 348.723510
0.165332 -1.536751 2.898624 27.000000 21 348.723513
0.159905 -1.486330 2.268201 34.000000 19 348.723516
0.156576 -1.455403 1.828569 37.000000 17 348.723518
0.011126 -0.328965 5.515157 36.000000 30 348.723526
0.035085 -0.594052 5.498194 103.000000 29 348.723528
0.090824 -0.958828 3.743031 33.000000 26 348.723531
