# .PCD v.7 - Point Cloud Data file format
VERSION .7
FIELDS x y z intensity ring timestamp
SIZE 4 4 4 4 2 8
TYPE F F F F U D
COUNT 1 1 1 1 1 1
WIDTH 944
HEIGHT 1
VIEWPOINT 0 0 0 1 0 0 0
POINTS 944
DATA ascii
0.815964 1.869460 1.568793 17.000000 12 348.882117
0.837491 1.917866 1.314899 17.000000 10 348.882119
1.035716 2.371794 1.283866 15.000000 8 348.882122
1.055195 2.415251 1.005960 24.000000 6 348.882124
1.059075 2.422980 0.728494 26.000000 4 348.882127
0.724175 1.656002 0.343983 16.000000 2 348.882129
0.722802 1.652077 0.166418 11.000000 0 348.882132
0.035578 0.050049 5.489065 35.000000 31 348.882143
0.368233 0.784162 5.507697 76.000000 28 348.882145
0.327203 0.695031 3.716738 36.000000 27 348.882148
0.460082 1.029267 3.649204 88.000000 25 348.882150
0.615407 1.397346 3.656624 10.000000 23 348.882153
0.588941 1.337876 2.745021 17.000000 21 348.882155
0.593226 1.347601 2.235137 24.000000 19 348.882158
0.696975 1.583272 2.147036 21.000000 17 348.882161
0.154203 0.290470 5.510165 37.000000 30 348.882168
0.267624 0.536291 5.537965 26.000000 29 348.882171
0.385145 0.845577 3.612372 7.000000 26 348.882173
0.536659 1.212811 3.660772 86.000000 24 348.882176
0.680441 1.539171 3.541909 10.000000 22 348.882179
0.597305 1.351746 2.487459 18.000000 20 348.882181
0.624785 1.413929 2.120935 28.000000 18 348.882184
0.754101 1.706568 2.100910 21.000000 16 348.882186
0.742410 1.692079 1.895607 20.000000 15 348.882144
0.772325 1.760252 1.631781 20.000000 13 348.882147
0.839552 1.912564 1.454037 18.000000 11 348.882149
0.867783 1.976872 1.216195 11.000000 9 348.882152
1.055430 2.403204 1.148787 22.000000 7 348.882154
0.714160 1.625366 0.611445 53.000000 5 348.882157
0.713345 1.623511 0.428148 23.000000 3 348.882159
0.719388 1.636488 0.253121 13.000000 1 348.882162
0.743768 1.687963 1.723446 25.000000 14 348.882170
0.819226 1.859203 1.562907 17.000000 12 348.882172
0.844180 1.914930 1.314899 19.000000 10 348.882175
1.063619 2.411553 1.005960 24.000000 6 348.882180
1.067526 2.419268 0.728494 24.000000 4 348.882182
0.731951 1.657995 0.344673 17.000000 2 348.882185
0.728565 1.649544 0.166418 12.000000 0 348.882188
0.035752 0.049924 5.489065 35.000000 31 348.882198
0.370968 0.782872 5.507697 76.000000 28 348.882201
0.329627 0.693884 3.716738 35.000000 27 348.882203
0.463672 1.027655 3.649204 90.000000 25 348.882206
0.620280 1.395189 3.656624 10.000000 23 348.882208
0.592635 1.333623 2.740633 17.000000 21 348.882211
0.597926 1.345523 2.235137 25.000000 19 348.882214
0.702497 1.580829 2.147036 21.000000 17 348.882216
0.155216 0.289930 5.510165 37.000000 30 348.882224
0.269735 0.535830 5.542937 27.000000 29 348.882226
0.388094 0.844227 3.612372 8.000000 26 348.882229
0.540889 1.210931 3.660772 86.000000 24 348.882232
0.686077 1.536667 3.541909 10.000000 22 348.882234
0.602255 1.349548 2.487459 18.000000 20 348.882237
0.631192 1.414382 2.124924 28.000000 18 348.882239
0.763114 1.709985 2.108260 21.000000 16 348.882242
0.749756 1.692738 1.899111 20.000000 15 348.882199
0.759546 1.714833 1.594128 25.000000 13 348.882202
0.825894 1.863747 1.421139 15.000000 11 348.882205
0.851345 1.921176 1.186061 21.000000 9 348.882207
0.999929 2.255411 1.085104 11.000000 7 348.882210
0.717884 1.618478 0.610036 40.000000 5 348.882212
0.719291 1.620886 0.428148 23.000000 3 348.882215
0.725381 1.633841 0.253121 13.000000 1 348.882217
0.749950 1.685226 1.723446 25.000000 14 348.882225
0.783306 1.760174 1.486385 21.000000 12 348.882228
0.856454 1.923639 1.322497 17.000000 10 348.882230
0.862525 1.937269 1.067766 13.000000 8 348.882233
1.076294 2.416267 1.009246 21.000000 6 348.882235
0.916124 2.055722 0.633536 4.000000 4 348.882238
0.740040 1.659824 0.345363 17.000000 2 348.882241
0.734318 1.646991 0.166418 13.000000 0 348.882243
0.035935 0.049793 5.489065 35.000000 31 348.882254
0.373835 0.781507 5.507697 79.000000 28 348.882256
0.332168 0.692672 3.716738 35.000000 27 348.882259
0.467436 1.025948 3.649204 90.000000 25 348.882261
0.625390 1.392906 3.656624 9.000000 23 348.882264
0.597519 1.331442 2.740633 17.000000 21 348.882267
0.602854 1.343322 2.235137 24.000000 19 348.882269
0.708287 1.578244 2.147036 21.000000 17 348.882272
0.156139 0.289105 5.505174 38.000000 30 348.882279
0.271697 0.534838 5.542937 26.000000 29 348.882282
0.391186 0.842799 3.612372 8.000000 26 348.882285
0.545324 1.208940 3.660772 87.000000 24 348.882287
0.691437 1.534262 3.541909 10.000000 22 348.882290
0.606962 1.347437 2.487459 18.000000 20 348.882292
0.636125 1.412170 2.124924 28.000000 18 348.882295
0.769079 1.707310 2.108260 21.000000 16 348.882297
0.761780 1.703000 1.913130 22.000000 15 348.882255
0.757878 1.694270 1.578439 26.000000 13 348.882258
0.832719 1.860708 1.421139 15.000000 11 348.882260
0.865620 1.934218 1.195333 19.000000 9 348.882263
0.960827 2.145952 1.038279 12.000000 7 348.882265
0.723811 1.615836 0.610036 33.000000 5 348.882268
0.722936 1.613882 0.427215 24.000000 3 348.882270
0.731080 1.631299 0.253121 13.000000 1 348.882273
0.758888 1.689410 1.730095 24.000000 14 348.882281
0.771227 1.716871 1.454010 27.000000 12 348.882283
0.833119 1.853787 1.279446 13.000000 10 348.882286
0.873003 1.942526 1.071962 23.000000 8 348.882288
0.745829 1.657230 0.345363 17.000000 2 348.882296
0.742401 1.648844 0.166620 12.000000 0 348.882299
0.036109 0.049667 5.489065 35.000000 31 348.882310
0.376898 0.780897 5.512636 80.000000 28 348.882313
0.334584 0.691508 3.716738 36.000000 27 348.882315
0.471014 1.024311 3.649204 90.000000 25 348.882318
0.630248 1.390715 3.656624 9.000000 23 348.882320
0.602163 1.329348 2.740633 17.000000 21 348.882323
0.607539 1.341209 2.235137 24.000000 19 348.882325
0.713791 1.575762 2.147036 21.000000 17 348.882328
0.157147 0.288558 5.505174 36.000000 30 348.882336
0.273563 0.533886 5.542937 25.000000 29 348.882338
0.394126 0.841428 3.612372 8.000000 26 348.882341
0.549541 1.207029 3.660772 86.000000 24 348.882343
0.697690 1.533822 3.546410 9.000000 22 348.882346
0.612741 1.347685 2.491725 18.000000 20 348.882348
0.641050 1.409941 2.124924 28.000000 18 348.882351
0.775034 1.704615 2.108260 21.000000 16 348.882354
0.772123 1.710081 1.923643 23.000000 15 348.882311
0.762186 1.688066 1.575301 26.000000 13 348.882314
0.804781 1.781577 1.366310 17.000000 11 348.882316
0.874190 1.935222 1.197651 13.000000 9 348.882319
0.870942 1.927134 0.942754 23.000000 7 348.882322
0.727471 1.608929 0.608626 18.000000 5 348.882324
0.736660 1.629253 0.430946 25.000000 3 348.882327
0.736769 1.628737 0.253121 13.000000 1 348.882329
0.770949 1.700355 1.743395 25.000000 14 348.882337
0.770539 1.699444 1.442237 28.000000 12 348.882340
0.823556 1.815532 1.256654 13.000000 10 348.882342
0.883528 1.947733 1.076159 22.000000 8 348.882345
0.890168 1.961460 0.838406 9.000000 6 348.882347
0.753658 1.659126 0.346053 17.000000 2 348.882352
0.748152 1.646242 0.166620 12.000000 0 348.882355
0.036254 0.049507 5.484065 35.000000 31 348.882366
0.379622 0.779577 5.512636 82.000000 28 348.882368
0.336996 0.690336 3.716738 36.000000 27 348.882371
0.474587 1.022660 3.649204 90.000000 25 348.882373
0.635099 1.388506 3.656624 10.000000 23 348.882376
0.606800 1.327238 2.740633 17.000000 21 348.882378
0.612217 1.339081 2.235137 24.000000 19 348.882381
0.719288 1.573261 2.147036 21.000000 17 348.882383
0.158154 0.288008 5.505174 37.000000 30 348.882391
0.275425 0.532928 5.542937 25.000000 29 348.882394
0.397060 0.840047 3.612372 8.000000 26 348.882396
0.553751 1.205104 3.660772 87.000000 24 348.882399
0.703040 1.531377 3.546410 8.000000 22 348.882401
0.617442 1.345538 2.491725 19.000000 20 348.882404
0.645968 1.407694 2.124924 28.000000 18 348.882407
0.780979 1.701900 2.108260 21.000000 16 348.882409
0.781045 1.713866 1.930652 23.000000 15 348.882367
0.771302 1.692480 1.581576 26.000000 13 348.882369
0.779771 1.710273 1.316964 22.000000 11 348.882372
0.873588 1.916035 1.188379 12.000000 9 348.882374
0.877663 1.924082 0.942754 24.000000 7 348.882377
0.731091 1.602015 0.607217 16.000000 5 348.882380
1.023782 2.243378 0.559647 11.000000 3 348.882382
0.742450 1.626155 0.253121 11.000000 1 348.882385
0.779988 1.704445 1.750044 26.000000 14 348.882392
0.774784 1.693068 1.439294 29.000000 12 348.882395
0.806558 1.761688 1.223732 19.000000 10 348.882398
0.895989 1.957017 1.082453 16.000000 8 348.882400
0.883243 1.928287 0.826907 23.000000 6 348.882403
0.747257 1.630654 0.523338 58.000000 4 348.882405
0.759444 1.656485 0.346053 17.000000 2 348.882408
0.753894 1.643621 0.166620 12.000000 0 348.882410
0.036426 0.049380 5.484065 30.000000 31 348.882421
0.382341 0.778247 5.512636 83.000000 28 348.882424
0.339404 0.689155 3.716738 36.000000 27 348.882426
0.478154 1.020997 3.649204 90.000000 25 348.882429
0.639942 1.386281 3.656624 9.000000 23 348.882431
0.611429 1.325112 2.740633 17.000000 21 348.882434
0.616887 1.336935 2.235137 24.000000 19 348.882436
0.726118 1.573651 2.150872 21.000000 17 348.882439
0.159158 0.287454 5.505174 36.000000 30 348.882447
0.277283 0.531964 5.542937 25.000000 29 348.882449
0.399990 0.838656 3.612372 8.000000 26 348.882452
0.557954 1.203163 3.660772 87.000000 24 348.882454
0.708381 1.528914 3.546410 8.000000 22 348.882457
0.622135 1.343374 2.491725 18.000000 20 348.882460
0.650878 1.405431 2.124924 28.000000 18 348.882462
0.786915 1.699163 2.108260 20.000000 16 348.882465
0.788513 1.714370 1.934157 23.000000 15 348.882422
0.783712 1.703924 1.594128 26.000000 13 348.882425
0.778745 1.692346 1.305998 22.000000 11 348.882427
0.848788 1.844556 1.148972 13.000000 9 348.882430
0.905700 1.967329 0.963357 15.000000 7 348.882433
0.730658 1.586381 0.602990 16.000000 5 348.882435
1.031607 2.239791 0.559647 7.000000 3 348.882438
0.748122 1.623554 0.253121 12.000000 1 348.882440
0.790630 1.711883 1.760019 27.000000 14 348.882448
0.780689 1.690353 1.439294 29.000000 12 348.882451
0.791002 1.711897 1.193343 23.000000 10 348.882453
0.864741 1.871478 1.040492 13.000000 8 348.882456
0.901858 1.950912 0.836764 22.000000 6 348.882458
0.744784 1.610389 0.518649 90.000000 4 348.882461
0.765222 1.653824 0.346053 19.000000 2 348.882463
0.759627 1.640979 0.166620 12.000000 0 348.882466
0.036598 0.049253 5.484065 30.000000 31 348.882477
0.385055 0.776907 5.512636 87.000000 28 348.882479
0.341807 0.687966 3.716738 36.000000 27 348.882482
0.481715 1.019322 3.649204 90.000000 25 348.882484
0.645602 1.385809 3.661226 9.000000 23 348.882487
0.616051 1.322969 2.740633 17.000000 21 348.882489
0.621550 1.334774 2.235137 24.000000 19 348.882492
0.731607 1.571107 2.150872 21.000000 17 348.882494
0.160160 0.286897 5.505174 36.000000 30 348.882502
0.278889 0.530520 5.537965 25.000000 29 348.882505
0.402915 0.837255 3.612372 8.000000 26 348.882507
0.562150 1.201208 3.660772 87.000000 24 348.882510
0.712792 1.524459 3.541909 8.000000 22 348.882512
0.626820 1.341194 2.491725 18.000000 20 348.882515
0.655780 1.403150 2.124924 28.000000 18 348.882518
0.794277 1.699477 2.111935 20.000000 16 348.882520
0.795994 1.714841 1.937661 23.000000 15 348.882478
0.792933 1.708240 1.600403 26.000000 13 348.882480
0.786408 1.693410 1.308739 25.000000 11 348.882483
0.825366 1.777293 1.111884 20.000000 9 348.882486
0.877401 1.888478 0.929643 15.000000 7 348.882488
0.734169 1.579471 0.601580 33.000000 5 348.882491
1.039419 2.236176 0.559647 7.000000 3 348.882493
0.755885 1.625448 0.253567 13.000000 1 348.882496
0.798178 1.712497 1.763344 27.000000 14 348.882504
0.795123 1.705936 1.454010 29.000000 12 348.882506
0.789685 1.693497 1.183213 24.000000 10 348.882509
0.859760 1.843768 1.027903 13.000000 8 348.882511
0.918645 1.969150 0.844977 14.000000 6 348.882514
0.750400 1.607780 0.518649 96.000000 4 348.882516
0.770990 1.651142 0.346053 19.000000 2 348.882519
0.765350 1.638317 0.166620 12.000000 0 348.882521
0.036770 0.049125 5.484065 34.000000 31 348.882532
0.387765 0.775559 5.512636 85.000000 28 348.882535
0.344663 0.687679 3.721633 36.000000 27 348.882537
0.485270 1.017634 3.649204 88.000000 25 348.882540
0.650435 1.383547 3.661226 9.000000 23 348.882542
0.621684 1.322979 2.745021 17.000000 21 348.882545
0.627403 1.335143 2.239270 24.000000 19 348.882547
0.737086 1.568544 2.150872 21.000000 17 348.882550
0.161161 0.286336 5.505174 36.000000 30 348.882558
0.280740 0.529543 5.537965 24.000000 29 348.882560
0.405835 0.835843 3.612372 8.000000 26 348.882563
0.566340 1.199239 3.660772 87.000000 24 348.882565
0.718108 1.521961 3.541909 8.000000 22 348.882568
0.631498 1.338998 2.491725 19.000000 20 348.882571
0.661959 1.403579 2.128914 28.000000 18 348.882573
0.800204 1.696694 2.111935 21.000000 16 348.882576
0.801975 1.712052 1.937661 23.000000 15 348.882533
0.803845 1.716038 1.609816 27.000000 13 348.882536
0.792315 1.690655 1.308739 26.000000 11 348.882538
0.807125 1.722251 1.081749 26.000000 9 348.882541
0.860371 1.835034 0.907166 14.000000 7 348.882544
0.733566 1.563869 0.597353 31.000000 5 348.882546
0.917880 1.956803 0.501825 23.000000 3 348.882549
0.761554 1.622799 0.253567 14.000000 1 348.882551
0.805741 1.713080 1.766669 27.000000 14 348.882559
0.804514 1.710465 1.459896 28.000000 12 348.882562
0.795591 1.690730 1.183213 23.000000 10 348.882564
0.844935 1.795583 1.004825 18.000000 8 348.882567
0.921490 1.957386 0.841692 13.000000 6 348.882569
0.756008 1.605150 0.518649 99.000000 4 348.882572
0.776749 1.648441 0.346053 20.000000 2 348.882574
0.771064 1.635636 0.166620 13.000000 0 348.882577
0.036941 0.048996 5.484065 34.000000 31 348.882588
0.390469 0.774200 5.512636 85.000000 28 348.882590
0.347062 0.686472 3.721633 37.000000 27 348.882593
0.488819 1.015934 3.649204 90.000000 25 348.882595
0.656098 1.383034 3.665829 9.000000 23 348.882598
0.626298 1.320801 2.745021 17.000000 21 348.882600
0.632059 1.332945 2.239270 24.000000 19 348.882603
0.743931 1.568858 2.154709 21.000000 17 348.882606
0.162303 0.286023 5.510165 36.000000 30 348.882613
0.282586 0.528560 5.537965 24.000000 29 348.882616
0.408751 0.834422 3.612372 8.000000 26 348.882618
0.570523 1.197255 3.660772 89.000000 24 348.882621
0.724353 1.521412 3.546410 9.000000 22 348.882624
0.636168 1.336786 2.491725 19.000000 20 348.882626
0.666855 1.401260 2.128914 28.000000 18 348.882629
0.806122 1.693891 2.111935 21.000000 16 348.882631
0.809471 1.712467 1.941166 23.000000 15 348.882589
0.811494 1.716741 1.612954 26.000000 13 348.882591
0.805362 1.702999 1.319705 23.000000 11 348.882594
0.803662 1.699399 1.070159 25.000000 9 348.882597
0.852893 1.802686 0.894055 14.000000 7 348.882599
0.736968 1.556962 0.595944 30.000000 5 348.882602
0.918400 1.940267 0.499027 25.000000 3 348.882604
0.767214 1.620131 0.253567 14.000000 1 348.882607
0.813317 1.713631 1.769994 27.000000 14 348.882615
0.815679 1.718601 1.468726 29.000000 12 348.882617
0.799639 1.684048 1.180681 23.000000 10 348.882620
0.827836 1.743425 0.979648 27.000000 8 348.882622
0.893869 1.881642 0.813766 13.000000 6 348.882625
0.761606 1.602502 0.518649 97.000000 4 348.882627
0.782499 1.645720 0.346053 20.000000 2 348.882630
0.776769 1.632934 0.166620 13.000000 0 348.882632
0.037112 0.048867 5.484065 33.000000 31 348.882643
0.393169 0.772833 5.512636 91.000000 28 348.882646
0.349456 0.685256 3.721633 33.000000 27 348.882648
0.493015 1.015565 3.653975 88.000000 25 348.882651
0.660922 1.380735 3.665829 10.000000 23 348.882653
0.630905 1.318607 2.745021 17.000000 21 348.882656
0.637923 1.333269 2.243403 24.000000 19 348.882658
0.749403 1.566252 2.154709 21.000000 17 348.882661
0.163301 0.285454 5.510165 36.000000 30 348.882669
0.284430 0.527570 5.537965 23.000000 29 348.882671
0.411661 0.832990 3.612372 8.000000 26 348.882674
0.574698 1.195256 3.660772 87.000000 24 348.882676
0.728716 1.516911 3.541909 9.000000 22 348.882679
0.640831 1.334557 2.491725 19.000000 20 348.882682
0.671742 1.398923 2.128914 28.000000 18 348.882684
0.812030 1.691067 2.111935 21.000000 16 348.882687
0.815443 1.709631 1.941166 23.000000 15 348.882644
0.819158 1.717411 1.616092 26.000000 13 348.882647
0.816704 1.711499 1.327930 23.000000 11 348.882650
0.811497 1.700581 1.072477 24.000000 9 348.882652
0.833216 1.745311 0.869706 26.000000 7 348.882655
0.744465 1.558710 0.597353 30.000000 5 348.882657
0.939987 1.968078 0.505556 14.000000 3 348.882660
0.775012 1.621937 0.254013 14.000000 1 348.882662
0.819293 1.710781 1.769994 27.000000 14 348.882670
0.825164 1.723035 1.474612 29.000000 12 348.882673
0.812964 1.696799 1.190811 20.000000 10 348.882675
0.826073 1.724153 0.971256 25.000000 8 348.882678
0.865730 1.806116 0.785840 16.000000 6 348.882680
0.767196 1.599833 0.518649 95.000000 4 348.882683
0.788238 1.642978 0.346053 20.000000 2 348.882685
0.782464 1.630213 0.166620 12.000000 0 348.882688
0.037283 0.048737 5.484065 33.000000 31 348.882699
0.395865 0.771455 5.512636 89.000000 28 348.882701
0.351846 0.684032 3.721633 33.000000 27 348.882704
0.496557 1.013838 3.653975 88.000000 25 348.882706
0.665738 1.378419 3.665829 10.000000 23 348.882709
0.636545 1.318554 2.749410 16.000000 21 348.882711
0.642573 1.331034 2.243403 24.000000 19 348.882714
0.754865 1.563626 2.154709 21.000000 17 348.882717
0.164296 0.284883 5.510165 37.000000 30 348.882724
0.286269 0.526574 5.537965 24.000000 29 348.882727
0.414566 0.831548 3.612372 8.000000 26 348.882729
0.578867 1.193242 3.660772 87.000000 24 348.882732
0.734007 1.514358 3.541909 9.000000 22 348.882735
0.646622 1.334659 2.495991 19.000000 20 348.882737
0.676621 1.396570 2.128914 28.000000 18 348.882740
0.817928 1.688222 2.111935 21.000000 16 348.882742
0.821406 1.706774 1.941166 23.000000 15 348.882700
0.826836 1.718049 1.619230 27.000000 13 348.882702
0.826301 1.716172 1.333413 25.000000 11 348.882705
0.817428 1.697738 1.072477 24.000000 9 348.882708
0.825220 1.713155 0.856594 27.000000 7 348.882710
0.751984 1.560423 0.598762 31.000000 5 348.882713
0.929791 1.929383 0.498095 13.000000 3 348.882715
0.780669 1.619222 0.254013 14.000000 1 348.882718
0.825260 1.707911 1.769994 27.000000 14 348.882726
0.832932 1.723783 1.477555 29.000000 12 348.882728
0.822635 1.701713 1.195875 18.000000 10 348.882731
0.834062 1.725345 0.973354 19.000000 8 348.882733
0.828852 1.713804 0.751344 24.000000 6 348.882736
0.774892 1.601521 0.519821 87.000000 4 348.882738
0.793969 1.640217 0.346053 20.000000 2 348.882741
0.788150 1.627472 0.166620 12.000000 0 348.882744
0.037453 0.048607 5.484065 35.000000 31 348.882754
0.398555 0.770069 5.512636 88.000000 28 348.882757
0.354701 0.683703 3.726528 37.000000 27 348.882759
0.500093 1.012099 3.653975 88.000000 25 348.882762
0.670545 1.376087 3.665829 10.000000 23 348.882764
0.641144 1.316324 2.749410 15.000000 21 348.882767
0.647215 1.328783 2.243403 24.000000 19 348.882770
0.760319 1.560982 2.154709 22.000000 17 348.882772
0.165289 0.284307 5.510165 37.000000 30 348.882780
0.288106 0.525572 5.537965 24.000000 29 348.882782
0.417466 0.830095 3.612372 8.000000 26 348.882785
0.583029 1.191214 3.660772 86.000000 24 348.882788
0.739288 1.511787 3.541909 9.000000 22 348.882790
0.651277 1.332394 2.495991 19.000000 20 348.882793
0.681492 1.394199 2.128914 28.000000 18 348.882795
0.823816 1.685356 2.111935 21.000000 16 348.882798
0.827359 1.703896 1.941166 23.000000 15 348.882755
0.832828 1.715153 1.619230 27.000000 13 348.882758
0.837768 1.724561 1.341637 25.000000 11 348.882761
0.827221 1.702844 1.077113 22.000000 9 348.882763
0.829168 1.706095 0.854721 24.000000 7 348.882766
0.759525 1.562103 0.600171 33.000000 5 348.882768
0.906448 1.864277 0.485038 13.000000 3 348.882771
0.786316 1.616487 0.254013 14.000000 1 348.882773
0.831217 1.705020 1.769994 27.000000 14 348.882781
0.838944 1.720865 1.477555 29.000000 12 348.882784
0.834240 1.710456 1.203473 18.000000 10 348.882786
0.840079 1.722423 0.973354 19.000000 8 348.882789
0.834829 1.710901 0.751344 24.000000 6 348.882791
0.780478 1.598806 0.519821 78.000000 4 348.882794
0.799689 1.637435 0.346053 20.000000 2 348.882796
0.793826 1.624711 0.166620 12.000000 0 348.882799
0.037593 0.048443 5.479065 35.000000 31 348.882810
0.401241 0.768673 5.512636 84.000000 28 348.882812
0.357085 0.682461 3.726528 37.000000 27 348.882815
0.503623 1.010347 3.653975 88.000000 25 348.882817
0.675345 1.373738 3.665829 10.000000 23 348.882820
0.645735 1.314078 2.749410 15.000000 21 348.882822
0.653091 1.329041 2.247536 24.000000 19 348.882825
0.765763 1.558318 2.154709 22.000000 17 348.882828
0.166281 0.283729 5.510165 37.000000 30 348.882835
0.289939 0.524563 5.537965 23.000000 29 348.882838
0.420361 0.828633 3.612372 8.000000 26 348.882840
0.587183 1.189172 3.660772 86.000000 24 348.882843
0.744561 1.509197 3.541909 8.000000 22 348.882846
0.655924 1.330112 2.495991 19.000000 20 348.882848
0.686354 1.391812 2.128914 28.000000 18 348.882851
0.829694 1.682470 2.111935 21.000000 16 348.882853
0.833302 1.700998 1.941166 22.000000 15 348.882811
0.840522 1.715731 1.622368 27.000000 13 348.882814
0.843783 1.721626 1.341637 25.000000 11 348.882816
0.837060 1.707903 1.081749 13.000000 9 348.882819
0.837160 1.707353 0.856594 20.000000 7 348.882821
0.767085 1.563749 0.601580 38.000000 5 348.882824
0.874009 1.781718 0.468251 24.000000 3 348.882826
0.791954 1.613732 0.254013 13.000000 1 348.882829
0.837163 1.702108 1.769994 26.000000 14 348.882837
0.844946 1.717926 1.477555 29.000000 12 348.882839
0.844012 1.715270 1.208538 26.000000 10 348.882842
0.852098 1.731697 0.979648 23.000000 8 348.882844
0.844967 1.716450 0.754629 27.000000 6 348.882847
0.788202 1.600433 0.520994 70.000000 4 348.882849
0.807589 1.639076 0.346743 19.000000 2 348.882852
0.799493 1.621930 0.166620 12.000000 0 348.882855
0.037762 0.048311 5.479065 34.000000 31 348.882865
0.403922 0.767268 5.512636 84.000000 28 348.882868
0.359465 0.681210 3.726528 37.000000 27 348.882870
0.507146 1.008583 3.653975 88.000000 25 348.882873
0.679268 1.369622 3.661226 9.000000 23 348.882875
0.651382 1.313962 2.753798 15.000000 21 348.882878
0.657726 1.326753 2.247536 24.000000 19 348.882881
0.771198 1.555636 2.154709 22.000000 17 348.882883
0.167270 0.283147 5.510165 37.000000 30 348.882891
0.291768 0.523548 5.537965 22.000000 29 348.882893
0.423251 0.827161 3.612372 8.000000 26 348.882896
0.591331 1.187115 3.660772 86.000000 24 348.882899
0.748854 1.504639 3.537408 8.000000 22 348.882901
0.660563 1.327814 2.495991 19.000000 20 348.882904
0.692551 1.392106 2.132904 28.000000 18 348.882906
0.835562 1.679564 2.111935 21.000000 16 348.882909
0.839234 1.698079 1.941166 22.000000 15 348.882866
0.846506 1.712787 1.622368 27.000000 13 348.882869
0.851641 1.722419 1.344379 25.000000 11 348.882872
0.846943 1.712913 1.086385 13.000000 9 348.882874
0.845170 1.708575 0.858467 21.000000 7 348.882877
0.772539 1.561062 0.601580 65.000000 5 348.882879
0.880223 1.778656 0.468251 24.000000 3 348.882882
0.797582 1.610958 0.254013 13.000000 1 348.882884
0.843100 1.699175 1.769994 26.000000 14 348.882892
0.850938 1.714966 1.477555 29.000000 12 348.882895
0.851911 1.716175 1.211070 26.000000 10 348.882897
0.862173 1.736843 0.983844 17.000000 8 348.882900
0.857255 1.726179 0.759557 27.000000 6 348.882902
0.793783 1.597672 0.520994 60.000000 4 348.882905
0.813305 1.636247 0.346743 19.000000 2 348.882908
0.805149 1.619129 0.166620 12.000000 0 348.882910
0.037930 0.048179 5.479065 34.000000 31 348.882921
0.406597 0.765853 5.512636 77.000000 28 348.882923
0.362320 0.680850 3.731424 37.000000 27 348.882926
0.510664 1.006806 3.653975 88.000000 25 348.882928
0.684044 1.367243 3.661226 9.000000 23 348.882931
0.655965 1.311681 2.753798 15.000000 21 348.882934
0.662353 1.324449 2.247536 24.000000 19 348.882936
0.776623 1.552934 2.154709 21.000000 17 348.882939
0.168109 0.282313 5.505174 37.000000 30 348.882946
0.293856 0.522991 5.542937 23.000000 29 348.882949
0.426136 0.825678 3.612372 8.000000 26 348.882952
0.595471 1.185044 3.660772 86.000000 24 348.882954
0.753125 1.500070 3.532907 8.000000 22 348.882957
0.665194 1.325500 2.495991 19.000000 20 348.882959
0.697406 1.389680 2.132904 28.000000 18 348.882962
0.842940 1.679667 2.115611 21.000000 16 348.882964
0.845156 1.695139 1.941166 23.000000 15 348.882922
0.852480 1.709821 1.622368 28.000000 13 348.882925
0.857648 1.719435 1.344379 25.000000 11 348.882927
0.856872 1.717875 1.091021 19.000000 9 348.882930
0.853199 1.709763 0.860340 24.000000 7 348.882932
0.780126 1.562648 0.602990 77.000000 5 348.882935
0.879844 1.762388 0.465453 30.000000 3 348.882937
0.803200 1.608164 0.254013 13.000000 1 348.882940
0.849026 1.696222 1.769994 27.000000 14 348.882948
0.856919 1.711985 1.477555 29.000000 12 348.882950
0.859827 1.717046 1.213603 27.000000 10 348.882953
0.872295 1.741939 0.988040 17.000000 8 348.882955
0.867506 1.731620 0.762843 26.000000 6 348.882958
0.801533 1.599236 0.522166 55.000000 4 348.882960
0.819012 1.633398 0.346743 18.000000 2 348.882963
0.813036 1.620774 0.166821 13.000000 0 348.882966
0.038107 0.048040 5.479065 34.000000 31 348.882976
0.409402 0.764358 5.512636 68.000000 28 348.882979
0.364813 0.679518 3.731424 37.000000 27 348.882981
0.514350 1.004928 3.653975 90.000000 25 348.882984
0.689051 1.364726 3.661226 10.000000 23 348.882986
0.661847 1.311406 2.758187 15.000000 21 348.882989
0.667203 1.322013 2.247536 23.000000 19 348.882991
0.782310 1.550077 2.154709 21.000000 17 348.882994
0.169142 0.281695 5.505174 37.000000 30 348.883002
0.295771 0.521911 5.542937 23.000000 29 348.883004
0.429159 0.824111 3.612372 8.000000 26 348.883007
0.599810 1.182853 3.660772 86.000000 24 348.883009
0.756649 1.493414 3.523906 8.000000 22 348.883012
0.670048 1.323053 2.495991 20.000000 20 348.883014
0.702495 1.387115 2.132904 28.000000 18 348.883017
0.849091 1.676566 2.115611 21.000000 16 348.883020
0.851364 1.692030 1.941166 23.000000 15 348.882977
0.858741 1.706685 1.622368 27.000000 13 348.882980
0.863944 1.716280 1.344379 25.000000 11 348.882982
0.867147 1.722637 1.095657 27.000000 9 348.882985
0.863630 1.714905 0.864087 24.000000 7 348.882988
0.783690 1.555494 0.601580 75.000000 5 348.882990
0.886297 1.759151 0.465453 30.000000 3 348.882993
0.809089 1.605209 0.254013 13.000000 1 348.882995
0.855237 1.693099 1.769994 27.000000 14 348.883003
0.863188 1.708833 1.477555 29.000000 12 348.883006
0.866114 1.713883 1.213603 27.000000 10 348.883008
0.882768 1.746831 0.992236 29.000000 8 348.883011
0.878108 1.736858 0.766128 27.000000 6 348.883013
0.807390 1.596288 0.522166 53.000000 4 348.883016
0.827229 1.634804 0.347432 17.000000 2 348.883018
0.818971 1.617784 0.166821 13.000000 0 348.883021
0.038274 0.047907 5.479065 34.000000 31 348.883032
0.412437 0.763607 5.517575 45.000000 28 348.883034
0.367182 0.678240 3.731424 37.000000 27 348.883037
0.517855 1.003126 3.653975 90.000000 25 348.883039
0.694697 1.364054 3.665829 10.000000 23 348.883042
0.667508 1.311223 2.762576 15.000000 21 348.883044
0.673090 1.322183 2.251669 23.000000 19 348.883047
0.787716 1.547337 2.154709 22.000000 17 348.883049
0.170124 0.281103 5.505174 37.000000 30 348.883057
0.297591 0.520875 5.542937 24.000000 29 348.883060
0.432033 0.822608 3.612372 8.000000 26 348.883062
0.603936 1.180752 3.660772 86.000000 24 348.883065
0.759875 1.486886 3.514904 8.000000 22 348.883067
0.674662 1.320706 2.495991 19.000000 20 348.883070
0.707332 1.384654 2.132904 28.000000 18 348.883073
0.854938 1.673592 2.115611 21.000000 16 348.883075
0.858879 1.692228 1.944670 23.000000 15 348.883033
0.864693 1.703677 1.622368 27.000000 13 348.883035
0.871823 1.716982 1.347120 25.000000 11 348.883038
0.875160 1.723550 1.097975 27.000000 9 348.883040
0.873810 1.720147 0.867833 29.000000 7 348.883043
0.789115 1.552749 0.601580 40.000000 5 348.883046
0.892433 1.756047 0.465453 30.000000 3 348.883048
0.814687 1.602375 0.254013 13.000000 1 348.883051
0.862837 1.693430 1.773318 27.000000 14 348.883058
0.870983 1.709411 1.480499 29.000000 12 348.883061
0.874050 1.714690 1.216135 27.000000 10 348.883064
0.890921 1.747783 0.994335 29.000000 8 348.883066
0.886311 1.737989 0.767771 29.000000 6 348.883069
0.817375 1.602119 0.524511 52.000000 4 348.883071
0.832931 1.631907 0.347432 17.000000 2 348.883074
0.824613 1.614915 0.166821 13.000000 0 348.883076
0.038471 0.047805 5.484065 35.000000 31 348.883087
0.412124 0.756706 5.478061 35.000000 28 348.883090
0.369548 0.676954 3.731424 37.000000 27 348.883092
0.521354 1.001312 3.653975 88.000000 25 348.883095
0.699454 1.361621 3.665829 10.000000 23 348.883097
0.673175 1.311016 2.766964 16.000000 21 348.883100
0.677702 1.319826 2.251669 23.000000 19 348.883102
0.793112 1.544578 2.154709 22.000000 17 348.883105
0.171105 0.280507 5.505174 36.000000 30 348.883113
0.299140 0.519371 5.537965 24.000000 29 348.883115
0.434902 0.821095 3.612372 8.000000 26 348.883118
0.608053 1.178637 3.660772 86.000000 24 348.883120
0.764063 1.482288 3.510403 9.000000 22 348.883123
0.680463 1.320662 2.500257 19.000000 20 348.883126
0.712162 1.382177 2.132904 28.000000 18 348.883128
0.860775 1.670598 2.115611 21.000000 16 348.883131
0.864781 1.689219 1.944670 23.000000 15 348.883088
0.870635 1.700649 1.622368 27.000000 13 348.883091
0.877811 1.713929 1.347120 25.000000 11 348.883093
0.883191 1.724428 1.100294 27.000000 9 348.883096
0.884037 1.725338 0.871579 30.000000 7 348.883099
0.792342 1.545716 0.600171 34.000000 5 348.883101
0.898557 1.752921 0.465453 29.000000 3 348.883104
0.820276 1.599522 0.254013 14.000000 1 348.883106
0.868743 1.690408 1.773318 27.000000 14 348.883114
0.876944 1.706361 1.480499 29.000000 12 348.883117
0.880030 1.711629 1.216135 27.000000 10 348.883119
0.899092 1.748698 0.996432 29.000000 8 348.883122
0.894533 1.739084 0.769414 31.000000 6 348.883124
0.822962 1.599256 0.524511 52.000000 4 348.883127
0.838622 1.628989 0.347432 17.000000 2 348.883129
0.830245 1.612027 0.166821 13.000000 0 348.883132
0.038637 0.047670 5.484065 35.000000 31 348.883143
0.413266 0.752539 5.458304 18.000000 28 348.883145
0.371908 0.675660 3.731424 37.000000 27 348.883148
0.524846 0.999487 3.653975 88.000000 25 348.883150
0.704203 1.359171 3.665829 10.000000 23 348.883153
0.677747 1.308658 2.766964 16.000000 21 348.883155
0.682305 1.317452 2.251669 23.000000 19 348.883158
0.799973 1.544647 2.158546 21.000000 17 348.883160
0.172083 0.279908 5.505174 36.000000 30 348.883168
0.300951 0.518323 5.537965 25.000000 29 348.883171
0.437765 0.819572 3.612372 8.000000 26 348.883173
0.612960 1.178038 3.665465 86.000000 24 348.883176
0.768228 1.477680 3.505902 10.000000 22 348.883178
0.685069 1.318278 2.500257 18.000000 20 348.883181
0.716982 1.379682 2.132904 28.000000 18 348.883184
0.868164 1.670591 2.119286 21.000000 16 348.883186
0.870672 1.686190 1.944670 23.000000 15 348.883144
0.876566 1.697599 1.622368 27.000000 13 348.883146
0.883788 1.710854 1.347120 25.000000 11 348.883149
0.891238 1.725270 1.102612 27.000000 9 348.883152
0.892183 1.726359 0.873452 30.000000 7 348.883154
0.795529 1.538679 0.598762 29.000000 5 348.883157
0.904670 1.749774 0.465453 29.000000 3 348.883159
0.828142 1.601072 0.254459 14.000000 1 348.883162
0.874638 1.687365 1.773318 27.000000 14 348.883170
0.882895 1.703289 1.480499 29.000000 12 348.883172
0.885999 1.708547 1.216135 26.000000 10 348.883175
0.905190 1.745549 0.996432 29.000000 8 348.883177
0.902772 1.740143 0.771056 31.000000 6 348.883180
0.835257 1.609316 0.528027 50.000000 4 348.883182
0.846585 1.630447 0.348122 17.000000 2 348.883185
0.835867 1.609119 0.166821 12.000000 0 348.883187
0.038833 0.047567 5.489065 34.000000 31 348.883198
0.416644 0.752451 5.468183 8.000000 28 348.883201
0.374265 0.674358 3.731424 37.000000 27 348.883203
0.528331 0.997648 3.653975 88.000000 25 348.883206
0.709848 1.358436 3.670431 10.000000 23 348.883208
0.682311 1.306285 2.766964 16.000000 21 348.883211
0.686899 1.315063 2.251669 23.000000 19 348.883213
0.805360 1.541845 2.158546 22.000000 17 348.883216
0.173059 0.279306 5.505174 36.000000 30 348.883224
0.302758 0.517270 5.537965 25.000000 29 348.883226
0.440624 0.818039 3.612372 8.000000 26 348.883229
0.617069 1.175891 3.665465 86.000000 24 348.883231
0.772370 1.473061 3.501401 7.000000 22 348.883234
0.690877 1.318189 2.504523 18.000000 20 348.883237
0.721793 1.377171 2.132904 28.000000 18 348.883239
0.873990 1.667550 2.119286 20.000000 16 348.883242
0.878200 1.686304 1.948175 23.000000 15 348.883199
0.882486 1.694529 1.622368 27.000000 13 348.883202
0.889755 1.707759 1.347120 25.000000 11 348.883204
0.897255 1.722149 1.102612 27.000000 9 348.883207
0.900346 1.727346 0.875325 30.000000 7 348.883210
0.794241 1.523132 0.594534 25.000000 5 348.883212
0.910773 1.746605 0.465453 28.000000 3 348.883215
0.833726 1.598171 0.254459 14.000000 1 348.883217
0.880523 1.684302 1.773318 27.000000 14 348.883225
0.888836 1.700197 1.480499 29.000000 12 348.883228
0.891958 1.705444 1.216135 26.000000 10 348.883230
0.911278 1.742379 0.996432 29.000000 8 348.883233
0.911031 1.741166 0.772699 30.000000 6 348.883235
0.876936 1.675292 0.546785 36.000000 4 348.883238
0.852271 1.627482 0.348122 17.000000 2 348.883240
0.841479 1.606191 0.166821 12.000000 0 348.883243
0.039029 0.047463 5.494065 34.000000 31 348.883254
0.376616 0.673047 3.731424 38.000000 27 348.883259
0.531811 0.995798 3.653975 88.000000 25 348.883261
0.714585 1.355950 3.670431 10.000000 23 348.883264
0.686867 1.303895 2.766964 15.000000 21 348.883266
0.691485 1.312657 2.251669 23.000000 19 348.883269
0.810738 1.539025 2.158546 21.000000 17 348.883272
0.174033 0.278700 5.505174 36.000000 30 348.883279
0.304290 0.515750 5.532994 24.000000 29 348.883282
0.443476 0.816496 3.612372 8.000000 26 348.883284
0.621170 1.173730 3.665465 89.000000 24 348.883287
0.777507 1.470356 3.501401 7.000000 22 348.883290
0.696693 1.318075 2.508789 18.000000 20 348.883292
0.726596 1.374643 2.132904 28.000000 18 348.883295
0.879806 1.664489 2.119286 20.000000 16 348.883297
0.884081 1.683228 1.948175 23.000000 15 348.883255
0.888396 1.691438 1.622368 27.000000 13 348.883257
0.895711 1.704643 1.347120 25.000000 11 348.883260
0.903261 1.719006 1.102612 28.000000 9 348.883263
0.906370 1.724193 0.875325 30.000000 7 348.883265
0.801786 1.524596 0.595944 23.000000 5 348.883268
0.916864 1.743415 0.465453 28.000000 3 348.883270
0.839299 1.595252 0.254459 12.000000 1 348.883273
0.886397 1.681218 1.773318 27.000000 14 348.883281
0.894765 1.697084 1.480499 29.000000 12 348.883283
0.897905 1.702320 1.216135 26.000000 10 348.883286
0.917355 1.739187 0.996432 30.000000 8 348.883288
0.919307 1.742151 0.774342 30.000000 6 348.883291
0.916816 1.736697 0.564369 31.000000 4 348.883293
0.857947 1.624497 0.348122 17.000000 2 348.883296
0.847081 1.603244 0.166821 12.000000 0 348.883298
0.039194 0.047327 5.494065 30.000000 31 348.883309
0.379464 0.672615 3.736319 38.000000 27 348.883314
0.535283 0.993936 3.653975 88.000000 25 348.883317
0.719314 1.353447 3.670431 10.000000 23 348.883319
0.691414 1.301489 2.766964 14.000000 21 348.883322
0.697383 1.312720 2.255802 23.000000 19 348.883324
0.816105 1.536185 2.158546 22.000000 17 348.883327
0.175004 0.278091 5.505174 36.000000 30 348.883335
0.306089 0.514685 5.532994 24.000000 29 348.883337
0.446324 0.814943 3.612372 8.000000 26 348.883340
0.625263 1.171555 3.665465 87.000000 24 348.883342
0.782635 1.467633 3.501401 7.000000 22 348.883345
0.701289 1.315635 2.508789 18.000000 20 348.883348
0.731390 1.372099 2.132904 28.000000 18 348.883350
0.885611 1.661408 2.119286 21.000000 16 348.883353
0.889951 1.680132 1.948175 23.000000 15 348.883310
0.896117 1.691767 1.625505 27.000000 13 348.883313
0.901656 1.701506 1.347120 25.000000 11 348.883316
0.909256 1.715843 1.102612 28.000000 9 348.883318
0.914555 1.725114 0.877198 30.000000 7 348.883321
0.820590 1.547217 0.604399 22.000000 5 348.883323
0.922944 1.740205 0.465453 29.000000 3 348.883326
0.844863 1.592312 0.254459 12.000000 1 348.883328
0.894013 1.681411 1.776643 27.000000 14 348.883336
0.900684 1.693950 1.480499 29.000000 12 348.883339
0.903842 1.699175 1.216135 27.000000 10 348.883341
0.925551 1.739982 0.998531 29.000000 8 348.883344
0.925382 1.738932 0.774342 30.000000 6 348.883346
0.929725 1.746358 0.567886 31.000000 4 348.883349
0.863612 1.621492 0.348122 17.000000 2 348.883351
0.855021 1.604687 0.167023 13.000000 0 348.883354
0.039389 0.047221 5.499064 30.000000 31 348.883365
0.381810 0.671286 3.736319 38.000000 27 348.883370
0.538750 0.992061 3.653975 91.000000 25 348.883372
0.724034 1.350928 3.670431 10.000000 23 348.883375
0.694822 1.296956 2.762576 14.000000 21 348.883377
0.701961 1.310278 2.255802 23.000000 19 348.883380
0.821462 1.533327 2.158546 22.000000 17 348.883383
0.175974 0.277478 5.505174 36.000000 30 348.883390
0.307884 0.513613 5.532994 24.000000 29 348.883393
0.449774 0.814481 3.617211 9.000000 26 348.883395
0.629349 1.169365 3.665465 86.000000 24 348.883398
0.776408 1.443794 3.451892 8.000000 22 348.883401
0.707112 1.315477 2.513055 18.000000 20 348.883403
0.736175 1.369537 2.132904 28.000000 18 348.883406
0.891405 1.658307 2.119286 21.000000 16 348.883408
0.895810 1.677015 1.948175 22.000000 15 348.883366
0.902017 1.688629 1.625505 27.000000 13 348.883368
0.907589 1.698348 1.347120 24.000000 11 348.883371
0.915240 1.712658 1.102612 28.000000 9 348.883374
0.920571 1.721911 0.877198 30.000000 7 348.883376
0.850873 1.590876 0.619900 12.000000 5 348.883379
0.931330 1.741304 0.466385 30.000000 3 348.883381
0.850416 1.589353 0.254459 13.000000 1 348.883384
0.899877 1.678280 1.776643 27.000000 14 348.883392
0.906591 1.690796 1.480499 29.000000 12 348.883394
0.909768 1.696010 1.216135 26.000000 10 348.883397
0.931619 1.736740 0.998531 29.000000 8 348.883399
0.931447 1.735691 0.774342 30.000000 6 348.883402
0.935816 1.743102 0.567886 31.000000 4 348.883404
0.869267 1.618468 0.348122 17.000000 2 348.883407
0.860617 1.601692 0.167023 13.000000 0 348.883410
0.039554 0.047083 5.499064 34.000000 31 348.883420
0.384151 0.669949 3.736319 38.000000 27 348.883425
0.542927 0.991484 3.658747 88.000000 25 348.883428
0.728746 1.348392 3.670431 10.000000 23 348.883430
0.698206 1.292415 2.758187 14.000000 21 348.883433
0.707868 1.310295 2.259935 23.000000 19 348.883436
0.826809 1.530450 2.158546 22.000000 17 348.883438
0.176942 0.276862 5.505174 37.000000 30 348.883446
0.309675 0.512536 5.532994 28.000000 29 348.883448
0.452614 0.812906 3.617211 9.000000 26 348.883451
0.633427 1.167161 3.665465 87.000000 24 348.883454
0.797015 1.469791 3.519405 9.000000 22 348.883456
0.711700 1.313000 2.513055 20.000000 20 348.883459
0.742388 1.369609 2.136893 28.000000 18 348.883461
0.898803 1.658166 2.122961 21.000000 16 348.883464
0.901659 1.673878 1.948175 22.000000 15 348.883421
0.907906 1.685470 1.625505 27.000000 13 348.883424
0.915496 1.698850 1.349862 24.000000 11 348.883427
0.921213 1.709453 1.102612 28.000000 9 348.883429
0.926576 1.718687 0.877198 30.000000 7 348.883432
0.865531 1.604785 0.625537 12.000000 5 348.883434
0.937402 1.738042 0.466385 30.000000 3 348.883437
0.855959 1.586375 0.254459 13.000000 1 348.883439
0.905730 1.675129 1.776643 27.000000 14 348.883447
0.912487 1.687621 1.480499 29.000000 12 348.883450
0.915682 1.692824 1.216135 26.000000 10 348.883452
0.937676 1.733478 0.998531 29.000000 8 348.883455
0.937500 1.732429 0.774342 30.000000 6 348.883457
0.944208 1.744099 0.569059 31.000000 4 348.883460
0.874911 1.615424 0.348122 17.000000 2 348.883462
0.866203 1.598678 0.167023 12.000000 0 348.883465
0.039718 0.046945 5.499064 34.000000 31 348.883476
0.430489 0.746411 5.478061 3.000000 28 348.883478
0.386997 0.669486 3.741214 37.000000 27 348.883481
0.546384 0.989583 3.658747 90.000000 25 348.883483
0.733448 1.345840 3.670431 10.000000 23 348.883486
0.702713 1.289970 2.758187 13.000000 21 348.883488
0.712438 1.307816 2.259935 23.000000 19 348.883491
0.833680 1.530370 2.162383 22.000000 17 348.883494
0.177907 0.276243 5.505174 36.000000 30 348.883501
0.311462 0.511451 5.532994 27.000000 29 348.883504
0.455449 0.811321 3.617211 9.000000 26 348.883506
0.637497 1.164943 3.665465 86.000000 24 348.883509
0.805275 1.472732 3.532907 9.000000 22 348.883512
0.717530 1.312796 2.517321 21.000000 20 348.883514
0.747164 1.367009 2.136893 29.000000 18 348.883517
0.904586 1.655018 2.122961 21.000000 16 348.883519
0.907496 1.670720 1.948175 22.000000 15 348.883477
0.913783 1.682290 1.625505 25.000000 13 348.883480
0.921420 1.695644 1.349862 25.000000 11 348.883482
0.929289 1.710120 1.104930 28.000000 9 348.883485
0.932570 1.715443 0.877198 30.000000 7 348.883487
0.896339 1.648112 0.641038 20.000000 5 348.883490
0.945810 1.739075 0.467318 30.000000 3 348.883492
0.861491 1.583377 0.254459 13.000000 1 348.883495
0.913359 1.675236 1.779968 27.000000 14 348.883503
0.920308 1.687974 1.483442 29.000000 12 348.883505
0.923650 1.693402 1.218667 26.000000 10 348.883508
0.945894 1.734178 1.000629 30.000000 8 348.883510
0.943541 1.729146 0.774342 30.000000 6 348.883513
0.950291 1.740793 0.569059 17.000000 4 348.883515
0.882919 1.616706 0.348812 17.000000 2 348.883518
0.874174 1.600029 0.167224 11.000000 0 348.883521
0.039851 0.046775 5.494065 35.000000 31 348.883531
0.433483 0.745575 5.483001 4.000000 28 348.883534
0.389331 0.668131 3.741214 35.000000 27 348.883536
0.549835 0.987670 3.658747 90.000000 25 348.883539
0.737200 1.341560 3.665829 10.000000 23 348.883541
0.707211 1.287509 2.758187 13.000000 21 348.883544
0.718354 1.307788 2.264068 22.000000 19 348.883547
0.839017 1.527451 2.162383 21.000000 17 348.883549
0.178870 0.275620 5.505174 36.000000 30 348.883557
0.313245 0.510361 5.532994 27.000000 29 348.883559
0.458278 0.809726 3.617211 9.000000 26 348.883562
0.641560 1.162711 3.665465 86.000000 24 348.883565
0.819874 1.487076 3.573415 9.000000 22 348.883567
0.722108 1.310284 2.517321 20.000000 20 348.883570
0.751931 1.364393 2.136893 28.000000 18 348.883572
0.910358 1.651850 2.122961 21.000000 16 348.883575
0.913322 1.667543 1.948175 22.000000 15 348.883532
0.921520 1.682505 1.628643 25.000000 13 348.883535
0.927334 1.692418 1.349862 25.000000 11 348.883538
0.935253 1.706866 1.104930 28.000000 9 348.883540
0.938552 1.712177 0.877198 30.000000 7 348.883543
0.938994 1.712275 0.663585 27.000000 5 348.883545
0.951875 1.735763 0.467318 30.000000 3 348.883548
0.867013 1.580361 0.254459 12.000000 1 348.883550
0.919201 1.672037 1.779968 27.000000 14 348.883558
0.926194 1.684752 1.483442 29.000000 12 348.883561
0.929556 1.690168 1.218667 27.000000 10 348.883563
0.951942 1.730866 1.000629 29.000000 8 348.883566
0.951848 1.729980 0.775984 30.000000 6 348.883568
0.956361 1.737465 0.569059 17.000000 4 348.883571
0.888557 1.613614 0.348812 17.000000 2 348.883574
0.879753 1.596968 0.167224 11.000000 0 348.883576
0.040014 0.046635 5.494065 35.000000 31 348.883587
0.438442 0.748078 5.512636 5.000000 28 348.883589
0.392177 0.667645 3.746109 35.000000 27 348.883592
0.553279 0.985745 3.658747 88.000000 25 348.883594
0.741879 1.338978 3.665829 10.000000 23 348.883597
0.711701 1.285033 2.758187 13.000000 21 348.883600
0.722914 1.305273 2.264068 22.000000 19 348.883602
0.844344 1.524513 2.162383 21.000000 17 348.883605
0.179990 0.275236 5.510165 36.000000 30 348.883612
0.315025 0.509265 5.532994 27.000000 29 348.883615
0.461102 0.808121 3.617211 9.000000 26 348.883618
0.645614 1.160464 3.665465 86.000000 24 348.883620
0.822943 1.480398 3.564413 8.000000 22 348.883623
0.726677 1.307755 2.517321 18.000000 20 348.883625
0.756689 1.361760 2.136893 28.000000 18 348.883628
0.916118 1.648663 2.122961 21.000000 16 348.883630
0.919138 1.664344 1.948175 22.000000 15 348.883588
0.927388 1.679278 1.628643 27.000000 13 348.883591
0.935258 1.692830 1.352603 25.000000 11 348.883593
0.941206 1.703591 1.104930 28.000000 9 348.883596
0.944523 1.708890 0.877198 30.000000 7 348.883598
0.949608 1.717383 0.666403 27.000000 5 348.883601
0.957928 1.732430 0.467318 30.000000 3 348.883603
0.872524 1.577325 0.254459 12.000000 1 348.883606
0.925032 1.668818 1.779968 27.000000 14 348.883614
0.934029 1.685044 1.486385 29.000000 12 348.883616
0.935450 1.686912 1.218667 26.000000 10 348.883619
0.957978 1.727533 1.000629 29.000000 8 348.883621
0.957881 1.726647 0.775984 30.000000 6 348.883624
0.962420 1.734116 0.569059 30.000000 4 348.883626
0.894184 1.610503 0.348812 18.000000 2 348.883629
0.885323 1.593888 0.167224 11.000000 0 348.883632
0.040177 0.046495 5.494065 34.000000 31 348.883642
0.439468 0.743868 5.492879 5.000000 28 348.883645
0.394506 0.666272 3.746109 37.000000 27 348.883647
0.555981 0.982508 3.653975 90.000000 25 348.883650
0.745595 1.334675 3.661226 10.000000 23 348.883652
0.717351 1.284632 2.762576 14.000000 21 348.883655
0.728838 1.305198 2.268201 22.000000 19 348.883657
0.849660 1.521556 2.162383 21.000000 17 348.883660
0.180950 0.274606 5.510165 36.000000 30 348.883668
0.316800 0.508162 5.532994 27.000000 29 348.883670
0.463920 0.806507 3.617211 10.000000 26 348.883673
0.649661 1.158203 3.665465 86.000000 24 348.883675
0.830235 1.481316 3.573415 8.000000 22 348.883678
0.731238 1.305210 2.517321 16.000000 20 348.883680
0.761438 1.359110 2.136893 28.000000 18 348.883683
0.921867 1.645455 2.122961 21.000000 16 348.883686
0.924942 1.661126 1.948175 22.000000 15 348.883643
0.933244 1.676030 1.628643 27.000000 13 348.883646
0.941161 1.689555 1.352603 25.000000 11 348.883648
0.947146 1.700295 1.104930 28.000000 9 348.883651
0.950482 1.705583 0.877198 30.000000 7 348.883654
0.955597 1.714058 0.666403 27.000000 5 348.883656
0.963970 1.729075 0.467318 30.000000 3 348.883659
0.878024 1.574269 0.254459 12.000000 1 348.883661
0.930852 1.665579 1.779968 27.000000 14 348.883669
0.939905 1.681773 1.486385 29.000000 12 348.883672
0.943436 1.687400 1.221200 26.000000 10 348.883674
0.964003 1.724178 1.000629 29.000000 8 348.883677
0.963902 1.723292 0.775984 30.000000 6 348.883679
0.968468 1.730746 0.569059 31.000000 4 348.883682
0.897381 1.603051 0.348122 18.000000 2 348.883684
0.890881 1.590788 0.167224 11.000000 0 348.883687
0.040308 0.046324 5.489065 35.000000 31 348.883698
0.439675 0.738325 5.463244 6.000000 28 348.883700
0.396829 0.664891 3.746109 37.000000 27 348.883703
0.559407 0.980561 3.653975 88.000000 25 348.883705
0.750250 1.332064 3.661226 10.000000 23 348.883708
0.723006 1.284208 2.766964 16.000000 21 348.883710
0.733390 1.302646 2.268201 23.000000 19 348.883713
0.854966 1.518581 2.162383 22.000000 17 348.883715
0.181908 0.273973 5.510165 37.000000 30 348.883723
0.318572 0.507053 5.532994 30.000000 29 348.883726
0.466733 0.804883 3.617211 11.000000 26 348.883728
0.653700 1.155929 3.665465 86.000000 24 348.883731
0.836472 1.480304 3.577915 8.000000 22 348.883733
0.735789 1.302650 2.517321 16.000000 20 348.883736
0.766178 1.356444 2.136893 29.000000 18 348.883739
0.927605 1.642227 2.122961 21.000000 16 348.883741
0.932480 1.660997 1.951679 22.000000 15 348.883699
0.940994 1.676157 1.631781 27.000000 13 348.883701
0.947053 1.686260 1.352603 25.000000 11 348.883704
0.953076 1.696978 1.104930 28.000000 9 348.883706
0.958701 1.706296 0.879071 30.000000 7 348.883709
0.961575 1.710712 0.666403 27.000000 5 348.883712
0.969999 1.725700 0.467318 29.000000 3 348.883714
0.885955 1.575536 0.254906 12.000000 1 348.883717
0.938494 1.665573 1.783293 26.000000 14 348.883724
0.945770 1.678482 1.486385 29.000000 12 348.883727
0.949321 1.684096 1.221200 26.000000 10 348.883730
0.970015 1.720803 1.000629 29.000000 8 348.883732
0.969912 1.719917 0.775984 30.000000 6 348.883735
0.974503 1.727355 0.569059 31.000000 4 348.883737
0.902971 1.599908 0.348122 18.000000 2 348.883740
0.896428 1.587668 0.167224 12.000000 0 348.883742
0.040469 0.046183 5.489065 35.000000 31 348.883753
0.439448 0.732124 5.428669 7.000000 28 348.883756
0.399673 0.664374 3.751005 37.000000 27 348.883758
0.562827 0.978602 3.653975 88.000000 25 348.883761
0.754895 1.329437 3.661226 9.000000 23 348.883763
0.728667 1.283760 2.771353 17.000000 21 348.883766
0.739321 1.302525 2.272334 23.000000 19 348.883768
0.858679 1.512799 2.158546 21.000000 17 348.883771
0.183025 0.273576 5.515157 37.000000 30 348.883779
0.320340 0.505938 5.532994 29.000000 29 348.883781
0.470174 0.804334 3.622051 11.000000 26 348.883784
0.657731 1.153640 3.665465 88.000000 24 348.883786
0.842713 1.479268 3.582416 8.000000 22 348.883789
0.739041 1.297808 2.513055 16.000000 20 348.883792
0.770908 1.353761 2.136893 29.000000 18 348.883794
0.933332 1.638979 2.122961 21.000000 16 348.883797
0.938273 1.657732 1.951679 22.000000 15 348.883754
