# .PCD v.7 - Point Cloud Data file format
VERSION .7
FIELDS x y z intensity ring timestamp
SIZE 4 4 4 4 2 8
TYPE F F F F U D
COUNT 1 1 1 1 1 1
WIDTH 907
HEIGHT 1
VIEWPOINT 0 0 0 1 0 0 0
POINTS 907
DATA ascii
-1.415788 -0.698195 1.119578 40.000000 11 349.343245
-1.407850 -0.694278 0.907897 40.000000 9 349.343247
-1.397887 -0.689061 0.717990 44.000000 7 349.343250
-1.385970 -0.682886 0.543803 40.000000 5 349.343252
-1.370390 -0.675210 0.381517 38.000000 3 349.343255
-1.362435 -0.670995 0.229025 30.000000 1 349.343257
-1.440973 -0.708118 1.510655 39.000000 14 349.343265
-1.420749 -0.698177 1.236216 39.000000 12 349.343268
-1.410154 -0.692665 1.008476 40.000000 10 349.343270
-1.414547 -0.694820 0.816000 45.000000 8 349.343273
-1.395162 -0.684996 0.629785 50.000000 6 349.343275
-1.383355 -0.678900 0.462378 43.000000 4 349.343278
-1.373717 -0.673872 0.305354 32.000000 2 349.343281
-1.363427 -0.668529 0.154931 34.000000 0 349.343283
-0.043028 -0.012103 3.569138 80.000000 31 349.343294
-0.500108 -0.229080 3.497419 95.000000 28 349.343296
-0.656191 -0.299625 3.491558 64.000000 27 349.343299
-1.438905 -0.691378 5.147525 96.000000 25 349.343301
-1.667604 -0.812647 4.429848 12.000000 23 349.343304
-1.548662 -0.755015 3.223385 17.000000 21 349.343307
-1.505607 -0.734022 2.532710 30.000000 19 349.343309
-1.482901 -0.722950 2.051112 33.000000 17 349.343312
-0.199558 -0.080188 3.548463 95.000000 30 349.343319
-0.352449 -0.151559 3.529515 96.000000 29 349.343322
-1.206621 -0.569287 5.170596 99.000000 26 349.343325
-1.677635 -0.813918 5.124916 35.000000 24 349.343327
-1.576517 -0.765536 3.685935 12.000000 22 349.343330
-1.526331 -0.741490 2.845798 26.000000 20 349.343332
-1.490736 -0.724196 2.268547 34.000000 18 349.343335
-1.467802 -0.713051 1.847324 37.000000 16 349.343337
-1.458092 -0.713059 1.674820 37.000000 15 349.343295
-1.440043 -0.704229 1.374483 38.000000 13 349.343298
-1.425730 -0.696921 1.125061 40.000000 11 349.343300
-1.414245 -0.691305 0.910215 40.000000 9 349.343303
-1.404449 -0.686213 0.719863 44.000000 7 349.343305
-1.392656 -0.680149 0.545213 40.000000 5 349.343308
-1.377153 -0.672578 0.382450 38.000000 3 349.343310
-1.369245 -0.668420 0.229472 30.000000 1 349.343313
-1.450151 -0.706355 1.517305 38.000000 14 349.343321
-1.426811 -0.694983 1.239159 39.000000 12 349.343323
-1.416440 -0.689626 1.011008 40.000000 10 349.343326
-1.421044 -0.691865 0.818098 40.000000 8 349.343328
-1.406037 -0.684255 0.633071 50.000000 6 349.343331
-1.390087 -0.676193 0.463550 45.000000 4 349.343333
-1.380515 -0.671238 0.306043 32.000000 2 349.343336
-1.374739 -0.668133 0.155334 34.000000 0 349.343339
-0.043069 -0.011953 3.569138 79.000000 31 349.343350
-0.500905 -0.227333 3.497419 95.000000 28 349.343353
-0.657233 -0.297333 3.491558 64.000000 27 349.343355
-1.441309 -0.686351 5.147525 96.000000 25 349.343358
-1.679226 -0.811069 4.452860 12.000000 23 349.343360
-1.555602 -0.751690 3.232162 16.000000 21 349.343363
-1.513227 -0.731211 2.540976 31.000000 19 349.343365
-1.488303 -0.719165 2.054949 33.000000 17 349.343368
-0.199837 -0.079491 3.548463 94.000000 30 349.343376
-0.352975 -0.150328 3.529515 97.000000 29 349.343378
-1.208601 -0.565072 5.170596 98.000000 26 349.343381
-1.678910 -0.807309 5.120223 40.000000 24 349.343383
-1.585067 -0.762861 3.699438 12.000000 22 349.343386
-1.535960 -0.739552 2.858595 25.000000 20 349.343388
-1.498686 -0.721603 2.276525 34.000000 18 349.343391
-1.476391 -0.710865 1.854674 37.000000 16 349.343394
-1.463781 -0.709520 1.678325 37.000000 15 349.343351
-1.445995 -0.700896 1.377621 38.000000 13 349.343354
-1.431916 -0.693763 1.127803 39.000000 11 349.343356
-1.420636 -0.688295 0.912533 40.000000 9 349.343359
-1.411008 -0.683327 0.721736 44.000000 7 349.343362
-1.399339 -0.677374 0.546622 40.000000 5 349.343364
-1.383914 -0.669907 0.383382 38.000000 3 349.343367
-1.376052 -0.665805 0.229918 30.000000 1 349.343369
-1.455970 -0.702912 1.520630 38.000000 14 349.343377
-1.432868 -0.691756 1.242103 39.000000 12 349.343380
-1.422721 -0.686551 1.013541 40.000000 10 349.343382
-1.427538 -0.688873 0.820196 40.000000 8 349.343385
-1.412670 -0.681394 0.634713 48.000000 6 349.343387
-1.396818 -0.673447 0.464722 45.000000 4 349.343390
-1.387311 -0.668565 0.306733 32.000000 2 349.343392
-1.381564 -0.665498 0.155535 34.000000 0 349.343395
-0.043111 -0.011802 3.569138 80.000000 31 349.343406
-0.501695 -0.225583 3.497419 95.000000 28 349.343408
-0.658267 -0.295037 3.491558 64.000000 27 349.343411
-1.443696 -0.681316 5.147525 96.000000 25 349.343413
-1.690858 -0.809421 4.475873 12.000000 23 349.343416
-1.560377 -0.747290 3.236551 14.000000 21 349.343418
-1.520846 -0.728355 2.549242 31.000000 19 349.343421
-1.496587 -0.716734 2.062623 33.000000 17 349.343423
-0.200113 -0.078793 3.548463 95.000000 30 349.343431
-0.353498 -0.149095 3.529515 97.000000 29 349.343434
-1.210566 -0.560849 5.170596 98.000000 26 349.343436
-1.678603 -0.799959 5.110837 55.000000 24 349.343439
-1.593617 -0.760136 3.712940 12.000000 22 349.343441
-1.543239 -0.736432 2.867127 25.000000 20 349.343444
-1.506636 -0.718963 2.284504 34.000000 18 349.343447
-1.484983 -0.708627 1.862024 36.000000 16 349.343449
-1.472678 -0.707495 1.685334 37.000000 15 349.343407
-1.451942 -0.697530 1.380759 38.000000 13 349.343409
-1.441868 -0.692381 1.133286 39.000000 11 349.343412
-1.427024 -0.685250 0.914851 40.000000 9 349.343414
-1.417565 -0.680403 0.723609 42.000000 7 349.343417
-1.406021 -0.674560 0.548031 40.000000 5 349.343420
-1.390673 -0.667197 0.384315 39.000000 3 349.343422
-1.378368 -0.660998 0.229918 27.000000 1 349.343425
-1.465152 -0.701049 1.527280 38.000000 14 349.343432
-1.442566 -0.690239 1.247989 38.000000 12 349.343435
-1.428998 -0.683441 1.016073 40.000000 10 349.343438
-1.434028 -0.685844 0.822294 45.000000 8 349.343440
-1.419301 -0.678495 0.636356 51.000000 6 349.343443
-1.403546 -0.670663 0.465895 45.000000 4 349.343445
-1.394105 -0.665853 0.307423 32.000000 2 349.343448
-1.388387 -0.662824 0.155737 34.000000 0 349.343450
-0.043195 -0.011659 3.574137 69.000000 31 349.343461
-0.502480 -0.223831 3.497419 95.000000 28 349.343464
-0.659293 -0.292738 3.491558 64.000000 27 349.343466
-1.446066 -0.676273 5.147525 96.000000 25 349.343469
-1.702499 -0.807700 4.498886 12.000000 23 349.343471
-1.567305 -0.743893 3.245329 12.000000 21 349.343474
-1.531006 -0.726662 2.561640 30.000000 19 349.343476
-1.504872 -0.714255 2.070297 33.000000 17 349.343479
-0.200387 -0.078094 3.548463 95.000000 30 349.343487
-0.354016 -0.147860 3.529515 96.000000 29 349.343489
-1.212516 -0.556620 5.170596 98.000000 26 349.343492
-1.681385 -0.794095 5.110837 68.000000 24 349.343494
-1.602167 -0.757361 3.726443 11.000000 22 349.343497
-1.552874 -0.734386 2.879925 25.000000 20 349.343500
-1.514586 -0.716276 2.292484 34.000000 18 349.343502
-1.490512 -0.704889 1.865699 36.000000 16 349.343505
-1.478359 -0.703883 1.688838 37.000000 15 349.343462
-1.457883 -0.694131 1.383897 38.000000 13 349.343465
-1.448052 -0.689141 1.136027 39.000000 11 349.343467
-1.433408 -0.682168 0.917169 40.000000 9 349.343470
-1.424118 -0.677442 0.725482 42.000000 7 349.343473
-1.412699 -0.671708 0.549440 42.000000 5 349.343475
-1.401866 -0.666557 0.386180 39.000000 3 349.343478
-1.385165 -0.658320 0.230364 27.000000 1 349.343480
-1.470965 -0.697530 1.530604 38.000000 14 349.343488
-1.448619 -0.686931 1.250932 38.000000 12 349.343491
-1.439167 -0.682141 1.021138 40.000000 10 349.343493
-1.440515 -0.682777 0.824392 48.000000 8 349.343496
-1.425928 -0.675559 0.637999 51.000000 6 349.343498
-1.410271 -0.667840 0.467067 47.000000 4 349.343501
-1.396420 -0.660983 0.307423 33.000000 2 349.343503
-1.395208 -0.660111 0.155938 34.000000 0 349.343506
-0.043235 -0.011509 3.574137 69.000000 31 349.343517
-0.503258 -0.222075 3.497419 96.000000 28 349.343519
-0.660311 -0.290434 3.491558 63.000000 27 349.343522
-1.448418 -0.671221 5.147525 96.000000 25 349.343524
-1.712380 -0.805077 4.517296 12.000000 23 349.343527
-1.576396 -0.741477 3.258495 12.000000 21 349.343529
-1.538626 -0.723709 2.569906 30.000000 19 349.343532
-1.510257 -0.710362 2.074134 33.000000 17 349.343534
-0.200658 -0.077394 3.548463 95.000000 30 349.343542
-0.354530 -0.146624 3.529515 96.000000 29 349.343545
-1.214452 -0.552384 5.170596 98.000000 26 349.343547
-1.682583 -0.787489 5.106144 72.000000 24 349.343550
-1.610717 -0.754535 3.739945 11.000000 22 349.343552
-1.560151 -0.731174 2.888457 25.000000 20 349.343555
-1.522535 -0.713543 2.300462 34.000000 18 349.343558
-1.499103 -0.702559 1.873049 36.000000 16 349.343560
-1.487257 -0.701762 1.695848 37.000000 15 349.343518
-1.463818 -0.690699 1.387034 38.000000 13 349.343520
-1.454231 -0.685865 1.138769 39.000000 11 349.343523
-1.439787 -0.679050 0.919487 40.000000 9 349.343526
-1.430667 -0.674444 0.727355 42.000000 7 349.343528
-1.419375 -0.668818 0.550849 42.000000 5 349.343531
-1.408628 -0.663754 0.387113 39.000000 3 349.343533
-1.391960 -0.655603 0.230810 30.000000 1 349.343536
-1.476770 -0.693980 1.533929 38.000000 14 349.343544
-1.454666 -0.683590 1.253875 39.000000 12 349.343546
-1.445441 -0.678947 1.023670 40.000000 10 349.343549
-1.446997 -0.679675 0.826490 48.000000 8 349.343551
-1.432552 -0.672584 0.639641 51.000000 6 349.343554
-1.416994 -0.664978 0.468239 45.000000 4 349.343556
-1.403203 -0.658207 0.308113 32.000000 2 349.343559
-1.402027 -0.657357 0.156140 34.000000 0 349.343561
-0.043275 -0.011358 3.574137 80.000000 31 349.343572
-0.504030 -0.220317 3.497419 87.000000 28 349.343575
-0.661321 -0.288128 3.491558 58.000000 27 349.343577
-1.450752 -0.666161 5.147525 96.000000 25 349.343580
-1.724034 -0.803220 4.540308 12.000000 23 349.343582
-1.583318 -0.737994 3.267272 12.000000 21 349.343585
-1.546244 -0.720711 2.578172 30.000000 19 349.343587
-1.518539 -0.707795 2.081807 33.000000 17 349.343590
-0.200927 -0.076694 3.548463 96.000000 30 349.343598
-0.354545 -0.145184 3.524543 96.000000 29 349.343600
-1.216373 -0.548142 5.170596 98.000000 26 349.343603
-1.685322 -0.781611 5.106144 66.000000 24 349.343605
-1.619267 -0.751659 3.753448 11.000000 22 349.343608
-1.569790 -0.729019 2.901255 24.000000 20 349.343611
-1.533218 -0.712032 2.312431 34.000000 18 349.343613
-1.504621 -0.698749 1.876725 36.000000 16 349.343616
-1.492928 -0.698077 1.699352 37.000000 15 349.343573
-1.469746 -0.687234 1.390172 38.000000 13 349.343576
-1.460404 -0.682555 1.141510 39.000000 11 349.343578
-1.446162 -0.675896 0.921806 40.000000 9 349.343581
-1.437213 -0.671408 0.729228 42.000000 7 349.343584
-1.426048 -0.665889 0.552259 42.000000 5 349.343586
-1.419838 -0.662989 0.388978 39.000000 3 349.343589
-1.398753 -0.652846 0.231256 30.000000 1 349.343591
-1.485954 -0.691973 1.540579 38.000000 14 349.343599
-1.460708 -0.680214 1.256818 39.000000 12 349.343602
-1.451711 -0.675716 1.026203 40.000000 10 349.343604
-1.453475 -0.676535 0.828588 48.000000 8 349.343607
-1.439173 -0.669572 0.641284 51.000000 6 349.343609
-1.423714 -0.662077 0.469412 47.000000 4 349.343612
-1.409983 -0.655392 0.308803 33.000000 2 349.343614
-1.408844 -0.654564 0.156342 34.000000 0 349.343617
-0.043315 -0.011207 3.574137 80.000000 31 349.343628
-0.504796 -0.218557 3.497419 88.000000 28 349.343630
-0.662322 -0.285818 3.491558 48.000000 27 349.343633
-1.453068 -0.661093 5.147525 96.000000 25 349.343635
-1.735696 -0.801292 4.563322 11.000000 23 349.343638
-1.592409 -0.735476 3.280438 13.000000 21 349.343640
-1.551305 -0.716489 2.582305 30.000000 19 349.343643
-1.523911 -0.703834 2.085644 33.000000 17 349.343646
-0.201194 -0.075992 3.548463 95.000000 30 349.343653
-0.355050 -0.143945 3.524543 96.000000 29 349.343656
-1.218279 -0.543893 5.170596 99.000000 26 349.343658
-1.688040 -0.775723 5.106144 61.000000 24 349.343661
-1.627817 -0.748732 3.766951 11.000000 22 349.343664
-1.577063 -0.725716 2.909786 25.000000 20 349.343666
-1.541170 -0.709196 2.320410 34.000000 18 349.343669
-1.513210 -0.696328 1.884075 36.000000 16 349.343671
-1.501828 -0.695860 1.706361 37.000000 15 349.343629
-1.479200 -0.685373 1.396448 38.000000 13 349.343631
-1.466572 -0.679211 1.144251 39.000000 11 349.343634
-1.452533 -0.672706 0.924124 40.000000 9 349.343637
-1.443755 -0.668335 0.731101 42.000000 7 349.343639
-1.432717 -0.662922 0.553668 42.000000 5 349.343642
-1.426602 -0.660092 0.389911 39.000000 3 349.343644
-1.405543 -0.650050 0.231703 30.000000 1 349.343647
-1.491752 -0.688347 1.543904 38.000000 14 349.343655
-1.470414 -0.678498 1.262705 38.000000 12 349.343657
-1.457976 -0.672450 1.028735 40.000000 10 349.343660
-1.459949 -0.673358 0.830686 48.000000 8 349.343662
-1.445790 -0.666521 0.642927 51.000000 6 349.343665
-1.430431 -0.659138 0.470584 47.000000 4 349.343667
-1.421258 -0.654610 0.310182 33.000000 2 349.343670
-1.415658 -0.651732 0.156543 34.000000 0 349.343672
-0.043353 -0.011055 3.574137 80.000000 31 349.343683
-0.505556 -0.216793 3.497419 95.000000 28 349.343686
-0.662379 -0.283104 3.486662 39.000000 27 349.343688
-1.455367 -0.656016 5.147525 96.000000 25 349.343691
-1.745589 -0.798479 4.581731 12.000000 23 349.343693
-1.601502 -0.732904 3.293604 12.000000 21 349.343696
-1.558914 -0.713412 2.590571 29.000000 19 349.343698
-1.532189 -0.701179 2.093318 33.000000 17 349.343701
-0.201458 -0.075289 3.548463 95.000000 30 349.343709
-0.355550 -0.142705 3.524543 96.000000 29 349.343711
-1.220170 -0.539637 5.170596 98.000000 26 349.343714
-1.690737 -0.769826 5.106144 59.000000 24 349.343716
-1.636365 -0.745754 3.780453 11.000000 22 349.343719
-1.584333 -0.722370 2.918319 24.000000 20 349.343722
-1.549120 -0.706313 2.328389 34.000000 18 349.343724
-1.518717 -0.692448 1.887750 36.000000 16 349.343727
-1.507489 -0.692101 1.709866 37.000000 15 349.343684
-1.485121 -0.681829 1.399585 38.000000 13 349.343687
-1.472734 -0.675831 1.146993 39.000000 11 349.343690
-1.458898 -0.669479 0.926442 40.000000 9 349.343692
-1.450292 -0.665224 0.732974 40.000000 7 349.343695
-1.439383 -0.659916 0.555077 40.000000 5 349.343697
-1.433362 -0.657155 0.390843 39.000000 3 349.343700
-1.412331 -0.647215 0.232149 30.000000 1 349.343702
-1.500938 -0.686241 1.550554 38.000000 14 349.343710
-1.476449 -0.675042 1.265648 38.000000 12 349.343713
-1.468157 -0.670941 1.033800 40.000000 10 349.343715
-1.466419 -0.670144 0.832784 45.000000 8 349.343718
-1.452404 -0.663433 0.644569 49.000000 6 349.343720
-1.437145 -0.656159 0.471756 48.000000 4 349.343723
-1.428039 -0.651701 0.310872 33.000000 2 349.343725
-1.422470 -0.648860 0.156745 34.000000 0 349.343728
-0.043392 -0.010904 3.574137 80.000000 31 349.343739
-0.506310 -0.215027 3.497419 95.000000 28 349.343741
-0.663364 -0.280790 3.486662 38.000000 27 349.343744
-1.457648 -0.650932 5.147525 96.000000 25 349.343746
-1.757263 -0.796413 4.604744 12.000000 23 349.343749
-1.610596 -0.730277 3.306770 11.000000 21 349.343751
-1.566521 -0.710290 2.598837 29.000000 19 349.343754
-1.540467 -0.698474 2.100992 32.000000 17 349.343757
-0.201719 -0.074585 3.548463 94.000000 30 349.343764
-0.356543 -0.141659 3.529515 96.000000 29 349.343767
-1.222046 -0.535374 5.170596 98.000000 26 349.343769
-1.693415 -0.763920 5.106144 57.000000 24 349.343772
-1.644913 -0.742726 3.793956 11.000000 22 349.343775
-1.593975 -0.720056 2.931116 24.000000 20 349.343777
-1.557070 -0.703382 2.336368 34.000000 18 349.343780
-1.527303 -0.689933 1.895101 36.000000 16 349.343782
-1.516388 -0.689788 1.716875 36.000000 15 349.343740
-1.494579 -0.679865 1.405861 38.000000 13 349.343742
-1.478891 -0.672417 1.149734 39.000000 11 349.343745
-1.469292 -0.668050 0.931078 40.000000 9 349.343748
-1.456826 -0.662075 0.734847 42.000000 7 349.343750
-1.446046 -0.656871 0.556486 40.000000 5 349.343753
-1.440120 -0.654180 0.391776 39.000000 3 349.343755
-1.419116 -0.644340 0.232595 30.000000 1 349.343758
-1.510127 -0.684079 1.557203 38.000000 14 349.343766
-1.486160 -0.673220 1.271534 39.000000 12 349.343768
-1.474417 -0.667590 1.036333 40.000000 10 349.343771
-1.477018 -0.668765 0.836981 46.000000 8 349.343773
-1.459013 -0.660306 0.646212 49.000000 6 349.343776
-1.443855 -0.653142 0.472929 50.000000 4 349.343778
-1.434818 -0.648753 0.311562 33.000000 2 349.343781
-1.429279 -0.645948 0.156946 34.000000 0 349.343784
-0.043430 -0.010752 3.574137 80.000000 31 349.343794
-0.507057 -0.213259 3.497419 95.000000 28 349.343797
-0.664340 -0.278473 3.486662 35.000000 27 349.343799
-1.459912 -0.645840 5.147525 96.000000 25 349.343802
-1.767161 -0.793475 4.623154 12.000000 23 349.343804
-1.619692 -0.727596 3.319936 11.000000 21 349.343807
-1.574125 -0.707124 2.607103 28.000000 19 349.343810
-1.548744 -0.695720 2.108666 33.000000 17 349.343812
-0.201706 -0.073783 3.543471 94.000000 30 349.343820
-0.357035 -0.140414 3.529515 97.000000 29 349.343822
-1.223907 -0.531105 5.170596 98.000000 26 349.343825
-1.696071 -0.758004 5.106144 56.000000 24 349.343828
-1.653459 -0.739648 3.807458 11.000000 22 349.343830
-1.601240 -0.716619 2.939648 24.000000 20 349.343833
-1.562267 -0.699174 2.340357 33.000000 18 349.343835
-1.532797 -0.685983 1.898776 35.000000 16 349.343838
-1.525289 -0.687421 1.723884 36.000000 15 349.343795
-1.504042 -0.677843 1.412136 38.000000 13 349.343798
-1.488854 -0.670685 1.155217 39.000000 11 349.343801
-1.475654 -0.664737 0.933396 40.000000 9 349.343803
-1.463355 -0.658889 0.736720 40.000000 7 349.343806
-1.452705 -0.653789 0.557895 42.000000 5 349.343808
-1.446874 -0.651165 0.392708 39.000000 3 349.343811
-1.425898 -0.641425 0.233041 31.000000 1 349.343813
-1.515913 -0.680333 1.560528 38.000000 14 349.343821
-1.492189 -0.669683 1.274477 38.000000 12 349.343824
-1.484606 -0.665968 1.041397 40.000000 10 349.343826
-1.483485 -0.665463 0.839079 45.000000 8 349.343829
-1.465618 -0.657141 0.647855 49.000000 6 349.343831
-1.450562 -0.650086 0.474101 50.000000 4 349.343834
-1.446113 -0.647789 0.312942 34.000000 2 349.343836
-1.436085 -0.642996 0.157148 34.000000 0 349.343839
-0.043467 -0.010601 3.574137 80.000000 31 349.343850
-0.507798 -0.211487 3.497419 95.000000 28 349.343852
-0.666248 -0.276542 3.491558 30.000000 27 349.343855
-1.462157 -0.640740 5.147525 95.000000 25 349.343857
-1.778845 -0.791272 4.646166 12.000000 23 349.343860
-1.626599 -0.723885 3.328713 11.000000 21 349.343862
-1.581725 -0.703913 2.615369 28.000000 19 349.343865
-1.554092 -0.691613 2.112503 32.000000 17 349.343868
-0.201962 -0.073078 3.543471 94.000000 30 349.343875
-0.357523 -0.139167 3.529515 97.000000 29 349.343878
-1.225754 -0.526830 5.170596 98.000000 26 349.343880
-1.698706 -0.752079 5.106144 55.000000 24 349.343883
-1.662004 -0.736518 3.820961 11.000000 22 349.343886
-1.610884 -0.714196 2.952446 24.000000 20 349.343888
-1.570209 -0.696160 2.348337 33.000000 18 349.343891
-1.541381 -0.683376 1.906126 36.000000 16 349.343893
-1.530935 -0.683547 1.727389 36.000000 15 349.343851
-1.509953 -0.674176 1.415274 38.000000 13 349.343854
-1.495004 -0.667188 1.157959 39.000000 11 349.343856
-1.482012 -0.661387 0.935714 40.000000 9 349.343859
-1.469880 -0.655666 0.738593 42.000000 7 349.343861
-1.459360 -0.650667 0.559305 42.000000 5 349.343864
-1.453625 -0.648111 0.393641 39.000000 3 349.343866
-1.432677 -0.638471 0.233487 31.000000 1 349.343869
-1.525103 -0.678071 1.567178 38.000000 14 349.343877
-1.501904 -0.667754 1.280364 39.000000 12 349.343879
-1.490861 -0.662533 1.043930 39.000000 10 349.343882
-1.489946 -0.662123 0.841177 45.000000 8 349.343884
-1.472219 -0.653938 0.649497 51.000000 6 349.343887
-1.457264 -0.646991 0.475273 50.000000 4 349.343889
-1.452891 -0.644746 0.313631 34.000000 2 349.343892
-1.442887 -0.640005 0.157349 34.000000 0 349.343895
-0.043504 -0.010449 3.574137 80.000000 31 349.343905
-0.508533 -0.209713 3.497419 95.000000 28 349.343908
-0.668151 -0.274601 3.496453 29.000000 27 349.343910
-1.464385 -0.635632 5.147525 96.000000 25 349.343913
-1.788748 -0.788208 4.664577 11.000000 23 349.343915
-1.635693 -0.721102 3.341879 11.000000 21 349.343918
-1.591897 -0.701793 2.627768 28.000000 19 349.343921
-1.562364 -0.688770 2.120177 32.000000 17 349.343923
-0.202489 -0.072469 3.548463 94.000000 30 349.343931
-0.358007 -0.137918 3.529515 97.000000 29 349.343933
-1.227586 -0.522548 5.170596 99.000000 26 349.343936
-1.701321 -0.746145 5.106144 55.000000 24 349.343939
-1.670547 -0.733338 3.834463 11.000000 22 349.343941
-1.618143 -0.710666 2.960978 24.000000 20 349.343944
-1.578148 -0.693098 2.356316 33.000000 18 349.343946
-1.546861 -0.679355 1.909801 36.000000 16 349.343949
-1.539835 -0.681084 1.734398 36.000000 15 349.343906
-1.519418 -0.672050 1.421550 38.000000 13 349.343909
-1.501148 -0.663656 1.160700 39.000000 11 349.343912
-1.492415 -0.659793 0.940350 40.000000 9 349.343914
-1.476400 -0.652405 0.740466 42.000000 7 349.343917
-1.466010 -0.647507 0.560714 42.000000 5 349.343919
-1.460372 -0.645017 0.394574 39.000000 3 349.343922
-1.439453 -0.635478 0.233934 31.000000 1 349.343924
-1.530878 -0.674249 1.570503 38.000000 14 349.343932
-1.507925 -0.664137 1.283307 39.000000 12 349.343935
-1.501056 -0.660799 1.048995 40.000000 10 349.343937
-1.500556 -0.660576 0.845373 43.000000 8 349.343940
-1.478815 -0.650697 0.651140 49.000000 6 349.343942
-1.463963 -0.643857 0.476445 52.000000 4 349.343945
-1.459667 -0.641663 0.314321 34.000000 2 349.343948
-1.449686 -0.636974 0.157551 34.000000 0 349.343950
-0.043540 -0.010297 3.574137 80.000000 31 349.343961
-0.509262 -0.207937 3.497419 96.000000 28 349.343963
-0.674766 -0.274567 3.525824 24.000000 27 349.343966
-1.466595 -0.630517 5.147525 96.000000 25 349.343968
-1.800441 -0.785867 4.687589 10.000000 23 349.343971
-1.644787 -0.718265 3.355045 11.000000 21 349.343974
-1.599495 -0.698484 2.636034 28.000000 19 349.343976
-1.570635 -0.685878 2.127851 32.000000 17 349.343979
-0.202741 -0.071762 3.548463 95.000000 30 349.343986
-0.358486 -0.136668 3.529515 97.000000 29 349.343989
-1.229402 -0.518260 5.170596 99.000000 26 349.343992
-1.703915 -0.740202 5.106144 54.000000 24 349.343994
-1.679088 -0.730108 3.847966 11.000000 22 349.343997
-1.627789 -0.708135 2.973776 23.000000 20 349.343999
-1.586085 -0.689990 2.364295 33.000000 18 349.344002
-1.555440 -0.676656 1.917152 35.000000 16 349.344004
-1.548736 -0.678567 1.741407 36.000000 15 349.343962
-1.528885 -0.669867 1.427825 38.000000 13 349.343965
-1.511117 -0.661767 1.166183 39.000000 11 349.343967
-1.498767 -0.656356 0.942668 40.000000 9 349.343970
-1.487163 -0.650965 0.744212 42.000000 7 349.343972
-1.472656 -0.644309 0.562123 42.000000 5 349.343975
-1.467115 -0.641885 0.395506 39.000000 3 349.343977
-1.446225 -0.632444 0.234380 31.000000 1 349.343980
-1.540068 -0.671888 1.577152 38.000000 14 349.343988
-1.517644 -0.662102 1.289193 38.000000 12 349.343990
-1.507306 -0.657278 1.051527 40.000000 10 349.343993
-1.507013 -0.657148 0.847471 43.000000 8 349.343995
-1.489736 -0.649305 0.654426 49.000000 6 349.343998
-1.475114 -0.642626 0.478790 52.000000 4 349.344000
-1.470978 -0.640518 0.315701 34.000000 2 349.344003
-1.456482 -0.633904 0.157752 34.000000 0 349.344006
-0.043575 -0.010145 3.574137 81.000000 31 349.344016
-0.509985 -0.206158 3.497419 97.000000 28 349.344019
-0.676665 -0.272590 3.530720 23.000000 27 349.344021
-1.468787 -0.625394 5.147525 96.000000 25 349.344024
-1.812139 -0.783454 4.710602 12.000000 23 349.344026
-1.653881 -0.715372 3.368211 11.000000 21 349.344029
-1.607089 -0.695131 2.644300 28.000000 19 349.344031
-1.578904 -0.682937 2.135525 32.000000 17 349.344034
-0.202978 -0.071089 3.548463 95.000000 30 349.344042
-0.358937 -0.135478 3.529515 97.000000 29 349.344044
-1.231114 -0.514180 5.170596 99.000000 26 349.344047
-1.706361 -0.734547 5.106144 54.000000 24 349.344049
-1.689627 -0.727688 3.865969 11.000000 22 349.344052
-1.637436 -0.705544 2.986573 23.000000 20 349.344054
-1.594020 -0.686835 2.372273 33.000000 18 349.344057
-1.563902 -0.674178 1.924502 35.000000 16 349.344060
-1.554367 -0.674576 1.744911 36.000000 15 349.344017
-1.534786 -0.666076 1.430963 38.000000 13 349.344020
-1.517253 -0.658152 1.168925 39.000000 11 349.344022
-1.509178 -0.654647 0.947304 40.000000 9 349.344025
-1.493566 -0.647875 0.746085 40.000000 7 349.344028
-1.483588 -0.643239 0.564941 42.000000 5 349.344030
-1.473854 -0.638713 0.396439 39.000000 3 349.344033
-1.452994 -0.629372 0.234826 31.000000 1 349.344035
-1.545832 -0.667989 1.580477 38.000000 14 349.344043
-1.523656 -0.658403 1.292136 39.000000 12 349.344046
-1.513434 -0.653987 1.054060 40.000000 10 349.344048
-1.513350 -0.653947 0.849569 43.000000 8 349.344051
-1.496216 -0.646233 0.656068 49.000000 6 349.344053
-1.481699 -0.639657 0.479962 52.000000 4 349.344056
-1.477641 -0.637599 0.316391 34.000000 2 349.344058
-1.463163 -0.631049 0.157954 34.000000 0 349.344061
-0.043609 -0.010000 3.574137 81.000000 31 349.344072
-0.510666 -0.204466 3.497419 97.000000 28 349.344074
-0.679457 -0.271098 3.540510 21.000000 27 349.344077
-1.470852 -0.620519 5.147525 96.000000 25 349.344079
-1.829094 -0.783595 4.747422 12.000000 23 349.344082
-1.660648 -0.711771 3.376988 11.000000 21 349.344084
-1.617145 -0.693123 2.656698 27.000000 19 349.344087
-1.587054 -0.680223 2.143198 32.000000 17 349.344089
-0.203225 -0.070380 3.548463 95.000000 30 349.344097
-0.359408 -0.134224 3.529515 96.000000 29 349.344100
-1.232901 -0.509879 5.170596 99.000000 26 349.344102
-1.707327 -0.727910 5.101452 53.000000 24 349.344105
-1.700042 -0.725500 3.883972 11.000000 22 349.344107
-1.646963 -0.703183 2.999371 23.000000 20 349.344110
-1.601833 -0.683912 2.380253 33.000000 18 349.344113
-1.572481 -0.671377 1.931852 35.000000 16 349.344115
-1.563148 -0.672236 1.751920 36.000000 15 349.344073
-1.544138 -0.664058 1.437239 38.000000 13 349.344075
-1.527111 -0.656420 1.174408 39.000000 11 349.344078
-1.515410 -0.651388 0.949622 40.000000 9 349.344080
-1.500078 -0.644487 0.747958 40.000000 7 349.344083
-1.490232 -0.639949 0.566351 43.000000 5 349.344086
-1.480477 -0.635760 0.397372 39.000000 3 349.344088
-1.459649 -0.626514 0.235272 31.000000 1 349.344091
-1.554904 -0.665799 1.587127 38.000000 14 349.344098
-1.533262 -0.656529 1.298023 39.000000 12 349.344101
-1.523635 -0.652092 1.059124 40.000000 10 349.344104
-1.519796 -0.650446 0.851667 45.000000 8 349.344106
-1.502804 -0.642864 0.657711 49.000000 6 349.344109
-1.488392 -0.636392 0.481135 51.000000 4 349.344111
-1.484412 -0.634383 0.317080 34.000000 2 349.344114
-1.469952 -0.627900 0.158155 34.000000 0 349.344116
-0.043643 -0.009848 3.574137 79.000000 31 349.344127
-0.511377 -0.202682 3.497419 97.000000 28 349.344130
-1.473009 -0.615381 5.147525 96.000000 25 349.344135
-1.831818 -0.777206 4.747422 12.000000 23 349.344137
-1.669738 -0.708779 3.390154 11.000000 21 349.344140
-1.624735 -0.689673 2.664964 27.000000 19 349.344142
-1.595320 -0.677185 2.150872 32.000000 17 349.344145
-0.203469 -0.069670 3.548463 95.000000 30 349.344153
-0.359874 -0.132969 3.529515 97.000000 29 349.344155
-1.234674 -0.505573 5.170596 98.000000 26 349.344158
-1.709857 -0.721945 5.101452 55.000000 24 349.344160
-1.708582 -0.722104 3.897475 11.000000 22 349.344163
-1.656613 -0.700476 3.012169 22.000000 20 349.344166
-1.609762 -0.680664 2.388232 32.000000 18 349.344168
-1.581060 -0.668525 1.939203 35.000000 16 349.344171
-1.568765 -0.668173 1.755425 36.000000 15 349.344128
-1.553610 -0.661715 1.443514 38.000000 13 349.344131
-1.533240 -0.652723 1.177149 39.000000 11 349.344133
-1.521751 -0.647829 0.951940 40.000000 9 349.344136
-1.506584 -0.641062 0.749831 40.000000 7 349.344139
-1.496872 -0.636621 0.567760 42.000000 5 349.344141
-1.487208 -0.632511 0.398304 39.000000 3 349.344144
-1.466410 -0.623363 0.235719 31.000000 1 349.344146
-1.560657 -0.661825 1.590452 37.000000 14 349.344154
-1.539266 -0.652751 1.300966 39.000000 12 349.344157
-1.529871 -0.648452 1.061657 40.000000 10 349.344159
-1.526235 -0.646908 0.853765 45.000000 8 349.344162
-1.513736 -0.641299 0.660996 49.000000 6 349.344164
-1.495081 -0.633088 0.482307 51.000000 4 349.344167
-1.491178 -0.631128 0.317770 34.000000 2 349.344169
-1.476736 -0.624712 0.158357 34.000000 0 349.344172
-0.043678 -0.009696 3.574137 79.000000 31 349.344183
-0.512081 -0.200896 3.497419 97.000000 28 349.344185
-1.473768 -0.609665 5.142753 97.000000 25 349.344190
-1.839923 -0.773077 4.761230 12.000000 23 349.344193
-1.678828 -0.705731 3.403321 11.000000 21 349.344195
-1.632321 -0.686178 2.673230 27.000000 19 349.344198
-1.603585 -0.674096 2.158546 31.000000 17 349.344200
-0.203711 -0.068959 3.548463 96.000000 30 349.344208
-0.360336 -0.131712 3.529515 97.000000 29 349.344211
-1.236431 -0.501260 5.170596 98.000000 26 349.344213
-1.712367 -0.715973 5.101452 55.000000 24 349.344216
-1.717119 -0.718658 3.910977 11.000000 22 349.344218
-1.666265 -0.697711 3.024967 22.000000 20 349.344221
-1.620469 -0.678533 2.400200 31.000000 18 349.344224
-1.589638 -0.665621 1.946553 35.000000 16 349.344226
-1.577660 -0.665465 1.762434 36.000000 15 349.344184
-1.563084 -0.659314 1.449790 38.000000 13 349.344186
-1.539362 -0.648992 1.179891 39.000000 11 349.344189
-1.532168 -0.645956 0.956576 39.000000 9 349.344192
-1.513085 -0.637599 0.751705 40.000000 7 349.344194
-1.503506 -0.633254 0.569169 45.000000 5 349.344197
-1.493934 -0.629222 0.399237 39.000000 3 349.344199
-1.473167 -0.620173 0.236165 31.000000 1 349.344202
-1.569844 -0.659265 1.597101 37.000000 14 349.344210
-1.548989 -0.650504 1.306852 39.000000 12 349.344212
-1.540076 -0.646445 1.066722 40.000000 10 349.344215
-1.532669 -0.643333 0.855863 45.000000 8 349.344217
-1.520320 -0.637838 0.662639 47.000000 6 349.344220
-1.501764 -0.629745 0.483479 51.000000 4 349.344222
-1.497939 -0.627833 0.318460 34.000000 2 349.344225
-1.483515 -0.621484 0.158558 34.000000 0 349.344227
-0.043711 -0.009543 3.574137 80.000000 31 349.344238
-0.512779 -0.199107 3.497419 97.000000 28 349.344241
-1.475888 -0.604517 5.142753 96.000000 25 349.344246
-1.846218 -0.768151 4.770435 12.000000 23 349.344248
-1.687916 -0.702628 3.416486 11.000000 21 349.344251
-1.639902 -0.682639 2.681496 27.000000 19 349.344253
-1.611848 -0.670959 2.166220 31.000000 17 349.344256
-0.203951 -0.068248 3.548463 96.000000 30 349.344264
-0.360794 -0.130453 3.529515 97.000000 29 349.344266
-1.238173 -0.496941 5.170596 99.000000 26 349.344269
-1.714856 -0.709991 5.101452 57.000000 24 349.344271
-1.725653 -0.715161 3.924480 11.000000 22 349.344274
-1.673509 -0.693889 3.033499 22.000000 20 349.344277
-1.628395 -0.675181 2.408179 31.000000 18 349.344279
-1.598215 -0.662665 1.953903 34.000000 16 349.344282
-1.586555 -0.662703 1.769443 36.000000 15 349.344239
-1.568968 -0.655354 1.452928 38.000000 13 349.344242
-1.549335 -0.646836 1.185374 39.000000 11 349.344244
-1.538502 -0.642310 0.958894 39.000000 9 349.344247
-1.519580 -0.634099 0.753578 40.000000 7 349.344250
-1.514562 -0.631695 0.571987 43.000000 5 349.344252
-1.500655 -0.625895 0.400169 39.000000 3 349.344255
-1.479920 -0.616943 0.236611 31.000000 1 349.344257
-1.575584 -0.655215 1.600426 37.000000 14 349.344265
-1.554982 -0.646645 1.309795 38.000000 12 349.344268
-1.546304 -0.642720 1.069254 40.000000 10 349.344270
-1.543287 -0.641463 0.860059 46.000000 8 349.344273
-1.526898 -0.634339 0.664282 47.000000 6 349.344275
-1.508442 -0.626363 0.484652 51.000000 4 349.344278
-1.504695 -0.624499 0.319150 34.000000 2 349.344280
-1.490290 -0.618216 0.158760 34.000000 0 349.344283
-0.043744 -0.009390 3.574137 80.000000 31 349.344294
-0.512745 -0.197038 3.492479 97.000000 28 349.344296
-0.992280 -0.379744 5.131459 47.000000 27 349.344299
-1.477989 -0.599361 5.142753 96.000000 25 349.344301
-1.856114 -0.764678 4.788845 12.000000 23 349.344304
-1.694789 -0.698558 3.425264 11.000000 21 349.344306
-1.650080 -0.680128 2.693895 26.000000 19 349.344309
-1.620108 -0.667772 2.173894 31.000000 17 349.344312
-0.204463 -0.067625 3.553454 96.000000 30 349.344319
-0.361247 -0.129193 3.529515 97.000000 29 349.344322
-1.239900 -0.492616 5.170596 98.000000 26 349.344324
-1.717324 -0.704001 5.101452 58.000000 24 349.344327
-1.736197 -0.712440 3.942483 11.000000 22 349.344330
-1.683159 -0.691014 3.046297 22.000000 20 349.344332
-1.639107 -0.672926 2.420147 31.000000 18 349.344335
-1.606791 -0.659657 1.961254 34.000000 16 349.344337
-1.595449 -0.659887 1.776452 35.000000 15 349.344295
-1.578441 -0.652849 1.459203 38.000000 13 349.344297
-1.555448 -0.643021 1.188115 38.000000 11 349.344300
-1.548923 -0.640321 0.963530 40.000000 9 349.344303
-1.530353 -0.632332 0.757324 39.000000 7 349.344305
-1.521192 -0.628236 0.573397 45.000000 5 349.344308
-1.507371 -0.622528 0.401102 39.000000 3 349.344310
-1.486668 -0.613674 0.237057 29.000000 1 349.344313
-1.584767 -0.652555 1.607076 36.000000 14 349.344321
-1.564705 -0.644291 1.315682 38.000000 12 349.344323
-1.556512 -0.640600 1.074319 40.000000 10 349.344326
-1.549714 -0.637800 0.862157 45.000000 8 349.344328
-1.533471 -0.630802 0.665924 47.000000 6 349.344331
-1.515115 -0.622942 0.485824 51.000000 4 349.344333
-1.511446 -0.621125 0.319840 34.000000 2 349.344336
-1.497061 -0.614908 0.158961 34.000000 0 349.344338
-0.043733 -0.009233 3.569138 68.000000 31 349.344349
-0.513430 -0.195247 3.492479 97.000000 28 349.344352
-0.997409 -0.377719 5.151040 57.000000 27 349.344354
-1.480072 -0.594199 5.142753 96.000000 25 349.344357
-1.864198 -0.760408 4.802652 12.000000 23 349.344359
-1.703871 -0.695354 3.438430 12.000000 21 349.344362
-1.657655 -0.676490 2.702161 26.000000 19 349.344364
-1.628366 -0.664535 2.181568 31.000000 17 349.344367
-0.204698 -0.066911 3.553454 96.000000 30 349.344375
-0.361696 -0.127931 3.529515 97.000000 29 349.344377
-1.241612 -0.488285 5.170596 98.000000 26 349.344380
-1.721370 -0.698651 5.106144 65.000000 24 349.344382
-1.744726 -0.708834 3.955986 10.000000 22 349.344385
-1.690393 -0.687099 3.054828 22.000000 20 349.344388
-1.647030 -0.669470 2.428127 31.000000 18 349.344390
-1.615365 -0.656597 1.968604 34.000000 16 349.344393
-1.601044 -0.655665 1.779957 35.000000 15 349.344350
-1.587915 -0.650286 1.465479 38.000000 13 349.344353
-1.565423 -0.640756 1.193598 38.000000 11 349.344356
-1.555248 -0.636589 0.965848 40.000000 9 349.344358
-1.536842 -0.628741 0.759197 40.000000 7 349.344361
-1.527816 -0.624738 0.574806 45.000000 5 349.344363
-1.514081 -0.619121 0.402035 39.000000 3 349.344366
-1.498021 -0.612249 0.237950 29.000000 1 349.344368
-1.590494 -0.648429 1.610401 37.000000 14 349.344376
-1.570687 -0.640352 1.318625 39.000000 12 349.344379
-1.562731 -0.636790 1.076851 40.000000 10 349.344381
-1.556134 -0.634099 0.864255 47.000000 8 349.344384
-1.544411 -0.629008 0.669210 49.000000 6 349.344386
-1.526284 -0.621314 0.488169 51.000000 4 349.344389
-1.518192 -0.617712 0.320530 35.000000 2 349.344391
-1.503826 -0.611561 0.159163 34.000000 0 349.344394
-0.043765 -0.009080 3.569138 68.000000 31 349.344405
-0.514109 -0.193453 3.492479 97.000000 28 349.344407
-1.000628 -0.374949 5.160830 69.000000 27 349.344410
-1.482137 -0.589029 5.142753 96.000000 25 349.344412
-1.883145 -0.760480 4.844075 13.000000 23 349.344415
-1.712952 -0.692094 3.451596 12.000000 21 349.344417
-1.667833 -0.673862 2.714559 26.000000 19 349.344420
-1.636621 -0.661249 2.189242 31.000000 17 349.344423
-0.204930 -0.066196 3.553454 96.000000 30 349.344430
-0.362140 -0.126668 3.529515 96.000000 29 349.344433
-1.242137 -0.483491 5.165757 99.000000 26 349.344435
-1.723798 -0.692638 5.106144 73.000000 24 349.344438
-1.755272 -0.705990 3.973989 10.000000 22 349.344441
-1.700039 -0.684115 3.067626 21.000000 20 349.344443
-1.654949 -0.665967 2.436105 31.000000 18 349.344446
-1.623937 -0.653486 1.975954 34.000000 16 349.344448
-1.613237 -0.654092 1.790470 35.000000 15 349.344406
-1.593783 -0.646202 1.468617 38.000000 13 349.344408
-1.575401 -0.638429 1.199081 38.000000 11 349.344411
-1.565673 -0.634484 0.970484 40.000000 9 349.344414
-1.543324 -0.625113 0.761070 40.000000 7 349.344416
-1.534434 -0.621201 0.576215 43.000000 5 349.344419
-1.520787 -0.615676 0.402967 39.000000 3 349.344421
-1.504765 -0.608884 0.238396 31.000000 1 349.344424
-1.599673 -0.645669 1.617051 37.000000 14 349.344432
-1.580409 -0.637891 1.324511 38.000000 12 349.344434
-1.572941 -0.634557 1.081916 40.000000 10 349.344437
-1.566756 -0.632059 0.868451 47.000000 8 349.344439
-1.550977 -0.625379 0.670852 47.000000 6 349.344442
-1.532951 -0.617800 0.489341 50.000000 4 349.344444
-1.529526 -0.616109 0.321909 35.000000 2 349.344447
-1.510586 -0.608173 0.159364 35.000000 0 349.344450
-0.043840 -0.008932 3.574137 80.000000 31 349.344460
-0.514781 -0.191657 3.492479 94.000000 28 349.344463
-1.007660 -0.373575 5.190202 86.000000 27 349.344465
-1.484184 -0.583851 5.142753 96.000000 25 349.344468
-1.883974 -0.753177 4.839473 12.000000 23 349.344470
-1.722031 -0.688780 3.464762 13.000000 21 349.344473
-1.675401 -0.670126 2.722825 26.000000 19 349.344476
-1.644872 -0.657913 2.196916 30.000000 17 349.344478
-0.205160 -0.065480 3.553454 97.000000 30 349.344486
-0.362580 -0.125403 3.529515 97.000000 29 349.344488
-1.243817 -0.479153 5.165757 99.000000 26 349.344491
-1.727809 -0.687254 5.110837 81.000000 24 349.344494
-1.767842 -0.703887 3.996493 11.000000 22 349.344496
-1.707263 -0.680107 3.076158 22.000000 20 349.344499
-1.662864 -0.662417 2.444084 31.000000 18 349.344501
-1.635657 -0.651577 1.986980 34.000000 16 349.344504
-1.618820 -0.649785 1.793975 35.000000 15 349.344461
-1.603254 -0.643535 1.474892 38.000000 13 349.344464
-1.581500 -0.634482 1.201822 38.000000 11 349.344467
-1.571989 -0.630664 0.972802 40.000000 9 349.344469
-1.554102 -0.623173 0.764816 40.000000 7 349.344472
-1.545500 -0.619410 0.579033 45.000000 5 349.344474
-1.527486 -0.612191 0.403900 39.000000 3 349.344477
-1.511504 -0.605480 0.238842 31.000000 1 349.344479
-1.608853 -0.642852 1.623700 37.000000 14 349.344487
-1.586380 -0.633870 1.327454 38.000000 12 349.344490
-1.579150 -0.630661 1.084449 40.000000 10 349.344492
-1.573167 -0.628269 0.870549 45.000000 8 349.344495
-1.557536 -0.621712 0.672495 49.000000 6 349.344497
-1.544128 -0.616047 0.491686 50.000000 4 349.344500
-1.536268 -0.612601 0.322599 35.000000 2 349.344502
-1.517340 -0.604746 0.159566 35.000000 0 349.344505
-0.043871 -0.008779 3.574137 80.000000 31 349.344516
-0.516176 -0.190127 3.497419 94.000000 28 349.344518
-1.010870 -0.370756 5.199992 90.000000 27 349.344521
-1.486213 -0.578667 5.142753 96.000000 25 349.344523
-1.888408 -0.747315 4.844075 11.000000 23 349.344526
-1.731107 -0.685410 3.477928 14.000000 21 349.344528
-1.685579 -0.667382 2.735224 26.000000 19 349.344531
-1.653120 -0.654528 2.204590 30.000000 17 349.344534
-0.205387 -0.064764 3.553454 97.000000 30 349.344541
-0.363016 -0.124137 3.529515 97.000000 29 349.344544
-1.245482 -0.474808 5.165757 98.000000 26 349.344546
-1.730197 -0.681219 5.110837 87.000000 24 349.344549
-1.778392 -0.700905 4.014497 11.000000 22 349.344552
-1.716905 -0.677013 3.088956 22.000000 20 349.344554
-1.673577 -0.659926 2.456053 31.000000 18 349.344557
-1.644229 -0.648350 1.994330 34.000000 16 349.344559
-1.627707 -0.646765 1.800984 35.000000 15 349.344517
-1.609108 -0.639372 1.478030 37.000000 13 349.344520
-1.591478 -0.632045 1.207305 38.000000 11 349.344522
-1.578299 -0.626808 0.975120 40.000000 9 349.344525
-1.560577 -0.619455 0.766689 40.000000 7 349.344527
-1.552112 -0.615781 0.580442 45.000000 5 349.344530
-1.538746 -0.610478 0.405765 39.000000 3 349.344532
-1.522867 -0.603871 0.239734 31.000000 1 349.344535
-1.618032 -0.639979 1.630350 37.000000 14 349.344543
-1.596100 -0.631302 1.333341 38.000000 12 349.344545
-1.589360 -0.628315 1.089514 40.000000 10 349.344548
-1.583792 -0.626111 0.874746 43.000000 8 349.344550
-1.564089 -0.618007 0.674138 47.000000 6 349.344553
-1.550790 -0.612439 0.492858 50.000000 4 349.344555
-1.543003 -0.609053 0.323289 35.000000 2 349.344558
-1.524089 -0.601279 0.159768 35.000000 0 349.344561
-0.043901 -0.008626 3.574137 80.000000 31 349.344571
-0.516836 -0.188325 3.497419 97.000000 28 349.344574
-1.011201 -0.366878 5.195097 88.000000 27 349.344576
-1.488224 -0.573476 5.142753 96.000000 25 349.344579
-1.887367 -0.739293 4.834870 10.000000 23 349.344581
-1.742411 -0.682860 3.495482 13.000000 21 349.344584
-1.695759 -0.664574 2.747623 26.000000 19 349.344587
-1.661365 -0.651093 2.212264 30.000000 17 349.344589
-0.205335 -0.063962 3.548463 96.000000 30 349.344597
-0.363447 -0.122869 3.529515 97.000000 29 349.344599
-1.247132 -0.470458 5.165757 98.000000 26 349.344602
-1.734172 -0.675802 5.115530 95.000000 24 349.344605
-1.788943 -0.697859 4.032500 11.000000 22 349.344607
-1.726546 -0.673860 3.101753 23.000000 20 349.344610
-1.681486 -0.656271 2.464032 30.000000 18 349.344612
-1.652799 -0.645072 2.001680 34.000000 16 349.344615
-1.636592 -0.643689 1.807993 35.000000 15 349.344572
-1.618576 -0.636601 1.484305 37.000000 13 349.344575
-1.597566 -0.628015 1.210047 38.000000 11 349.344578
-1.588723 -0.624537 0.979756 40.000000 9 349.344580
-1.571359 -0.617394 0.770435 39.000000 7 349.344583
-1.558717 -0.612113 0.581852 43.000000 5 349.344585
-1.545440 -0.606899 0.406698 39.000000 3 349.344588
-1.529602 -0.600371 0.240181 31.000000 1 349.344590
-1.627211 -0.637050 1.637000 37.000000 14 349.344598
-1.602058 -0.627200 1.336284 38.000000 12 349.344601
-1.595559 -0.624335 1.092046 40.000000 10 349.344603
-1.590194 -0.622233 0.876844 45.000000 8 349.344606
-1.575033 -0.615983 0.677423 47.000000 6 349.344608
-1.557445 -0.608792 0.494030 50.000000 4 349.344611
-1.554345 -0.607267 0.324668 35.000000 2 349.344614
-1.530833 -0.597773 0.159969 35.000000 0 349.344616
-0.043931 -0.008472 3.574137 80.000000 31 349.344627
-0.517491 -0.186519 3.497419 97.000000 28 349.344629
-1.012475 -0.363346 5.195097 88.000000 27 349.344632
-1.490217 -0.568277 5.142753 96.000000 25 349.344634
-1.889936 -0.732701 4.834870 9.000000 23 349.344637
-1.747018 -0.677640 3.499871 13.000000 21 349.344640
-1.705939 -0.661704 2.760022 26.000000 19 349.344642
-1.669605 -0.647608 2.219938 30.000000 17 349.344645
-0.205557 -0.063245 3.548463 96.000000 30 349.344652
-0.363873 -0.121599 3.529515 97.000000 29 349.344655
-1.248766 -0.466101 5.165757 98.000000 26 349.344658
-1.736521 -0.669744 5.115530 96.000000 24 349.344660
-1.799495 -0.694747 4.050503 11.000000 22 349.344663
-1.736187 -0.670649 3.114551 20.000000 20 349.344665
-1.689390 -0.652570 2.472011 30.000000 18 349.344668
-1.661365 -0.641742 2.009031 33.000000 16 349.344670
-1.645476 -0.640560 1.815002 35.000000 15 349.344628
-1.624416 -0.632359 1.487443 38.000000 13 349.344631
-1.607542 -0.625467 1.215530 38.000000 11 349.344633
-1.595022 -0.620593 0.982074 40.000000 9 349.344636
-1.577826 -0.613586 0.772308 39.000000 7 349.344638
-1.569787 -0.610144 0.584670 43.000000 5 349.344641
-1.556706 -0.605060 0.408563 39.000000 3 349.344643
-1.536330 -0.596832 0.240627 31.000000 1 349.344646
-1.636389 -0.634065 1.643649 37.000000 14 349.344654
-1.611775 -0.624525 1.342170 38.000000 12 349.344656
-1.605769 -0.621875 1.097111 39.000000 10 349.344659
-1.600821 -0.619956 0.881040 45.000000 8 349.344661
-1.581577 -0.612186 0.679066 45.000000 6 349.344664
-1.564094 -0.605105 0.495203 51.000000 4 349.344666
-1.561074 -0.603624 0.325358 35.000000 2 349.344669
-1.537570 -0.594227 0.160171 35.000000 0 349.344672
-0.043961 -0.008319 3.574137 80.000000 31 349.344682
-0.518139 -0.184712 3.497419 97.000000 28 349.344685
-1.012778 -0.359469 5.190202 89.000000 27 349.344687
-1.492191 -0.563072 5.142753 95.000000 25 349.344690
-1.892483 -0.726099 4.834870 9.000000 23 349.344692
-1.747136 -0.670679 3.495482 13.000000 21 349.344695
-1.713493 -0.657762 2.768288 25.000000 19 349.344697
-1.677841 -0.644074 2.227611 30.000000 17 349.344700
-0.205777 -0.062527 3.548463 96.000000 30 349.344708
-0.364296 -0.120328 3.529515 97.000000 29 349.344710
-1.250386 -0.461740 5.165757 98.000000 26 349.344713
-1.738848 -0.663679 5.115530 96.000000 24 349.344715
-1.808012 -0.690793 4.064005 12.000000 22 349.344718
-1.740953 -0.665515 3.118817 20.000000 20 349.344720
-1.700103 -0.649897 2.483979 30.000000 18 349.344723
-1.669929 -0.638360 2.016381 33.000000 16 349.344726
-1.654357 -0.637377 1.822011 35.000000 15 349.344683
-1.633878 -0.629484 1.493719 37.000000 13 349.344686
-1.613618 -0.621355 1.218271 38.000000 11 349.344688
-1.605447 -0.618206 0.986710 39.000000 9 349.344691
-1.584285 -0.609739 0.774181 40.000000 7 349.344694
-1.576385 -0.606383 0.586079 43.000000 5 349.344696
-1.563393 -0.601386 0.409496 39.000000 3 349.344699
-1.543052 -0.593252 0.241073 31.000000 1 349.344701
-1.645566 -0.631023 1.650299 37.000000 14 349.344709
-1.617720 -0.620342 1.345113 38.000000 12 349.344712
-1.611956 -0.617809 1.099643 40.000000 10 349.344714
-1.611451 -0.617613 0.885236 45.000000 8 349.344717
-1.588115 -0.608351 0.680709 45.000000 6 349.344719
-1.575275 -0.603118 0.497547 51.000000 4 349.344722
-1.567797 -0.599941 0.326048 35.000000 2 349.344724
-1.548967 -0.592425 0.160574 35.000000 0 349.344727
-0.043989 -0.008165 3.574137 80.000000 31 349.344738
-0.518780 -0.182902 3.497419 97.000000 28 349.344740
-1.014026 -0.355932 5.190202 81.000000 27 349.344743
-1.494148 -0.557860 5.142753 96.000000 25 349.344745
-1.895006 -0.719489 4.834870 8.000000 23 349.344748
-1.751706 -0.665427 3.499871 13.000000 21 349.344750
-1.723670 -0.654775 2.780687 26.000000 19 349.344753
-1.686073 -0.640490 2.235285 30.000000 17 349.344755
-0.205994 -0.061808 3.548463 96.000000 30 349.344763
-0.364713 -0.119056 3.529515 97.000000 29 349.344766
-1.250808 -0.456941 5.160918 98.000000 26 349.344768
-1.741154 -0.657605 5.115530 96.000000 24 349.344771
-1.816523 -0.686788 4.077508 12.000000 22 349.344773
-1.738387 -0.657589 3.110285 20.000000 20 349.344776
-1.707999 -0.646092 2.491958 30.000000 18 349.344779
-1.678488 -0.634926 2.023731 33.000000 16 349.344781
-1.663237 -0.634139 1.829020 35.000000 15 349.344739
-1.639703 -0.625164 1.496856 37.000000 13 349.344741
-1.623592 -0.618696 1.223754 38.000000 11 349.344744
-1.615875 -0.615753 0.991346 39.000000 9 349.344746
-1.590736 -0.605856 0.776054 40.000000 7 349.344749
-1.582975 -0.602584 0.587488 43.000000 5 349.344752
-1.574665 -0.599420 0.411361 40.000000 3 349.344754
-1.549768 -0.589633 0.241519 31.000000 1 349.344757
-1.654741 -0.627925 1.656949 37.000000 14 349.344764
-1.627433 -0.617559 1.350999 38.000000 12 349.344767
-1.622165 -0.615236 1.104708 40.000000 10 349.344770
-1.617841 -0.613594 0.887334 45.000000 8 349.344772
-1.594644 -0.604478 0.682351 46.000000 6 349.344775
-1.581916 -0.599337 0.498720 50.000000 4 349.344777
-1.574513 -0.596218 0.326738 36.000000 2 349.344780
-1.555698 -0.588783 0.160775 35.000000 0 349.344782
-0.044018 -0.008012 3.574137 80.000000 31 349.344793
-0.519415 -0.181090 3.497419 97.000000 28 349.344796
-1.015263 -0.352390 5.190202 67.000000 27 349.344798
-1.496086 -0.552641 5.142753 96.000000 25 349.344801
-1.906650 -0.716305 4.857882 8.000000 23 349.344803
-1.731593 -0.650879 3.455984 13.000000 21 349.344806
-1.731213 -0.650734 2.788953 26.000000 19 349.344808
-1.697302 -0.637985 2.246796 29.000000 17 349.344811
-0.206208 -0.061089 3.548463 96.000000 30 349.344819
-0.365127 -0.117782 3.529515 97.000000 29 349.344821
-1.252396 -0.452572 5.160918 98.000000 26 349.344824
-1.743439 -0.651523 5.115530 96.000000 24 349.344826
-1.839306 -0.688074 4.122517 12.000000 22 349.344829
-1.733344 -0.648774 3.097488 20.000000 20 349.344832
-1.718712 -0.643295 2.503927 30.000000 18 349.344834
-1.687045 -0.631440 2.031082 33.000000 16 349.344837
-1.672113 -0.630847 1.836029 35.000000 15 349.344794
-1.649160 -0.622185 1.503132 37.000000 13 349.344797
-1.633566 -0.615976 1.229237 38.000000 11 349.344799
-1.622160 -0.611672 0.993664 39.000000 9 349.344802
-1.601517 -0.603569 0.779800 40.000000 7 349.344805
-1.594048 -0.600436 0.590307 42.000000 5 349.344807
-1.581344 -0.595651 0.412293 40.000000 3 349.344810
-1.561139 -0.587729 0.242412 31.000000 1 349.344812
-1.663915 -0.624770 1.663598 37.000000 14 349.344820
-1.633363 -0.613296 1.353943 38.000000 12 349.344823
-1.632375 -0.612600 1.109773 40.000000 10 349.344825
-1.628471 -0.611132 0.891530 43.000000 8 349.344828
-1.605588 -0.602225 0.685637 46.000000 6 349.344830
-1.588550 -0.595518 0.499892 50.000000 4 349.344833
-1.581222 -0.592456 0.327428 36.000000 2 349.344835
-1.562423 -0.585101 0.160977 35.000000 0 349.344838
