# .PCD v.7 - Point Cloud Data file format
VERSION .7
FIELDS x y z intensity ring timestamp
SIZE 4 4 4 4 2 8
TYPE F F F F U D
COUNT 1 1 1 1 1 1
WIDTH 924
HEIGHT 1
VIEWPOINT 0 0 0 1 0 0 0
POINTS 924
DATA ascii
0.755335 -0.459031 3.438161 91.000000 26 349.708587
1.084334 -0.643036 3.482447 89.000000 24 349.708590
1.438261 -0.852598 3.519405 91.000000 22 349.708592
1.726849 -1.023276 3.353444 30.000000 20 349.708595
1.695466 -1.004682 2.683454 35.000000 18 349.708598
1.695522 -1.004718 2.214840 23.000000 16 349.708600
1.705976 -1.004487 2.025275 38.000000 15 349.708558
1.689968 -0.995064 1.663159 39.000000 13 349.708560
1.626768 -0.958234 1.322447 40.000000 11 349.708563
1.619733 -0.954093 1.070159 55.000000 9 349.708565
1.626281 -0.958332 0.850975 31.000000 7 349.708568
1.632689 -0.962492 0.646675 63.000000 5 349.708571
1.620558 -0.955722 0.448666 72.000000 3 349.708573
1.612556 -0.951382 0.260706 64.000000 1 349.708576
1.693943 -1.001387 1.833166 40.000000 14 349.708583
1.672396 -0.988652 1.498158 42.000000 12 349.708586
1.612065 -0.953367 1.185746 49.000000 10 349.708589
1.614343 -0.954717 0.954471 62.000000 8 349.708591
1.634373 -0.966947 0.749701 67.000000 6 349.708594
1.627269 -0.963128 0.546785 83.000000 4 349.708596
1.619162 -0.958711 0.354331 74.000000 2 349.708599
1.603262 -0.949297 0.168836 74.000000 0 349.708601
0.032376 -0.027971 3.349146 95.000000 31 349.708612
0.451923 -0.284019 3.393694 96.000000 28 349.708615
0.597374 -0.376438 3.418129 84.000000 27 349.708617
0.914269 -0.551399 3.458335 88.000000 25 349.708620
1.251370 -0.745350 3.490933 89.000000 23 349.708622
1.630647 -0.970886 3.543757 78.000000 21 349.708625
1.707603 -1.016709 2.991467 31.000000 19 349.708627
1.681953 -1.001440 2.419459 35.000000 17 349.708630
0.167697 -0.116781 3.363773 97.000000 30 349.708638
0.307059 -0.203136 3.385344 97.000000 29 349.708640
0.753647 -0.461796 3.438161 91.000000 26 349.708643
1.081970 -0.647006 3.482447 90.000000 24 349.708645
1.435276 -0.857613 3.519405 91.000000 22 349.708648
1.725506 -1.030635 3.357709 30.000000 20 349.708651
1.691949 -1.010594 2.683454 35.000000 18 349.708653
1.700736 -1.015846 2.225865 36.000000 16 349.708656
1.705350 -1.012554 2.028780 38.000000 15 349.708613
1.686310 -1.001252 1.663159 39.000000 13 349.708616
1.623245 -0.964189 1.322447 40.000000 11 349.708618
1.616225 -0.960023 1.070159 55.000000 9 349.708621
1.622757 -0.964286 0.850975 31.000000 7 349.708624
1.629151 -0.968470 0.646675 63.000000 5 349.708626
1.617212 -0.961373 0.448666 72.000000 3 349.708629
1.609225 -0.957005 0.260706 64.000000 1 349.708631
1.690438 -1.007294 1.833166 40.000000 14 349.708639
1.668935 -0.994484 1.498158 42.000000 12 349.708642
1.612431 -0.961196 1.188278 49.000000 10 349.708644
1.611001 -0.960346 0.954471 64.000000 8 349.708647
1.630988 -0.972647 0.749701 66.000000 6 349.708649
1.623897 -0.968802 0.546785 83.000000 4 349.708652
1.620058 -0.966895 0.355020 72.000000 2 349.708654
1.599772 -0.955167 0.168836 74.000000 0 349.708657
0.032278 -0.028083 3.349146 95.000000 31 349.708668
0.450929 -0.285595 3.393694 95.000000 28 349.708670
0.596056 -0.378521 3.418129 84.000000 27 349.708673
0.912338 -0.554587 3.458335 89.000000 25 349.708675
1.248760 -0.749714 3.490933 89.000000 23 349.708678
1.627248 -0.976572 3.543757 78.000000 21 349.708680
1.706456 -1.024112 2.995600 31.000000 19 349.708683
1.678447 -1.007305 2.419459 35.000000 17 349.708685
0.167289 -0.117365 3.363773 97.000000 30 349.708693
0.306348 -0.204207 3.385344 97.000000 29 349.708696
0.752030 -0.464424 3.438161 91.000000 26 349.708698
1.079705 -0.650779 3.482447 89.000000 24 349.708701
1.432273 -0.862618 3.519405 90.000000 22 349.708703
1.721898 -1.036652 3.357709 30.000000 20 349.708706
1.688411 -1.016494 2.683454 35.000000 18 349.708709
1.700084 -1.023525 2.229541 38.000000 16 349.708711
1.701805 -1.018500 2.028780 37.000000 15 349.708669
1.682805 -1.007132 1.663159 39.000000 13 349.708671
1.619869 -0.969850 1.322447 40.000000 11 349.708674
1.612864 -0.965659 1.070159 55.000000 9 349.708677
1.619382 -0.969945 0.850975 31.000000 7 349.708679
1.625760 -0.974151 0.646675 63.000000 5 349.708682
1.613846 -0.967012 0.448666 72.000000 3 349.708684
1.605875 -0.962617 0.260706 73.000000 1 349.708687
1.690112 -1.015112 1.836491 40.000000 14 349.708695
1.665453 -1.000304 1.498158 42.000000 12 349.708697
1.609066 -0.966818 1.188278 49.000000 10 349.708700
1.607639 -0.965964 0.954471 62.000000 8 349.708702
1.631630 -0.980767 0.751344 66.000000 6 349.708705
1.624671 -0.976970 0.547957 83.000000 4 349.708707
1.616673 -0.972544 0.355020 74.000000 2 349.708710
1.600708 -0.963321 0.169038 74.000000 0 349.708712
0.032180 -0.028196 3.349146 97.000000 31 349.708723
0.449929 -0.287167 3.393694 95.000000 28 349.708726
0.594731 -0.380599 3.418129 84.000000 27 349.708728
0.910397 -0.557768 3.458335 88.000000 25 349.708731
1.246136 -0.754068 3.490933 89.000000 23 349.708733
1.623829 -0.982246 3.543757 78.000000 21 349.708736
1.702871 -1.030062 2.995600 31.000000 19 349.708738
1.674921 -1.013158 2.419459 35.000000 17 349.708741
0.166878 -0.117948 3.363773 97.000000 30 349.708749
0.305633 -0.205275 3.385344 96.000000 29 349.708751
0.750405 -0.467046 3.438161 90.000000 26 349.708754
1.077427 -0.654544 3.482447 87.000000 24 349.708756
1.427392 -0.866482 3.514904 88.000000 22 349.708759
1.720498 -1.044009 3.361975 29.000000 20 349.708762
1.687429 -1.023945 2.687444 35.000000 18 349.708764
1.699399 -1.031211 2.233216 39.000000 16 349.708767
1.698240 -1.024435 2.028780 37.000000 15 349.708724
1.679279 -1.013000 1.663159 39.000000 13 349.708727
1.620054 -0.977659 1.325188 42.000000 11 349.708729
1.609484 -0.971283 1.070159 55.000000 9 349.708732
1.615986 -0.975592 0.850975 31.000000 7 349.708735
1.622350 -0.979820 0.646675 63.000000 5 349.708737
1.610461 -0.972640 0.448666 72.000000 3 349.708740
1.602505 -0.968216 0.260706 74.000000 1 349.708742
1.686559 -1.021005 1.836491 40.000000 14 349.708750
1.661951 -1.006111 1.498158 42.000000 12 349.708753
1.605681 -0.972429 1.188278 49.000000 10 349.708755
1.604257 -0.971570 0.954471 64.000000 8 349.708758
1.628196 -0.986456 0.751344 66.000000 6 349.708760
1.621251 -0.982635 0.547957 81.000000 4 349.708763
1.613268 -0.978182 0.355020 74.000000 2 349.708765
1.597336 -0.968903 0.169038 74.000000 0 349.708768
0.032082 -0.028308 3.349146 97.000000 31 349.708779
0.448924 -0.288736 3.393694 94.000000 28 349.708781
0.593399 -0.382673 3.418129 85.000000 27 349.708784
0.908444 -0.560943 3.458335 88.000000 25 349.708786
1.243496 -0.758413 3.490933 89.000000 23 349.708789
1.620390 -0.987908 3.543757 78.000000 21 349.708791
1.701668 -1.037465 2.999733 31.000000 19 349.708794
1.671374 -1.018998 2.419459 35.000000 17 349.708797
0.166465 -0.118530 3.363773 98.000000 30 349.708804
0.304915 -0.206340 3.385344 96.000000 29 349.708807
0.748770 -0.469663 3.438161 90.000000 26 349.708809
1.075136 -0.658301 3.482447 89.000000 24 349.708812
1.424359 -0.871460 3.514904 90.000000 22 349.708815
1.716844 -1.050008 3.361975 29.000000 20 349.708817
1.683845 -1.029829 2.687444 35.000000 18 349.708820
1.698681 -1.038906 2.236891 39.000000 16 349.708822
1.697700 -1.032209 2.032284 38.000000 15 349.708780
1.679059 -1.020878 1.666296 38.000000 13 349.708782
1.616632 -0.983308 1.325188 40.000000 11 349.708785
1.606084 -0.976895 1.070159 54.000000 9 349.708788
1.612571 -0.981227 0.850975 32.000000 7 349.708790
1.618920 -0.985477 0.646675 64.000000 5 349.708793
1.607056 -0.978255 0.448666 74.000000 3 349.708795
1.603369 -0.976394 0.261152 73.000000 1 349.708798
1.682984 -1.026886 1.836491 40.000000 14 349.708806
1.661879 -1.014012 1.501101 42.000000 12 349.708808
1.605957 -0.980274 1.190811 50.000000 10 349.708811
1.600856 -0.977164 0.954471 66.000000 8 349.708813
1.624743 -0.992134 0.751344 67.000000 6 349.708816
1.617811 -0.988288 0.547957 83.000000 4 349.708818
1.614069 -0.986390 0.355710 72.000000 2 349.708821
1.593944 -0.974473 0.169038 74.000000 0 349.708823
0.031983 -0.028420 3.349146 98.000000 31 349.708834
0.447913 -0.290301 3.393694 96.000000 28 349.708837
0.592060 -0.384742 3.418129 80.000000 27 349.708839
0.906481 -0.564110 3.458335 88.000000 25 349.708842
1.240841 -0.762749 3.490933 89.000000 23 349.708844
1.616932 -0.993558 3.543757 78.000000 21 349.708847
1.698036 -1.043398 2.999733 31.000000 19 349.708849
1.670538 -1.026505 2.423295 35.000000 17 349.708852
0.166051 -0.119111 3.363773 98.000000 30 349.708860
0.304192 -0.207403 3.385344 96.000000 29 349.708862
0.747126 -0.472274 3.438161 91.000000 26 349.708865
1.072831 -0.662050 3.482447 87.000000 24 349.708867
1.421308 -0.876426 3.514904 90.000000 22 349.708870
1.715388 -1.057363 3.366241 29.000000 20 349.708873
1.682805 -1.037282 2.691433 36.000000 18 349.708875
1.695044 -1.044829 2.236891 38.000000 16 349.708878
1.694087 -1.038129 2.032284 38.000000 15 349.708835
1.675485 -1.026733 1.666296 38.000000 13 349.708838
1.613189 -0.988945 1.325188 40.000000 11 349.708841
1.602664 -0.982495 1.070159 55.000000 9 349.708843
1.613088 -0.989273 0.852848 33.000000 7 349.708846
1.615470 -0.991122 0.646675 64.000000 5 349.708848
1.603631 -0.983859 0.448666 72.000000 3 349.708851
1.599951 -0.981985 0.261152 73.000000 1 349.708853
1.682571 -1.034711 1.839815 42.000000 14 349.708861
1.658330 -1.019806 1.501101 42.000000 12 349.708864
1.602525 -0.985874 1.190811 50.000000 10 349.708866
1.597435 -0.982746 0.954471 66.000000 8 349.708869
1.625292 -1.000274 0.752987 67.000000 6 349.708871
1.614351 -0.993930 0.547957 81.000000 4 349.708874
1.610616 -0.992018 0.355710 72.000000 2 349.708876
1.590533 -0.980031 0.169038 73.000000 0 349.708879
0.031883 -0.028531 3.349146 97.000000 31 349.708890
0.446247 -0.291438 3.388755 96.000000 28 349.708892
0.590713 -0.386806 3.418129 80.000000 27 349.708895
0.904506 -0.567271 3.458335 89.000000 25 349.708897
1.238171 -0.767076 3.490933 89.000000 23 349.708900
1.613454 -0.999196 3.543757 78.000000 21 349.708902
1.696776 -1.050801 3.003866 31.000000 19 349.708905
1.666945 -1.032330 2.423295 35.000000 17 349.708908
0.165655 -0.119661 3.363773 98.000000 30 349.708915
0.303503 -0.208411 3.385344 96.000000 29 349.708918
0.745556 -0.474749 3.438161 91.000000 26 349.708920
1.070630 -0.665604 3.482447 89.000000 24 349.708923
1.418240 -0.881382 3.514904 90.000000 22 349.708926
1.711687 -1.063345 3.366241 29.000000 20 349.708928
1.679174 -1.043150 2.691433 36.000000 18 349.708931
1.691570 -1.050444 2.236891 38.000000 16 349.708933
1.693487 -1.045910 2.035789 38.000000 15 349.708891
1.675203 -1.034621 1.669434 39.000000 13 349.708893
1.609727 -0.994570 1.325188 40.000000 11 349.708896
1.599225 -0.988084 1.070159 52.000000 9 349.708899
1.609798 -0.994617 0.852848 33.000000 7 349.708901
1.616255 -0.998996 0.648084 63.000000 5 349.708904
1.600187 -0.989451 0.448666 72.000000 3 349.708906
1.596513 -0.987564 0.261152 74.000000 1 349.708909
1.678949 -1.040578 1.839815 40.000000 14 349.708917
1.654760 -1.025589 1.501101 42.000000 12 349.708919
1.599247 -0.991183 1.190811 52.000000 10 349.708922
1.594168 -0.988038 0.954471 66.000000 8 349.708924
1.621966 -1.005659 0.752987 67.000000 6 349.708927
1.611046 -0.999277 0.547957 81.000000 4 349.708929
1.607318 -0.997353 0.355710 72.000000 2 349.708932
1.587274 -0.985300 0.169038 73.000000 0 349.708935
0.031788 -0.028637 3.349146 97.000000 31 349.708945
0.445278 -0.292916 3.388755 96.000000 28 349.708948
0.589427 -0.388763 3.418129 85.000000 27 349.708950
0.902620 -0.570268 3.458335 85.000000 25 349.708953
1.235620 -0.771178 3.490933 89.000000 23 349.708955
1.610132 -1.004541 3.543757 78.000000 21 349.708958
1.693282 -1.056422 3.003866 31.000000 19 349.708961
1.663512 -1.037852 2.423295 35.000000 17 349.708963
0.165236 -0.120238 3.363773 98.000000 30 349.708971
0.302774 -0.209469 3.385344 96.000000 29 349.708973
0.743894 -0.477348 3.438161 90.000000 26 349.708976
1.068300 -0.669337 3.482447 89.000000 24 349.708979
1.415309 -0.886081 3.514904 90.000000 22 349.708981
1.710362 -1.070399 3.370507 30.000000 20 349.708984
1.675706 -1.048712 2.691433 36.000000 18 349.708986
1.687893 -1.056343 2.236891 37.000000 16 349.708989
1.690010 -1.051520 2.035789 38.000000 15 349.708946
1.671763 -1.040170 1.669434 39.000000 13 349.708949
1.606420 -0.999903 1.325188 42.000000 11 349.708952
1.595939 -0.993382 1.070159 52.000000 9 349.708954
1.606317 -1.000230 0.852848 32.000000 7 349.708957
1.612758 -1.004632 0.648084 63.000000 5 349.708959
1.601067 -0.997349 0.449598 72.000000 3 349.708962
1.597456 -0.995487 0.261599 74.000000 1 349.708964
1.675489 -1.046139 1.839815 40.000000 14 349.708972
1.651350 -1.031071 1.501101 42.000000 12 349.708975
1.595778 -0.996759 1.190811 52.000000 10 349.708977
1.590709 -0.993596 0.954471 66.000000 8 349.708980
1.618446 -1.011314 0.752987 67.000000 6 349.708982
1.607548 -1.004895 0.547957 81.000000 4 349.708985
1.603827 -1.002958 0.355710 72.000000 2 349.708987
1.583825 -0.990834 0.169038 73.000000 0 349.708990
0.031688 -0.028748 3.349146 97.000000 31 349.709001
0.444253 -0.294468 3.388755 96.000000 28 349.709003
0.588067 -0.390818 3.418129 84.000000 27 349.709006
0.900624 -0.573415 3.458335 85.000000 25 349.709008
1.232921 -0.775486 3.490933 88.000000 23 349.709011
1.604587 -1.008880 3.539369 78.000000 21 349.709013
1.689584 -1.062326 3.003866 31.000000 19 349.709016
1.662594 -1.045359 2.427133 35.000000 17 349.709019
0.164815 -0.120814 3.363773 98.000000 30 349.709026
0.302041 -0.210525 3.385344 96.000000 29 349.709029
0.741167 -0.479259 3.433321 90.000000 26 349.709031
1.065957 -0.673062 3.482447 89.000000 24 349.709034
1.412052 -0.891262 3.514904 90.000000 22 349.709037
1.706427 -1.076660 3.370507 29.000000 20 349.709039
1.674400 -1.056455 2.695423 35.000000 18 349.709042
1.684010 -1.062522 2.236891 37.000000 16 349.709044
1.689350 -1.059307 2.039293 38.000000 15 349.709002
1.668122 -1.045999 1.669434 39.000000 13 349.709005
1.602920 -1.005504 1.325188 42.000000 11 349.709007
1.596215 -1.001301 1.072477 52.000000 9 349.709010
1.602815 -1.005831 0.852848 32.000000 7 349.709012
1.609242 -1.010255 0.648084 63.000000 5 349.709015
1.597401 -1.003210 0.449598 74.000000 3 349.709017
1.593797 -1.001335 0.261599 74.000000 1 349.709020
1.674803 -1.054263 1.843140 40.000000 14 349.709028
1.647560 -1.037116 1.501101 42.000000 12 349.709030
1.595762 -1.004899 1.193343 54.000000 10 349.709033
1.590897 -1.001838 0.956570 66.000000 8 349.709035
1.614728 -1.017239 0.752987 67.000000 6 349.709038
1.607967 -1.013372 0.549129 81.000000 4 349.709040
1.600140 -1.008829 0.355710 74.000000 2 349.709043
1.584583 -0.999021 0.169239 72.000000 0 349.709046
0.031583 -0.028864 3.349146 97.000000 31 349.709056
0.443171 -0.296095 3.388755 96.000000 28 349.709059
0.586630 -0.392970 3.418129 85.000000 27 349.709061
0.898516 -0.576712 3.458335 88.000000 25 349.709064
1.230070 -0.780000 3.490933 83.000000 23 349.709066
1.600879 -1.014755 3.539369 78.000000 21 349.709069
1.685679 -1.068512 3.003866 31.000000 19 349.709072
1.658751 -1.051445 2.427133 35.000000 17 349.709074
0.164371 -0.121417 3.363773 98.000000 30 349.709082
0.301267 -0.211630 3.385344 96.000000 29 349.709084
0.739406 -0.481972 3.433321 90.000000 26 349.709087
1.063483 -0.676964 3.482447 87.000000 24 349.709090
1.408933 -0.896186 3.514904 87.000000 22 349.709092
1.702659 -1.082610 3.370507 29.000000 20 349.709095
1.670702 -1.062294 2.695423 36.000000 18 349.709097
1.683152 -1.070213 2.240566 37.000000 16 349.709100
1.685456 -1.065492 2.039293 38.000000 15 349.709057
1.664277 -1.052106 1.669434 39.000000 13 349.709060
1.599224 -1.011372 1.325188 42.000000 11 349.709063
1.592534 -1.007144 1.072477 50.000000 9 349.709065
1.599118 -1.011699 0.852848 32.000000 7 349.709068
1.605528 -1.016147 0.648084 61.000000 5 349.709070
1.593889 -1.008780 0.449598 74.000000 3 349.709073
1.590292 -1.006892 0.261599 74.000000 1 349.709075
1.671113 -1.060102 1.843140 40.000000 14 349.709083
1.647343 -1.045026 1.504044 44.000000 12 349.709086
1.592244 -1.010463 1.193343 54.000000 10 349.709088
1.587390 -1.007386 0.956570 68.000000 8 349.709091
1.611168 -1.022869 0.752987 67.000000 6 349.709093
1.604420 -1.018978 0.549129 80.000000 4 349.709096
1.596609 -1.014409 0.355710 71.000000 2 349.709099
1.580911 -1.004822 0.169239 72.000000 0 349.709101
0.031482 -0.028974 3.349146 97.000000 31 349.709112
0.442134 -0.297640 3.388755 96.000000 28 349.709114
0.585255 -0.395016 3.418129 85.000000 27 349.709117
0.896498 -0.579845 3.458335 88.000000 25 349.709119
1.227340 -0.784289 3.490933 83.000000 23 349.709122
1.597327 -1.020337 3.539369 78.000000 21 349.709125
1.684310 -1.075904 3.007999 31.000000 19 349.709127
1.657772 -1.058955 2.430969 35.000000 17 349.709130
0.163947 -0.121990 3.363773 98.000000 30 349.709137
0.300526 -0.212681 3.385344 96.000000 29 349.709140
0.737719 -0.484550 3.433321 90.000000 26 349.709143
1.061114 -0.680672 3.482447 87.000000 24 349.709145
1.403962 -0.899923 3.510403 87.000000 22 349.709148
1.701065 -1.089954 3.374774 29.000000 20 349.709150
1.666983 -1.068119 2.695423 36.000000 18 349.709153
1.679406 -1.076082 2.240566 37.000000 16 349.709155
1.681727 -1.071369 2.039293 38.000000 15 349.709113
1.660594 -1.057909 1.669434 39.000000 13 349.709116
1.599210 -1.019196 1.327930 42.000000 11 349.709118
1.592745 -1.015078 1.074795 52.000000 9 349.709121
1.595577 -1.017275 0.852848 32.000000 7 349.709123
1.601971 -1.021745 0.648084 61.000000 5 349.709126
1.594500 -1.016979 0.450531 72.000000 3 349.709128
1.586767 -1.012437 0.261599 74.000000 1 349.709131
1.667403 -1.065929 1.843140 40.000000 14 349.709139
1.643685 -1.050770 1.504044 44.000000 12 349.709141
1.592339 -1.018337 1.195875 54.000000 10 349.709144
1.587688 -1.015366 0.958668 68.000000 8 349.709146
1.607587 -1.028487 0.752987 69.000000 6 349.709149
1.600853 -1.024573 0.549129 81.000000 4 349.709151
1.593058 -1.019976 0.355710 71.000000 2 349.709154
1.577394 -1.010335 0.169239 72.000000 0 349.709157
0.031380 -0.029083 3.349146 97.000000 31 349.709167
0.441093 -0.299181 3.388755 96.000000 28 349.709170
0.583872 -0.397056 3.418129 85.000000 27 349.709172
0.894468 -0.582971 3.458335 88.000000 25 349.709175
1.224595 -0.788568 3.490933 88.000000 23 349.709177
1.593755 -1.025906 3.539369 75.000000 21 349.709180
1.680544 -1.081777 3.007999 31.000000 19 349.709182
1.654066 -1.064735 2.430969 35.000000 17 349.709185
0.163520 -0.122562 3.363773 98.000000 30 349.709193
0.299782 -0.213729 3.385344 96.000000 29 349.709195
0.736023 -0.487123 3.433321 90.000000 26 349.709198
1.058731 -0.684372 3.482447 89.000000 24 349.709200
1.400812 -0.904818 3.510403 90.000000 22 349.709203
1.697250 -1.095885 3.374774 29.000000 20 349.709205
1.665777 -1.075566 2.699412 36.000000 18 349.709208
1.678487 -1.083776 2.244241 37.000000 16 349.709211
1.680978 -1.079159 2.042798 38.000000 15 349.709168
1.656891 -1.063699 1.669434 39.000000 13 349.709171
1.595643 -1.024772 1.327930 42.000000 11 349.709173
1.589192 -1.020632 1.074795 50.000000 9 349.709176
1.592016 -1.022838 0.852848 32.000000 7 349.709179
1.602430 -1.029924 0.649493 63.000000 5 349.709181
1.590940 -1.022539 0.450531 72.000000 3 349.709184
1.583224 -1.017970 0.261599 73.000000 1 349.709186
1.666811 -1.073766 1.846465 39.000000 14 349.709194
1.640007 -1.056501 1.504044 44.000000 12 349.709197
1.588775 -1.023890 1.195875 54.000000 10 349.709199
1.584134 -1.020902 0.958668 66.000000 8 349.709202
1.603987 -1.034093 0.752987 69.000000 6 349.709204
1.597267 -1.030154 0.549129 81.000000 4 349.709207
1.589488 -1.025530 0.355710 71.000000 2 349.709209
1.578055 -1.018544 0.169441 71.000000 0 349.709212
0.031279 -0.029193 3.349146 97.000000 31 349.709223
0.440046 -0.300719 3.388755 96.000000 28 349.709225
0.582483 -0.399092 3.418129 87.000000 27 349.709228
0.891180 -0.585269 3.453563 88.000000 25 349.709230
1.220196 -0.791775 3.486330 88.000000 23 349.709233
1.590165 -1.031463 3.539369 75.000000 21 349.709235
1.679119 -1.089168 3.012132 31.000000 19 349.709238
1.653029 -1.072247 2.434806 35.000000 17 349.709240
0.163091 -0.123132 3.363773 98.000000 30 349.709248
0.299034 -0.214774 3.385344 96.000000 29 349.709251
0.734318 -0.489689 3.433321 90.000000 26 349.709253
1.056336 -0.688064 3.482447 87.000000 24 349.709256
1.397645 -0.909702 3.510403 90.000000 22 349.709258
1.695601 -1.103225 3.379039 29.000000 20 349.709261
1.662012 -1.081374 2.699412 36.000000 18 349.709264
1.674694 -1.089629 2.244241 36.000000 16 349.709266
1.677201 -1.085021 2.042798 38.000000 15 349.709224
1.656437 -1.071591 1.672572 39.000000 13 349.709226
1.595567 -1.032607 1.330671 42.000000 11 349.709229
1.589339 -1.028580 1.077113 52.000000 9 349.709231
1.588436 -1.028389 0.852848 32.000000 7 349.709234
1.598826 -1.035511 0.649493 59.000000 5 349.709237
1.587361 -1.028086 0.450531 74.000000 3 349.709239
1.579661 -1.023490 0.261599 73.000000 1 349.709242
1.663053 -1.079577 1.846465 39.000000 14 349.709249
1.639699 -1.064420 1.506987 44.000000 12 349.709252
1.585191 -1.029429 1.195875 55.000000 10 349.709255
1.584367 -1.028897 0.960766 66.000000 8 349.709257
1.604328 -1.042258 0.754629 69.000000 6 349.709260
1.593661 -1.035724 0.549129 81.000000 4 349.709262
1.590050 -1.033772 0.356400 71.000000 2 349.709265
1.574490 -1.024046 0.169441 71.000000 0 349.709267
0.031177 -0.029302 3.349146 97.000000 31 349.709278
0.438993 -0.302253 3.388755 95.000000 28 349.709281
0.581086 -0.401123 3.418129 85.000000 27 349.709283
0.889131 -0.588377 3.453563 88.000000 25 349.709286
1.217425 -0.796029 3.486330 88.000000 23 349.709288
1.586554 -1.037008 3.539369 78.000000 21 349.709291
1.675307 -1.095022 3.012132 31.000000 19 349.709293
1.649276 -1.078011 2.434806 36.000000 17 349.709296
0.162660 -0.123701 3.363773 98.000000 30 349.709304
0.298283 -0.215816 3.385344 96.000000 29 349.709306
0.732604 -0.492249 3.433321 91.000000 26 349.709309
1.053927 -0.691747 3.482447 87.000000 24 349.709311
1.394462 -0.914576 3.510403 89.000000 22 349.709314
1.693920 -1.110567 3.383305 28.000000 20 349.709317
1.658227 -1.087169 2.699412 36.000000 18 349.709319
1.670880 -1.095468 2.244241 34.000000 16 349.709322
1.673403 -1.090868 2.042798 38.000000 15 349.709279
1.652686 -1.077367 1.672572 39.000000 13 349.709282
1.591952 -1.038170 1.330671 42.000000 11 349.709284
1.585739 -1.034121 1.077113 52.000000 9 349.709287
1.584837 -1.033927 0.852848 32.000000 7 349.709290
1.599219 -1.043708 0.650902 61.000000 5 349.709292
1.583763 -1.033621 0.450531 74.000000 3 349.709295
1.580248 -1.031721 0.262045 71.000000 1 349.709297
1.662399 -1.087420 1.849790 39.000000 14 349.709305
1.635974 -1.070137 1.506987 44.000000 12 349.709308
1.585196 -1.037317 1.198408 59.000000 10 349.709310
1.580766 -1.034421 0.960766 64.000000 8 349.709313
1.600680 -1.047852 0.754629 69.000000 6 349.709315
1.594102 -1.043943 0.550301 81.000000 4 349.709318
1.586432 -1.039316 0.356400 74.000000 2 349.709320
1.570906 -1.029536 0.169441 69.000000 0 349.709323
0.031074 -0.029410 3.349146 97.000000 31 349.709334
0.437935 -0.303784 3.388755 95.000000 28 349.709336
0.579683 -0.403149 3.418129 85.000000 27 349.709339
0.887072 -0.591477 3.453563 88.000000 25 349.709341
1.214639 -0.800274 3.486330 88.000000 23 349.709344
1.582925 -1.042539 3.539369 78.000000 21 349.709346
1.671474 -1.100864 3.012132 31.000000 19 349.709349
1.645503 -1.083761 2.434806 36.000000 17 349.709351
0.162227 -0.124268 3.363773 98.000000 30 349.709359
0.297528 -0.216856 3.385344 96.000000 29 349.709362
0.730881 -0.494803 3.433321 91.000000 26 349.709364
1.050067 -0.694469 3.477755 87.000000 24 349.709367
1.391261 -0.919438 3.510403 89.000000 22 349.709369
1.692209 -1.117911 3.387571 28.000000 20 349.709372
1.656937 -1.094612 2.703402 36.000000 18 349.709375
1.667046 -1.101294 2.244241 33.000000 16 349.709377
1.672565 -1.098661 2.046302 38.000000 15 349.709335
1.652169 -1.085266 1.675710 39.000000 13 349.709337
1.591813 -1.046018 1.333413 40.000000 11 349.709340
1.582119 -1.039650 1.077113 54.000000 9 349.709343
1.581218 -1.039453 0.852848 32.000000 7 349.709345
1.595566 -1.049284 0.650902 64.000000 5 349.709348
1.580145 -1.039143 0.450531 72.000000 3 349.709350
1.576637 -1.037230 0.262045 71.000000 1 349.709353
1.658593 -1.093216 1.849790 39.000000 14 349.709361
1.632228 -1.075842 1.506987 44.000000 12 349.709363
1.581565 -1.042844 1.198408 57.000000 10 349.709366
1.580934 -1.042431 0.962864 66.000000 8 349.709368
1.600955 -1.056033 0.756272 69.000000 6 349.709371
1.590448 -1.049501 0.550301 81.000000 4 349.709373
1.586927 -1.047575 0.357090 71.000000 2 349.709376
1.567303 -1.035013 0.169441 69.000000 0 349.709378
0.030971 -0.029519 3.349146 97.000000 31 349.709389
0.436872 -0.305311 3.388755 96.000000 28 349.709392
0.578272 -0.405170 3.418129 85.000000 27 349.709394
0.885002 -0.594570 3.453563 89.000000 25 349.709397
1.211838 -0.804509 3.486330 88.000000 23 349.709399
1.579276 -1.048059 3.539369 78.000000 21 349.709402
1.669966 -1.108248 3.016265 32.000000 19 349.709404
1.644381 -1.091271 2.438643 35.000000 17 349.709407
0.161793 -0.124833 3.363773 98.000000 30 349.709415
0.296769 -0.217893 3.385344 96.000000 29 349.709417
0.729150 -0.497351 3.433321 91.000000 26 349.709420
1.047637 -0.698131 3.477755 87.000000 24 349.709422
1.388043 -0.924288 3.510403 89.000000 22 349.709425
1.688297 -1.123811 3.387571 28.000000 20 349.709428
1.653106 -1.100389 2.703402 36.000000 18 349.709430
1.663192 -1.107106 2.244241 30.000000 16 349.709433
1.668720 -1.104493 2.046302 38.000000 15 349.709390
1.648371 -1.091027 1.675710 39.000000 13 349.709393
1.588152 -1.051568 1.333413 42.000000 11 349.709395
1.578480 -1.045167 1.077113 52.000000 9 349.709398
1.577580 -1.044966 0.852848 32.000000 7 349.709401
1.591893 -1.054847 0.650902 64.000000 5 349.709403
1.576508 -1.044652 0.450531 72.000000 3 349.709406
1.573007 -1.042728 0.262045 71.000000 1 349.709408
1.657878 -1.101065 1.853115 39.000000 14 349.709416
1.628463 -1.081532 1.506987 42.000000 12 349.709419
1.577916 -1.048358 1.198408 57.000000 10 349.709421
1.577286 -1.047943 0.962864 66.000000 8 349.709424
1.597259 -1.061615 0.756272 71.000000 6 349.709426
1.586775 -1.055047 0.550301 81.000000 4 349.709429
1.583261 -1.053108 0.357090 71.000000 2 349.709431
1.563680 -1.040478 0.169441 68.000000 0 349.709434
0.030868 -0.029627 3.349146 97.000000 31 349.709445
0.435804 -0.306834 3.388755 96.000000 28 349.709447
0.576854 -0.407186 3.418129 85.000000 27 349.709450
0.882921 -0.597655 3.453563 89.000000 25 349.709452
1.209022 -0.808734 3.486330 88.000000 23 349.709455
1.573617 -1.052233 3.534980 78.000000 21 349.709457
1.666088 -1.114070 3.016265 32.000000 19 349.709460
1.640562 -1.097005 2.438643 35.000000 17 349.709463
0.161356 -0.125397 3.363773 98.000000 30 349.709470
0.295578 -0.218610 3.380373 96.000000 29 349.709473
0.727409 -0.499894 3.433321 91.000000 26 349.709475
1.045193 -0.701783 3.477755 89.000000 24 349.709478
1.383000 -0.927915 3.505902 89.000000 22 349.709481
1.686530 -1.131150 3.391837 28.000000 20 349.709483
1.651758 -1.107832 2.707391 36.000000 18 349.709486
1.659317 -1.112905 2.244241 28.000000 16 349.709488
1.664855 -1.110311 2.046302 38.000000 15 349.709446
1.644552 -1.096774 1.675710 39.000000 13 349.709448
1.584472 -1.057105 1.333413 40.000000 11 349.709451
1.578508 -1.053129 1.079431 52.000000 9 349.709454
1.573923 -1.050467 0.852848 32.000000 7 349.709456
1.588202 -1.060398 0.650902 63.000000 5 349.709459
1.576937 -1.052877 0.451464 72.000000 3 349.709461
1.569358 -1.048212 0.262045 59.000000 1 349.709464
1.654024 -1.106846 1.853115 39.000000 14 349.709472
1.628037 -1.089458 1.509930 42.000000 12 349.709474
1.574246 -1.053860 1.198408 57.000000 10 349.709477
1.573618 -1.053442 0.962864 64.000000 8 349.709479
1.593543 -1.067184 0.756272 71.000000 6 349.709482
1.587121 -1.063284 0.551474 82.000000 4 349.709484
1.583689 -1.061386 0.357780 74.000000 2 349.709487
1.560039 -1.045930 0.169441 66.000000 0 349.709489
0.030764 -0.029734 3.349146 93.000000 31 349.709500
0.434097 -0.307903 3.383816 96.000000 28 349.709503
0.575429 -0.409197 3.418129 85.000000 27 349.709505
0.880830 -0.600734 3.453563 88.000000 25 349.709508
1.206192 -0.812949 3.486330 88.000000 23 349.709510
1.569934 -1.057720 3.534980 78.000000 21 349.709513
1.664522 -1.121451 3.020398 32.000000 19 349.709515
1.636722 -1.102724 2.438643 36.000000 17 349.709518
0.160917 -0.125960 3.363773 97.000000 30 349.709526
0.294813 -0.219640 3.380373 96.000000 29 349.709528
0.725660 -0.502430 3.433321 91.000000 26 349.709531
1.042737 -0.705428 3.477755 89.000000 24 349.709533
1.379752 -0.932737 3.505902 89.000000 22 349.709536
1.684732 -1.138491 3.396103 28.000000 20 349.709539
1.647881 -1.113591 2.707391 36.000000 18 349.709541
1.655422 -1.118690 2.244241 26.000000 16 349.709544
1.660969 -1.116115 2.046302 38.000000 15 349.709501
1.640714 -1.102508 1.675710 39.000000 13 349.709504
1.580772 -1.062629 1.333413 40.000000 11 349.709507
1.574822 -1.058632 1.079431 52.000000 9 349.709509
1.570246 -1.055954 0.852848 32.000000 7 349.709512
1.584490 -1.065935 0.650902 63.000000 5 349.709514
1.573252 -1.058375 0.451464 72.000000 3 349.709517
1.565689 -1.053684 0.262045 59.000000 1 349.709519
1.650151 -1.112612 1.853115 39.000000 14 349.709527
1.624224 -1.095134 1.509930 42.000000 12 349.709530
1.574132 -1.061759 1.200940 55.000000 10 349.709532
1.569931 -1.058929 0.962864 64.000000 8 349.709535
1.593723 -1.075381 0.757915 71.000000 6 349.709537
1.583400 -1.068818 0.551474 82.000000 4 349.709540
1.579974 -1.066907 0.357780 74.000000 2 349.709542
1.556378 -1.051369 0.169441 66.000000 0 349.709545
0.030660 -0.029841 3.349146 93.000000 31 349.709556
0.433019 -0.309417 3.383816 95.000000 28 349.709558
0.573997 -0.411203 3.418129 85.000000 27 349.709561
0.878727 -0.603805 3.453563 88.000000 25 349.709563
1.203347 -0.817155 3.486330 88.000000 23 349.709566
1.566232 -1.063193 3.534980 78.000000 21 349.709568
1.660598 -1.127255 3.020398 32.000000 19 349.709571
1.635516 -1.110231 2.442480 36.000000 17 349.709574
0.160476 -0.126521 3.363773 97.000000 30 349.709581
0.294044 -0.220668 3.380373 96.000000 29 349.709584
0.723902 -0.504960 3.433321 91.000000 26 349.709586
1.040268 -0.709063 3.477755 89.000000 24 349.709589
1.376488 -0.937547 3.505902 89.000000 22 349.709592
1.682904 -1.145833 3.400369 28.000000 20 349.709594
1.646475 -1.121033 2.711381 36.000000 18 349.709597
1.651507 -1.124462 2.244241 26.000000 16 349.709599
1.657063 -1.121907 2.046302 38.000000 15 349.709557
1.640079 -1.110411 1.678848 39.000000 13 349.709559
1.580515 -1.070485 1.336154 40.000000 11 349.709562
1.574785 -1.066608 1.081749 52.000000 9 349.709565
1.566551 -1.061429 0.852848 32.000000 7 349.709567
1.580760 -1.071459 0.650902 63.000000 5 349.709570
1.569548 -1.063860 0.451464 72.000000 3 349.709572
1.566123 -1.061937 0.262491 71.000000 1 349.709575
1.646257 -1.118366 1.853115 39.000000 14 349.709583
1.620392 -1.100797 1.509930 44.000000 12 349.709585
1.570416 -1.067248 1.200940 55.000000 10 349.709588
1.566226 -1.064403 0.962864 66.000000 8 349.709590
1.589960 -1.080938 0.757915 71.000000 6 349.709593
1.579659 -1.074339 0.551474 82.000000 4 349.709595
1.580335 -1.075201 0.358469 74.000000 2 349.709598
1.552699 -1.056795 0.169441 67.000000 0 349.709601
0.030556 -0.029948 3.349146 97.000000 31 349.709611
0.431937 -0.310926 3.383816 92.000000 28 349.709614
0.572558 -0.413204 3.418129 85.000000 27 349.709616
0.876614 -0.606868 3.453563 88.000000 25 349.709619
1.200487 -0.821350 3.486330 89.000000 23 349.709621
1.562511 -1.068654 3.534980 79.000000 21 349.709624
1.658975 -1.134633 3.024531 32.000000 19 349.709627
1.631630 -1.115934 2.442480 35.000000 17 349.709629
0.160034 -0.127080 3.363773 98.000000 30 349.709637
0.293272 -0.221693 3.380373 96.000000 29 349.709639
0.722135 -0.507484 3.433321 91.000000 26 349.709642
1.037787 -0.712690 3.477755 89.000000 24 349.709645
1.373207 -0.942346 3.505902 89.000000 22 349.709647
1.678893 -1.151700 3.400369 28.000000 20 349.709650
1.642552 -1.126773 2.711381 35.000000 18 349.709652
1.647572 -1.130220 2.244241 26.000000 16 349.709655
1.656083 -1.129694 2.049807 38.000000 15 349.709612
1.636193 -1.116129 1.678848 39.000000 13 349.709615
1.576769 -1.075996 1.336154 40.000000 11 349.709618
1.571052 -1.072098 1.081749 52.000000 9 349.709620
1.562836 -1.066891 0.852848 32.000000 7 349.709623
1.577010 -1.076971 0.650902 63.000000 5 349.709625
1.565825 -1.069332 0.451464 74.000000 3 349.709628
1.562407 -1.067398 0.262491 71.000000 1 349.709630
1.645425 -1.126215 1.856440 39.000000 14 349.709638
1.619875 -1.108730 1.512873 42.000000 12 349.709641
1.566682 -1.072723 1.200940 57.000000 10 349.709643
1.566245 -1.072427 0.964962 66.000000 8 349.709646
1.590073 -1.089150 0.759557 71.000000 6 349.709648
1.575900 -1.079846 0.551474 81.000000 4 349.709651
1.576572 -1.080711 0.358469 74.000000 2 349.709653
1.553121 -1.065034 0.169643 67.000000 0 349.709656
0.030451 -0.030055 3.349146 97.000000 31 349.709667
0.430849 -0.312432 3.383816 92.000000 28 349.709669
0.570289 -0.414601 3.413234 84.000000 27 349.709672
0.874490 -0.609924 3.453563 89.000000 25 349.709674
1.197613 -0.825536 3.486330 89.000000 23 349.709677
1.558772 -1.074102 3.534980 79.000000 21 349.709679
1.655005 -1.140417 3.024531 32.000000 19 349.709682
1.630365 -1.123442 2.446317 35.000000 17 349.709685
0.159589 -0.127638 3.363773 98.000000 30 349.709692
0.292497 -0.222715 3.380373 96.000000 29 349.709695
0.720359 -0.510001 3.433321 91.000000 26 349.709697
1.035293 -0.716308 3.477755 89.000000 24 349.709700
1.369909 -0.947134 3.505902 90.000000 22 349.709703
1.677008 -1.159036 3.404635 28.000000 20 349.709705
1.641088 -1.134213 2.715370 35.000000 18 349.709708
1.643617 -1.135964 2.244241 26.000000 16 349.709710
1.652129 -1.135468 2.049807 38.000000 15 349.709668
1.632287 -1.121833 1.678848 38.000000 13 349.709671
1.576449 -1.083863 1.338896 40.000000 11 349.709673
1.567301 -1.077576 1.081749 52.000000 9 349.709676
1.559102 -1.072340 0.852848 32.000000 7 349.709678
1.577193 -1.085188 0.652311 63.000000 5 349.709681
1.566130 -1.077576 0.452396 72.000000 3 349.709683
1.562774 -1.075669 0.262937 69.000000 1 349.709686
1.641483 -1.131951 1.856440 39.000000 14 349.709694
1.615995 -1.114378 1.512873 42.000000 12 349.709696
1.566476 -1.080633 1.203473 57.000000 10 349.709699
1.562492 -1.077888 0.964962 66.000000 8 349.709701
1.586261 -1.094694 0.759557 73.000000 6 349.709704
1.572121 -1.085340 0.551474 82.000000 4 349.709706
1.572790 -1.086208 0.358469 74.000000 2 349.709709
1.549393 -1.070449 0.169643 67.000000 0 349.709712
0.030346 -0.030161 3.349146 97.000000 31 349.709722
0.429756 -0.313934 3.383816 96.000000 28 349.709725
0.568838 -0.416589 3.413234 81.000000 27 349.709727
0.872356 -0.612973 3.453563 89.000000 25 349.709730
1.194724 -0.829711 3.486330 89.000000 23 349.709732
1.555013 -1.079536 3.534980 79.000000 21 349.709735
1.653325 -1.147792 3.028664 32.000000 19 349.709738
1.626433 -1.129126 2.446317 35.000000 17 349.709740
0.159143 -0.128194 3.363773 98.000000 30 349.709748
0.291717 -0.223735 3.380373 96.000000 29 349.709750
0.718574 -0.512513 3.433321 90.000000 26 349.709753
1.032786 -0.719918 3.477755 89.000000 24 349.709756
1.366595 -0.951910 3.505902 90.000000 22 349.709758
1.675093 -1.166373 3.408901 28.000000 20 349.709761
1.639592 -1.141657 2.719360 35.000000 18 349.709763
1.639642 -1.141695 2.244241 27.000000 16 349.709766
1.651087 -1.143258 2.053311 38.000000 15 349.709723
1.631562 -1.129741 1.681985 38.000000 13 349.709726
1.572656 -1.089359 1.338896 40.000000 11 349.709729
1.563530 -1.083040 1.081749 52.000000 9 349.709731
1.559160 -1.080416 0.854721 31.000000 7 349.709734
1.573396 -1.090687 0.652311 63.000000 5 349.709736
1.562359 -1.083036 0.452396 72.000000 3 349.709739
1.559010 -1.081117 0.262937 68.000000 1 349.709741
1.640589 -1.139805 1.859764 39.000000 14 349.709749
1.612095 -1.120012 1.512873 42.000000 12 349.709752
1.562695 -1.086095 1.203473 57.000000 10 349.709754
1.562447 -1.085926 0.967060 66.000000 8 349.709757
1.582430 -1.100224 0.759557 73.000000 6 349.709759
1.568323 -1.090822 0.551474 82.000000 4 349.709762
1.568989 -1.091691 0.358469 72.000000 2 349.709765
1.549748 -1.078705 0.169844 66.000000 0 349.709767
0.030241 -0.030267 3.349146 97.000000 31 349.709778
0.428657 -0.315432 3.383816 96.000000 28 349.709780
0.567381 -0.418572 3.413234 81.000000 27 349.709783
0.870211 -0.616015 3.453563 88.000000 25 349.709785
1.191820 -0.833877 3.486330 89.000000 23 349.709788
1.551235 -1.084958 3.534980 79.000000 21 349.709791
1.651615 -1.155169 3.032796 32.000000 19 349.709793
1.625109 -1.136634 2.450154 35.000000 17 349.709796
0.158694 -0.128749 3.363773 97.000000 30 349.709803
0.290935 -0.224752 3.380373 96.000000 29 349.709806
0.716781 -0.515018 3.433321 90.000000 26 349.709809
1.028855 -0.722527 3.473062 89.000000 24 349.709811
1.363263 -0.956674 3.505902 90.000000 22 349.709814
1.671011 -1.172213 3.408901 27.000000 20 349.709816
1.635597 -1.147373 2.719360 35.000000 18 349.709819
1.635646 -1.147411 2.244241 29.000000 16 349.709821
1.647087 -1.149014 2.053311 38.000000 15 349.709779
1.627608 -1.135429 1.681985 39.000000 13 349.709782
1.568844 -1.094842 1.338896 40.000000 11 349.709784
1.563373 -1.091026 1.084067 55.000000 9 349.709787
1.555380 -1.085852 0.854721 30.000000 7 349.709789
1.573512 -1.098919 0.653721 63.000000 5 349.709792
1.562596 -1.091296 0.453329 72.000000 3 349.709794
1.555226 -1.086553 0.262937 68.000000 1 349.709797
1.636600 -1.145525 1.859764 39.000000 14 349.709805
1.611487 -1.127950 1.515816 42.000000 12 349.709807
1.562425 -1.094016 1.206005 57.000000 10 349.709810
1.558647 -1.091373 0.967060 64.000000 8 349.709812
1.582448 -1.108451 0.761200 71.000000 6 349.709815
1.568486 -1.099079 0.552646 80.000000 4 349.709817
1.565169 -1.097162 0.358469 71.000000 2 349.709820
1.545973 -1.084108 0.169844 67.000000 0 349.709823
0.030130 -0.030377 3.349146 97.000000 31 349.709833
0.427498 -0.317001 3.383816 96.000000 28 349.709836
0.565843 -0.420649 3.413234 85.000000 27 349.709838
0.867947 -0.619200 3.453563 88.000000 25 349.709841
1.188756 -0.838239 3.486330 89.000000 23 349.709843
1.547248 -1.090636 3.534980 79.000000 21 349.709846
1.649670 -1.162836 3.036930 33.000000 19 349.709848
1.620932 -1.142582 2.450154 35.000000 17 349.709851
0.158244 -0.129302 3.363773 98.000000 30 349.709859
0.290569 -0.226095 3.385344 96.000000 29 349.709861
0.714979 -0.517517 3.433321 90.000000 26 349.709864
1.026326 -0.726114 3.473062 89.000000 24 349.709866
1.357970 -0.960407 3.501401 89.000000 22 349.709869
1.668833 -1.179836 3.413167 28.000000 20 349.709871
1.633842 -1.155100 2.723349 35.000000 18 349.709874
1.628863 -1.151157 2.240566 30.000000 16 349.709877
1.645782 -1.157095 2.056816 38.000000 15 349.709834
1.623436 -1.141387 1.681985 39.000000 13 349.709837
1.568241 -1.102990 1.341637 40.000000 11 349.709839
1.559363 -1.096749 1.084067 55.000000 9 349.709842
1.551580 -1.091275 0.854721 30.000000 7 349.709845
1.569667 -1.104405 0.653721 63.000000 5 349.709847
1.558586 -1.097016 0.453329 72.000000 3 349.709850
1.551233 -1.092246 0.262937 69.000000 1 349.709852
1.632391 -1.151516 1.859764 39.000000 14 349.709860
1.607342 -1.133849 1.515816 42.000000 12 349.709863
1.558597 -1.099463 1.206005 57.000000 10 349.709865
1.558536 -1.099423 0.969158 64.000000 8 349.709868
1.578569 -1.113968 0.761200 69.000000 6 349.709870
1.564640 -1.104547 0.552646 78.000000 4 349.709873
1.561329 -1.102618 0.358469 71.000000 2 349.709875
1.546260 -1.092381 0.170046 68.000000 0 349.709878
0.030029 -0.030477 3.349146 96.000000 31 349.709889
0.426445 -0.318417 3.383816 96.000000 28 349.709891
0.564445 -0.422523 3.413234 85.000000 27 349.709894
0.865889 -0.622075 3.453563 89.000000 25 349.709896
1.185970 -0.842177 3.486330 89.000000 23 349.709899
1.543623 -1.095761 3.534980 78.000000 21 349.709901
1.645805 -1.168300 3.036930 32.000000 19 349.709904
1.619749 -1.149807 2.453991 35.000000 17 349.709906
0.157792 -0.129854 3.363773 98.000000 30 349.709914
0.289778 -0.227107 3.385344 96.000000 29 349.709917
0.713168 -0.520009 3.433321 90.000000 26 349.709919
1.023785 -0.729692 3.473062 89.000000 24 349.709922
1.354778 -0.964905 3.501401 89.000000 22 349.709924
1.667036 -1.186876 3.417433 27.000000 20 349.709927
1.630002 -1.160512 2.723349 35.000000 18 349.709930
1.627596 -1.158802 2.244241 31.000000 16 349.709932
1.641936 -1.162546 2.056816 38.000000 15 349.709890
1.622819 -1.149013 1.685123 39.000000 13 349.709892
1.564574 -1.108184 1.341637 40.000000 11 349.709895
1.555718 -1.101914 1.084067 55.000000 9 349.709897
1.547761 -1.096684 0.854721 30.000000 7 349.709900
1.565802 -1.109878 0.653721 63.000000 5 349.709903
1.554940 -1.102178 0.453329 72.000000 3 349.709905
1.551665 -1.100264 0.263384 71.000000 1 349.709908
1.631608 -1.159085 1.863089 39.000000 14 349.709915
1.603573 -1.139173 1.515816 40.000000 12 349.709918
1.554750 -1.104897 1.206005 57.000000 10 349.709921
1.554689 -1.104857 0.969158 64.000000 8 349.709923
1.578520 -1.122207 0.762843 71.000000 6 349.709926
1.560775 -1.110002 0.552646 80.000000 4 349.709928
1.561506 -1.110933 0.359159 72.000000 2 349.709931
1.542437 -1.097771 0.170046 68.000000 0 349.709933
0.029922 -0.030582 3.349146 97.000000 31 349.709944
0.425330 -0.319904 3.383816 96.000000 28 349.709947
0.562967 -0.424491 3.413234 84.000000 27 349.709949
0.863713 -0.625094 3.453563 89.000000 25 349.709952
1.183023 -0.846311 3.486330 84.000000 23 349.709954
1.537840 -1.099749 3.530591 78.000000 21 349.709957
1.644005 -1.175675 3.041062 32.000000 19 349.709959
1.615725 -1.155454 2.453991 34.000000 17 349.709962
0.157337 -0.130404 3.363773 98.000000 30 349.709970
0.288984 -0.228118 3.385344 96.000000 29 349.709972
0.711348 -0.522496 3.433321 90.000000 26 349.709975
1.021232 -0.733261 3.473062 89.000000 24 349.709977
1.351401 -0.969628 3.501401 89.000000 22 349.709980
1.665002 -1.194208 3.421699 27.000000 20 349.709983
1.628391 -1.167951 2.727339 35.000000 18 349.709985
1.623541 -1.164476 2.244241 31.000000 16 349.709988
1.640771 -1.170341 2.060320 38.000000 15 349.709945
1.618798 -1.154671 1.685123 39.000000 13 349.709948
1.560697 -1.113639 1.341637 40.000000 11 349.709950
1.555468 -1.109911 1.086385 55.000000 9 349.709953
1.543923 -1.102080 0.854721 29.000000 7 349.709956
1.561918 -1.115337 0.653721 61.000000 5 349.709958
1.551083 -1.107599 0.453329 72.000000 3 349.709961
1.547815 -1.105674 0.263384 68.000000 1 349.709963
1.627552 -1.164773 1.863089 39.000000 14 349.709971
1.602874 -1.147116 1.518760 40.000000 12 349.709974
1.554389 -1.112827 1.208538 57.000000 10 349.709976
1.554513 -1.112919 0.971256 64.000000 8 349.709979
1.574593 -1.127711 0.762843 73.000000 6 349.709981
1.556891 -1.115443 0.552646 80.000000 4 349.709984
1.557619 -1.116377 0.359159 71.000000 2 349.709986
1.538596 -1.103149 0.170046 68.000000 0 349.709989
0.029815 -0.030686 3.349146 97.000000 31 349.710000
0.424211 -0.321387 3.383816 96.000000 28 349.710002
0.561481 -0.426453 3.413234 85.000000 27 349.710005
0.861525 -0.628105 3.453563 89.000000 25 349.710007
1.180061 -0.850436 3.486330 83.000000 23 349.710010
1.533992 -1.105110 3.530591 79.000000 21 349.710012
1.642175 -1.183051 3.045195 33.000000 19 349.710015
1.614283 -1.162961 2.457828 34.000000 17 349.710017
0.156881 -0.130952 3.363773 98.000000 30 349.710025
0.288186 -0.229125 3.385344 96.000000 29 349.710028
0.708509 -0.524227 3.428482 91.000000 26 349.710030
1.018666 -0.736821 3.473062 89.000000 24 349.710033
1.348008 -0.974340 3.501401 89.000000 22 349.710035
1.660823 -1.200012 3.421699 28.000000 20 349.710038
1.624304 -1.173628 2.727339 35.000000 18 349.710041
1.619467 -1.170136 2.244241 31.000000 16 349.710043
1.636675 -1.176061 2.060320 38.000000 15 349.710001
1.617919 -1.162586 1.688261 39.000000 13 349.710003
1.560195 -1.121521 1.344379 39.000000 11 349.710006
1.551584 -1.115334 1.086385 54.000000 9 349.710009
1.540067 -1.107463 0.854721 29.000000 7 349.710011
1.561910 -1.123583 0.655130 61.000000 5 349.710014
1.551195 -1.115875 0.454261 70.000000 3 349.710016
1.543946 -1.111070 0.263384 68.000000 1 349.710019
1.626505 -1.172632 1.866414 39.000000 14 349.710027
1.598860 -1.152704 1.518760 42.000000 12 349.710029
1.550495 -1.118246 1.208538 57.000000 10 349.710032
1.550619 -1.118338 0.971256 64.000000 8 349.710034
1.570647 -1.133200 0.762843 73.000000 6 349.710037
1.556929 -1.123716 0.553818 80.000000 4 349.710039
1.557727 -1.124706 0.359849 71.000000 2 349.710042
1.538786 -1.111438 0.170247 66.000000 0 349.710044
0.029708 -0.030790 3.349146 97.000000 31 349.710055
0.423087 -0.322865 3.383816 96.000000 28 349.710058
0.559989 -0.428411 3.413234 85.000000 27 349.710060
0.859328 -0.631108 3.453563 89.000000 25 349.710063
1.175505 -0.853402 3.481728 89.000000 23 349.710065
1.530125 -1.110458 3.530591 76.000000 21 349.710068
1.640312 -1.190429 3.049328 33.000000 19 349.710070
1.610214 -1.168589 2.457828 33.000000 17 349.710073
0.156423 -0.131499 3.363773 98.000000 30 349.710081
0.287384 -0.230130 3.385344 96.000000 29 349.710083
0.706675 -0.526697 3.428482 91.000000 26 349.710086
1.016088 -0.740372 3.473062 89.000000 24 349.710088
1.344599 -0.979039 3.501401 89.000000 22 349.710091
1.658733 -1.207337 3.425965 28.000000 20 349.710094
1.620197 -1.179291 2.727339 35.000000 18 349.710096
1.615372 -1.175782 2.244241 31.000000 16 349.710099
1.635449 -1.183858 2.063825 38.000000 15 349.710056
1.613851 -1.168227 1.688261 39.000000 13 349.710059
1.556271 -1.126960 1.344379 39.000000 11 349.710061
1.547682 -1.120743 1.086385 54.000000 9 349.710064
1.536192 -1.112832 0.854721 30.000000 7 349.710067
1.557978 -1.129029 0.655130 61.000000 5 349.710069
1.547290 -1.121283 0.454261 72.000000 3 349.710072
1.540058 -1.116453 0.263384 69.000000 1 349.710074
1.622402 -1.178302 1.866414 40.000000 14 349.710082
1.594827 -1.158278 1.518760 42.000000 12 349.710085
1.546582 -1.123651 1.208538 57.000000 10 349.710087
1.546706 -1.123744 0.971256 64.000000 8 349.710090
1.566682 -1.138676 0.762843 71.000000 6 349.710092
1.552997 -1.129143 0.553818 78.000000 4 349.710095
1.553792 -1.130136 0.359849 72.000000 2 349.710097
1.534897 -1.116803 0.170247 66.000000 0 349.710100
0.029600 -0.030893 3.349146 97.000000 31 349.710111
0.421957 -0.324340 3.383816 96.000000 28 349.710113
0.558491 -0.430363 3.413234 85.000000 27 349.710116
0.855919 -0.633215 3.448791 89.000000 25 349.710118
1.172519 -0.857500 3.481728 89.000000 23 349.710121
1.526239 -1.115793 3.530591 76.000000 21 349.710123
1.638419 -1.197808 3.053461 33.000000 19 349.710126
1.608713 -1.176094 2.461665 33.000000 17 349.710129
0.155963 -0.132044 3.363773 98.000000 30 349.710136
0.286579 -0.231131 3.385344 96.000000 29 349.710139
0.704832 -0.529161 3.428482 91.000000 26 349.710141
1.013498 -0.743915 3.473062 89.000000 24 349.710144
1.341173 -0.983727 3.501401 89.000000 22 349.710147
1.654508 -1.213120 3.425965 28.000000 20 349.710149
1.618502 -1.186722 2.731328 35.000000 18 349.710152
1.611258 -1.181414 2.244241 32.000000 16 349.710154
1.631307 -1.189560 2.063825 38.000000 15 349.710112
1.612909 -1.176147 1.691399 39.000000 13 349.710114
1.552328 -1.132385 1.344379 40.000000 11 349.710117
1.547339 -1.128750 1.088704 54.000000 9 349.710120
1.532298 -1.118187 0.854721 30.000000 7 349.710122
1.554028 -1.134460 0.655130 61.000000 5 349.710125
1.547334 -1.129574 0.455194 71.000000 3 349.710127
1.536152 -1.121822 0.263384 69.000000 1 349.710130
1.621293 -1.186163 1.869739 39.000000 14 349.710138
1.594036 -1.166224 1.521703 42.000000 12 349.710140
1.546129 -1.131589 1.211070 57.000000 10 349.710143
1.542774 -1.129137 0.971256 62.000000 8 349.710145
1.566508 -1.146927 0.764485 71.000000 6 349.710148
1.549046 -1.134557 0.553818 77.000000 4 349.710150
1.549838 -1.135553 0.359849 74.000000 2 349.710153
1.530989 -1.122154 0.170247 68.000000 0 349.710155
0.029492 -0.030996 3.349146 96.000000 31 349.710166
0.420822 -0.325811 3.383816 96.000000 28 349.710169
0.556985 -0.432310 3.413234 84.000000 27 349.710171
0.853703 -0.636199 3.448791 89.000000 25 349.710174
1.169518 -0.861588 3.481728 89.000000 23 349.710176
1.522335 -1.121113 3.530591 79.000000 21 349.710179
