# .PCD v.7 - Point Cloud Data file format
VERSION .7
FIELDS x y z intensity ring timestamp
SIZE 4 4 4 4 2 8
TYPE F F F F U D
COUNT 1 1 1 1 1 1
WIDTH 930
HEIGHT 1
VIEWPOINT 0 0 0 1 0 0 0
POINTS 930
DATA ascii
-0.358607 0.287090 0.112206 7.000000 0 348.961259
-0.038915 0.047106 5.454066 34.000000 31 348.961270
-0.644446 0.544666 5.364459 100.000000 28 348.961273
-0.846413 0.717028 5.356639 91.000000 27 348.961275
-0.741281 0.603147 3.100456 18.000000 25 348.961278
-0.914113 0.735465 2.823567 5.000000 23 348.961280
-1.176398 0.946166 2.832794 9.000000 21 348.961283
-1.585894 1.275531 3.061727 80.000000 19 348.961285
-2.129904 1.713085 3.347999 86.000000 17 348.961288
-0.237722 0.221760 5.445274 38.000000 30 348.961296
-0.440424 0.390604 5.438537 38.000000 29 348.961298
-0.684560 0.565068 3.452678 12.000000 26 348.961301
-0.791534 0.639114 2.820767 24.000000 24 348.961303
-1.300501 1.048981 2.803138 11.000000 20 348.961309
-1.749797 1.411390 3.050488 83.000000 18 348.961311
-2.330921 1.880134 3.324740 90.000000 16 348.961314
-3.830706 3.073357 4.906012 8.000000 15 348.961271
-3.807000 3.054341 4.016492 9.000000 13 348.961274
-3.585583 2.877728 3.098917 4.000000 11 348.961277
-0.377725 0.303153 0.339981 8.000000 9 348.961279
-0.369370 0.296554 0.279700 6.000000 7 348.961282
-0.355594 0.285595 0.223916 9.000000 5 348.961284
-0.348519 0.279913 0.176341 10.000000 3 348.961287
-0.345356 0.277472 0.132644 8.000000 1 348.961289
-3.746759 3.015693 4.363376 8.000000 14 348.961297
-4.665704 3.756682 3.604213 3.000000 10 348.961302
-0.354375 0.285329 0.297781 5.000000 8 348.961305
-0.360865 0.290658 0.250325 10.000000 6 348.961307
-0.355895 0.286758 0.200951 10.000000 4 348.961310
-0.362333 0.292049 0.157043 9.000000 2 348.961312
-0.357603 0.288340 0.112206 6.000000 0 348.961315
-0.038750 0.047241 5.454066 34.000000 31 348.961326
-0.642541 0.546912 5.364459 100.000000 28 348.961328
-0.843905 0.719978 5.356639 91.000000 27 348.961331
-0.739171 0.605731 3.100456 18.000000 25 348.961333
-0.914576 0.741111 2.832772 5.000000 23 348.961336
-1.167503 0.945743 2.819628 8.000000 21 348.961338
-1.581432 1.281059 3.061727 80.000000 19 348.961341
-2.123911 1.720510 3.347999 86.000000 17 348.961344
-0.236737 0.222390 5.440283 37.000000 30 348.961351
-0.439058 0.392139 5.438537 38.000000 29 348.961354
-0.683550 0.568259 3.457517 12.000000 26 348.961356
-0.787959 0.640784 2.816074 24.000000 24 348.961359
-1.294807 1.051869 2.798872 12.000000 20 348.961364
-1.744859 1.417490 3.050488 81.000000 18 348.961367
-2.324343 1.888259 3.324740 91.000000 16 348.961369
-3.819954 3.086710 4.906012 8.000000 15 348.961327
-3.759980 3.038252 3.978838 9.000000 13 348.961329
-3.533241 2.856054 3.063278 10.000000 11 348.961332
-0.376664 0.304469 0.339981 8.000000 9 348.961335
-0.368333 0.297841 0.279700 6.000000 7 348.961337
-0.354594 0.286834 0.223916 10.000000 5 348.961340
-0.343720 0.278038 0.175408 10.000000 3 348.961342
-0.344386 0.278676 0.132644 8.000000 1 348.961345
-3.698498 2.998183 4.320153 8.000000 14 348.961353
-3.449632 2.796442 3.317031 22.000000 12 348.961355
-4.742973 3.846263 3.672589 2.000000 10 348.961358
-0.349852 0.283706 0.295683 5.000000 8 348.961360
-0.359848 0.291916 0.250325 10.000000 6 348.961363
-0.351118 0.284936 0.199779 10.000000 4 348.961365
-0.357466 0.290191 0.156353 10.000000 2 348.961368
-0.356594 0.289586 0.112206 6.000000 0 348.961371
-0.038585 0.047376 5.454066 34.000000 31 348.961381
-0.640628 0.549152 5.364459 100.000000 28 348.961384
-0.841387 0.722919 5.356639 91.000000 27 348.961386
-0.738204 0.609258 3.105227 18.000000 25 348.961389
-0.919551 0.750475 2.855785 3.000000 23 348.961391
-1.162338 0.948298 2.815240 3.000000 21 348.961394
-1.576950 1.286571 3.061727 80.000000 19 348.961397
-2.117892 1.727913 3.347999 85.000000 17 348.961399
-0.235959 0.223215 5.440283 37.000000 30 348.961407
-0.438083 0.394026 5.443509 37.000000 29 348.961409
-0.681563 0.570641 3.457517 12.000000 26 348.961412
-0.785717 0.643531 2.816074 25.000000 24 348.961415
-1.291128 1.056383 2.798872 12.000000 20 348.961420
-1.742233 1.425480 3.054478 81.000000 18 348.961422
-2.317738 1.896361 3.324740 90.000000 16 348.961425
-3.817454 3.106778 4.916526 8.000000 15 348.961382
-3.701042 3.012042 3.928634 8.000000 13 348.961385
-3.497309 2.847251 3.041346 38.000000 11 348.961388
-0.372164 0.302985 0.337663 8.000000 9 348.961390
-0.363696 0.296198 0.277827 6.000000 7 348.961393
-0.353591 0.288070 0.223916 10.000000 5 348.961395
-0.342748 0.279236 0.175408 10.000000 3 348.961398
-0.339550 0.276730 0.132198 8.000000 1 348.961400
-3.653298 2.982734 4.280254 8.000000 14 348.961408
-3.421063 2.793128 3.299372 13.000000 12 348.961411
-4.716163 3.851887 3.662459 4.000000 10 348.961413
-0.345344 0.282054 0.293585 4.000000 8 348.961416
-0.355170 0.290183 0.248682 10.000000 6 348.961418
-0.350121 0.286160 0.199779 10.000000 4 348.961421
-0.356451 0.291437 0.156353 10.000000 2 348.961423
-0.355581 0.290829 0.112206 6.000000 0 348.961426
-0.038419 0.047511 5.454066 34.000000 31 348.961437
-0.638707 0.551385 5.364459 100.000000 28 348.961439
-0.838858 0.725852 5.356639 91.000000 27 348.961442
-0.737221 0.612786 3.109999 18.000000 25 348.961444
-0.915416 0.752440 2.851182 3.000000 23 348.961447
-1.155319 0.949307 2.806463 3.000000 21 348.961449
-1.574624 1.293854 3.065860 80.000000 19 348.961452
-2.111848 1.735295 3.347999 85.000000 17 348.961455
-0.235178 0.224037 5.440283 37.000000 30 348.961462
-0.436705 0.395553 5.443509 37.000000 29 348.961465
-0.680528 0.573828 3.462357 12.000000 26 348.961467
-0.782135 0.645171 2.811382 25.000000 24 348.961470
-1.285419 1.059225 2.794606 12.000000 20 348.961475
-1.737247 1.431553 3.054478 81.000000 18 348.961478
-2.313721 1.906596 3.328415 89.000000 16 348.961480
-3.809345 3.122346 4.920030 8.000000 15 348.961438
-3.678463 3.015071 3.916083 8.000000 13 348.961441
-3.467948 2.843534 3.024897 36.000000 11 348.961443
-0.371104 0.304283 0.337663 7.000000 9 348.961446
-0.362660 0.297465 0.277827 7.000000 7 348.961448
-0.348875 0.286260 0.222507 10.000000 5 348.961451
-0.341771 0.280431 0.175408 10.000000 3 348.961453
-0.338582 0.277914 0.132198 8.000000 1 348.961456
-3.608251 2.967006 4.240356 9.000000 14 348.961464
-3.389438 2.787082 3.278769 7.000000 12 348.961466
-4.612791 3.794379 3.594083 4.000000 10 348.961469
-0.340853 0.280375 0.291487 4.000000 8 348.961471
-0.354155 0.291420 0.248682 10.000000 6 348.961474
-0.349120 0.287380 0.199779 10.000000 4 348.961476
-0.351609 0.289531 0.155664 9.000000 2 348.961479
-0.354564 0.292068 0.112206 6.000000 0 348.961482
-0.038278 0.047680 5.459065 30.000000 31 348.961492
-0.636779 0.553611 5.364459 100.000000 28 348.961495
-0.836320 0.728776 5.356639 91.000000 27 348.961497
-0.735078 0.615356 3.109999 18.000000 25 348.961500
-0.903755 0.748156 2.823567 4.000000 23 348.961502
-1.151998 0.953334 2.806463 9.000000 21 348.961505
-1.570098 1.299343 3.065860 80.000000 19 348.961508
-2.105778 1.742657 3.347999 85.000000 17 348.961510
-0.234395 0.224857 5.440283 37.000000 30 348.961518
-0.435321 0.397075 5.443509 37.000000 29 348.961520
-0.679479 0.577014 3.467196 12.000000 26 348.961523
-0.779878 0.647897 2.811382 25.000000 24 348.961526
-1.279707 1.062039 2.790340 12.000000 20 348.961531
-1.732239 1.437609 3.054478 81.000000 18 348.961533
-2.307051 1.914661 3.328415 89.000000 16 348.961536
-3.803923 3.140165 4.927040 8.000000 15 348.961493
-3.640897 3.005589 3.887843 9.000000 13 348.961496
-3.535382 2.919522 3.090692 7.000000 11 348.961499
-0.370039 0.305576 0.337663 7.000000 9 348.961501
-0.361620 0.298729 0.277827 8.000000 7 348.961504
-0.347873 0.287476 0.222507 10.000000 5 348.961506
-0.340790 0.281622 0.175408 10.000000 3 348.961509
-0.337610 0.279094 0.132198 8.000000 1 348.961511
-3.569111 2.955764 4.207108 10.000000 14 348.961519
-3.379689 2.798897 3.278769 6.000000 12 348.961522
-3.733011 3.092601 2.933120 2.000000 10 348.961524
-0.336377 0.278668 0.289389 4.000000 8 348.961527
-0.353135 0.292655 0.248682 10.000000 6 348.961529
-0.348115 0.288597 0.199779 10.000000 4 348.961532
-0.350596 0.290757 0.155664 9.000000 2 348.961535
-0.353542 0.293304 0.112206 6.000000 0 348.961537
-0.038112 0.047813 5.459065 29.000000 31 348.961548
-0.635427 0.556342 5.369398 100.000000 28 348.961550
-0.833771 0.731690 5.356639 91.000000 27 348.961553
-0.734067 0.618881 3.114771 18.000000 25 348.961555
-0.893635 0.745051 2.800554 6.000000 23 348.961558
-1.148663 0.957350 2.806463 12.000000 21 348.961561
-1.565553 1.304816 3.065860 78.000000 19 348.961563
-2.099682 1.749997 3.347999 85.000000 17 348.961566
-0.233608 0.225674 5.440283 37.000000 30 348.961573
-0.433933 0.398592 5.443509 37.000000 29 348.961576
-0.677461 0.579383 3.467196 12.000000 26 348.961579
-0.777612 0.650616 2.811382 25.000000 24 348.961581
-1.002023 0.837798 2.763264 3.000000 22 348.961584
-1.275992 1.066500 2.790340 11.000000 20 348.961586
-1.727210 1.443646 3.054478 81.000000 18 348.961589
-2.300354 1.922702 3.328415 90.000000 16 348.961591
-3.795680 3.155704 4.930544 8.000000 15 348.961549
-3.592681 2.987994 3.148263 6.000000 11 348.961554
-0.365564 0.304033 0.335345 7.000000 9 348.961557
-0.357011 0.297025 0.275954 10.000000 7 348.961559
-0.346868 0.288688 0.222507 10.000000 5 348.961562
-0.336029 0.279668 0.174475 10.000000 3 348.961564
-0.340461 0.283457 0.132644 8.000000 1 348.961567
-3.553036 2.963421 4.200458 11.000000 14 348.961575
-3.310921 2.761487 3.222850 11.000000 12 348.961577
-0.331917 0.276933 0.287291 4.000000 8 348.961582
-0.352111 0.293886 0.248682 10.000000 6 348.961585
-0.347106 0.289810 0.199779 10.000000 4 348.961587
-0.349579 0.291979 0.155664 9.000000 2 348.961590
-0.348682 0.291333 0.112005 6.000000 0 348.961593
-0.037920 0.047910 5.454066 34.000000 31 348.961604
-0.633481 0.558557 5.369398 93.000000 28 348.961607
-0.831211 0.734596 5.356639 91.000000 27 348.961609
-0.731902 0.621439 3.114771 18.000000 25 348.961612
-0.888037 0.745653 2.791349 7.000000 23 348.961614
-1.145315 0.961354 2.806463 12.000000 21 348.961617
-1.560989 1.310273 3.065860 78.000000 19 348.961619
-2.096016 1.759376 3.351836 87.000000 17 348.961622
-0.232819 0.226488 5.440283 37.000000 30 348.961630
-0.432539 0.400105 5.443509 36.000000 29 348.961632
-0.676387 0.582565 3.472035 12.000000 26 348.961635
-0.776656 0.654438 2.816074 24.000000 24 348.961637
-1.004090 0.845498 2.776767 4.000000 22 348.961640
-1.270266 1.069268 2.786074 11.000000 20 348.961642
-1.722160 1.449667 3.054478 80.000000 18 348.961645
-2.293628 1.930720 3.328415 90.000000 16 348.961648
-3.790111 3.173513 4.937553 9.000000 15 348.961605
-3.190026 2.671055 3.436003 24.000000 13 348.961608
-3.582229 3.000517 3.148263 5.000000 11 348.961610
-0.364501 0.305307 0.335345 7.000000 9 348.961613
-0.355972 0.298269 0.275954 10.000000 7 348.961616
-0.342181 0.286816 0.221098 10.000000 5 348.961618
-0.335051 0.280839 0.174475 10.000000 3 348.961621
-0.339470 0.284644 0.132644 8.000000 1 348.961623
-3.554108 2.985413 4.213757 9.000000 14 348.961631
-3.270312 2.747030 3.193418 28.000000 12 348.961634
-3.605708 3.029834 2.852082 5.000000 10 348.961636
-0.323999 0.272250 0.283095 4.000000 8 348.961639
-0.351083 0.295113 0.248682 10.000000 6 348.961641
-0.342372 0.287892 0.198606 10.000000 4 348.961644
-0.348558 0.293198 0.155664 9.000000 2 348.961646
-0.347663 0.292549 0.112005 6.000000 0 348.961649
-0.037752 0.048042 5.454066 33.000000 31 348.961660
-0.631527 0.560765 5.369398 94.000000 28 348.961662
-0.828642 0.737493 5.356639 92.000000 27 348.961665
-0.730864 0.624961 3.119542 18.000000 25 348.961667
-0.889904 0.752533 2.805157 4.000000 23 348.961670
-1.141952 0.965346 2.806463 11.000000 21 348.961672
-1.556406 1.315714 3.065860 77.000000 19 348.961675
-2.089862 1.766682 3.351836 87.000000 17 348.961677
-0.232027 0.227299 5.440283 38.000000 30 348.961685
-0.431139 0.401612 5.443509 36.000000 29 348.961688
-0.675300 0.585747 3.476874 12.000000 26 348.961690
-0.774367 0.657145 2.816074 24.000000 24 348.961693
-1.007776 0.854632 2.794770 5.000000 22 348.961695
-1.266526 1.073696 2.786074 10.000000 20 348.961698
-1.717090 1.455669 3.054478 80.000000 18 348.961701
-2.286875 1.938715 3.328415 89.000000 16 348.961703
-3.776283 3.184424 4.934049 9.000000 15 348.961661
-3.141995 2.649550 3.395212 18.000000 13 348.961663
-3.549361 2.994130 3.129073 5.000000 11 348.961666
-0.360046 0.303721 0.333027 7.000000 9 348.961668
-0.351386 0.296520 0.274081 9.000000 7 348.961671
-0.341178 0.288008 0.221098 10.000000 5 348.961674
-0.334069 0.282007 0.174475 10.000000 3 348.961676
-0.338474 0.285827 0.132644 8.000000 1 348.961679
-3.546516 3.000213 4.217082 9.000000 14 348.961686
-3.217500 2.721881 3.152214 59.000000 12 348.961689
-3.549037 3.003412 2.816628 4.000000 10 348.961692
-0.323047 0.273379 0.283095 4.000000 8 348.961694
-0.350051 0.296337 0.248682 10.000000 6 348.961697
-0.341365 0.289085 0.198606 10.000000 4 348.961699
-0.347532 0.294412 0.155664 10.000000 2 348.961702
-0.342828 0.290531 0.111803 6.000000 0 348.961704
-0.037560 0.048138 5.449066 33.000000 31 348.961715
-0.628987 0.562448 5.364459 100.000000 28 348.961718
-0.826063 0.740381 5.356639 88.000000 27 348.961720
-0.728678 0.627508 3.119542 18.000000 25 348.961723
-0.888759 0.756901 2.809759 2.000000 23 348.961725
-1.140400 0.970879 2.810851 10.000000 21 348.961728
-1.551803 1.321138 3.065860 75.000000 19 348.961730
-2.083682 1.773966 3.351836 86.000000 17 348.961733
-0.231232 0.228107 5.440283 38.000000 30 348.961741
-0.429735 0.403114 5.443509 38.000000 29 348.961743
-0.674198 0.588928 3.481714 11.000000 26 348.961746
-0.772068 0.659844 2.816074 24.000000 24 348.961748
-1.011410 0.863802 2.812774 7.000000 22 348.961751
-1.260787 1.076417 2.781808 10.000000 20 348.961754
-1.711998 1.461654 3.054478 80.000000 18 348.961756
-2.280094 1.946686 3.328415 89.000000 16 348.961759
-3.740681 3.176810 4.902507 10.000000 15 348.961716
-3.132727 2.660501 3.395212 18.000000 13 348.961719
-3.522954 2.992965 3.115366 5.000000 11 348.961721
-0.358984 0.304976 0.333027 7.000000 9 348.961724
-0.350348 0.297745 0.274081 9.000000 7 348.961727
-0.340171 0.289198 0.221098 10.000000 5 348.961729
-0.329340 0.279989 0.173543 10.000000 3 348.961732
-0.337474 0.287007 0.132644 8.000000 1 348.961734
-3.541707 3.017418 4.223732 9.000000 14 348.961742
-3.315666 2.824841 3.255224 13.000000 12 348.961745
-3.522125 3.001799 2.803966 4.000000 10 348.961747
-0.325545 0.277449 0.285193 4.000000 8 348.961750
-0.349015 0.297557 0.248682 10.000000 6 348.961752
-0.340353 0.290275 0.198606 10.000000 4 348.961755
-0.346502 0.295624 0.155664 10.000000 2 348.961757
-0.338012 0.288482 0.111602 6.000000 0 348.961760
-0.037391 0.048269 5.449066 33.000000 31 348.961771
-0.627020 0.564640 5.364459 100.000000 28 348.961773
-0.823473 0.743260 5.356639 87.000000 27 348.961776
-0.727611 0.631027 3.124314 17.000000 25 348.961778
-0.887594 0.761271 2.814362 3.000000 23 348.961781
-1.137004 0.974854 2.810851 10.000000 21 348.961783
-1.549319 1.328379 3.069993 72.000000 19 348.961786
-2.077477 1.781229 3.351836 86.000000 17 348.961788
-0.230435 0.228913 5.440283 38.000000 30 348.961796
-0.428325 0.404612 5.443509 38.000000 29 348.961799
-0.672138 0.591278 3.481714 11.000000 26 348.961801
-0.769760 0.662535 2.816074 24.000000 24 348.961804
-1.013190 0.871765 2.826276 10.000000 22 348.961806
-1.256834 1.081030 2.781808 11.000000 20 348.961809
-1.706629 1.467919 3.054478 80.000000 18 348.961812
-2.272943 1.955030 3.328415 89.000000 16 348.961814
-3.713307 3.175940 4.881480 11.000000 15 348.961772
-3.096795 2.648648 3.366972 20.000000 13 348.961774
-3.480713 2.978060 3.087951 6.000000 11 348.961777
-0.357917 0.306227 0.333027 7.000000 9 348.961780
-0.345785 0.295952 0.272208 9.000000 7 348.961782
-0.339159 0.290383 0.221098 10.000000 5 348.961785
-0.328311 0.281195 0.173543 10.000000 3 348.961787
-0.336420 0.288242 0.132644 8.000000 1 348.961790
-3.536291 3.035243 4.230381 8.000000 14 348.961798
-3.406506 2.923850 3.352349 5.000000 12 348.961800
-3.494744 3.000646 2.791304 4.000000 10 348.961803
-0.347922 0.298834 0.248682 10.000000 6 348.961808
-0.339287 0.291521 0.198606 10.000000 4 348.961810
-0.341661 0.293664 0.154974 10.000000 2 348.961813
-0.337003 0.289660 0.111602 6.000000 0 348.961815
-0.037214 0.048405 5.449066 33.000000 31 348.961826
-0.624946 0.566934 5.364459 100.000000 28 348.961829
-0.820744 0.746274 5.356639 91.000000 27 348.961831
-0.726418 0.634672 3.129086 17.000000 25 348.961834
-0.884798 0.764519 2.814362 3.000000 23 348.961836
-1.133423 0.979015 2.810851 11.000000 21 348.961839
-1.544439 1.334048 3.069993 55.000000 19 348.961841
-2.070935 1.788831 3.351836 86.000000 17 348.961844
-0.229798 0.229962 5.445274 38.000000 30 348.961852
-0.426839 0.406179 5.443509 38.000000 29 348.961854
-0.670908 0.594572 3.486553 12.000000 26 348.961857
-0.767327 0.665352 2.816074 24.000000 24 348.961859
-1.010140 0.875296 2.826276 10.000000 22 348.961862
-1.253052 1.085411 2.781808 11.000000 20 348.961865
-1.701495 1.473867 3.054478 83.000000 18 348.961867
-2.268667 1.965171 3.332090 90.000000 16 348.961870
-3.682731 3.173234 4.856949 10.000000 15 348.961827
-3.063474 2.639652 3.341869 22.000000 13 348.961830
-3.441269 2.966227 3.063278 7.000000 11 348.961832
-0.353437 0.304645 0.330709 7.000000 9 348.961835
-0.348209 0.300244 0.274081 9.000000 7 348.961838
-0.338093 0.291624 0.221098 10.000000 5 348.961840
-0.323608 0.279130 0.172610 10.000000 3 348.961843
-0.331641 0.286161 0.132198 8.000000 1 348.961845
-3.528500 3.050010 4.233706 8.000000 14 348.961853
-3.371816 2.914577 3.328803 4.000000 12 348.961856
-3.461421 2.993087 2.773577 4.000000 10 348.961858
-0.343305 0.296957 0.247040 10.000000 6 348.961863
-0.338268 0.292703 0.198606 10.000000 4 348.961866
-0.340634 0.294855 0.154974 10.000000 2 348.961868
-0.332162 0.287623 0.111400 6.000000 0 348.961871
-0.037045 0.048535 5.449066 33.000000 31 348.961882
-0.622963 0.569112 5.364459 99.000000 28 348.961884
-0.818134 0.749134 5.356639 91.000000 27 348.961887
-0.725319 0.638191 3.133857 17.000000 25 348.961889
-0.882124 0.767603 2.814362 4.000000 23 348.961892
-1.129999 0.982965 2.810851 11.000000 21 348.961894
-1.541896 1.341278 3.074126 42.000000 19 348.961897
-2.062259 1.793945 3.347999 86.000000 17 348.961900
-0.228994 0.230762 5.445274 39.000000 30 348.961907
-0.425419 0.407667 5.443509 38.000000 29 348.961910
-0.669767 0.597748 3.491392 12.000000 26 348.961912
-0.764999 0.668027 2.816074 24.000000 24 348.961915
-1.007079 0.878817 2.826276 5.000000 22 348.961918
-1.249256 1.089778 2.781808 11.000000 20 348.961920
-1.696340 1.479798 3.054478 81.000000 18 348.961923
-2.261794 1.973078 3.332090 89.000000 16 348.961925
-3.660857 3.176720 4.842930 10.000000 15 348.961883
-3.054241 2.650329 3.341869 19.000000 13 348.961885
-3.402476 2.953552 3.038604 8.000000 11 348.961888
-0.352371 0.305877 0.330709 7.000000 9 348.961891
-0.340158 0.295379 0.270335 8.000000 7 348.961893
-0.337072 0.292803 0.221098 10.000000 5 348.961896
-0.322632 0.280258 0.172610 10.000000 3 348.961898
-0.326881 0.284050 0.131752 8.000000 1 348.961901
-3.523465 3.067213 4.240356 8.000000 14 348.961909
-3.346378 2.913059 3.314087 4.000000 12 348.961911
-3.428193 2.985332 2.755850 4.000000 10 348.961914
-0.342266 0.298154 0.247040 10.000000 6 348.961919
-0.333579 0.290689 0.197434 10.000000 4 348.961921
-0.335869 0.292788 0.154284 9.000000 2 348.961924
-0.331156 0.288781 0.111400 6.000000 0 348.961926
-0.036875 0.048664 5.449066 34.000000 31 348.961937
-0.620973 0.571283 5.364459 99.000000 28 348.961940
-0.816262 0.752676 5.361535 91.000000 27 348.961942
-0.724205 0.641709 3.138629 17.000000 25 348.961945
-0.879439 0.770677 2.814362 5.000000 23 348.961947
-1.126560 0.986903 2.810851 11.000000 21 348.961950
-1.539322 1.348507 3.078259 34.000000 19 348.961952
-2.055984 1.801133 3.347999 85.000000 17 348.961955
-0.228187 0.231560 5.445274 39.000000 30 348.961963
-0.423993 0.409149 5.443509 38.000000 29 348.961965
-0.668611 0.600923 3.496231 12.000000 26 348.961968
-0.761367 0.669553 2.811382 24.000000 24 348.961970
-1.247404 1.095854 2.786074 10.000000 20 348.961976
-1.691164 1.485710 3.054478 80.000000 18 348.961978
-2.254893 1.980962 3.332090 89.000000 16 348.961981
-3.636320 3.177746 4.825408 8.000000 15 348.961938
-3.153429 2.755754 3.457967 10.000000 13 348.961941
-3.363812 2.940643 3.013931 8.000000 11 348.961944
-0.351301 0.307105 0.330709 7.000000 9 348.961946
-0.342615 0.299616 0.272208 6.000000 7 348.961949
-0.336048 0.293978 0.221098 10.000000 5 348.961951
-0.321651 0.281383 0.172610 10.000000 3 348.961954
-0.325888 0.285189 0.131752 8.000000 1 348.961956
-3.518353 3.084416 4.247006 9.000000 14 348.961964
-3.327071 2.916729 3.305258 4.000000 12 348.961967
-3.395062 2.977383 2.738123 4.000000 10 348.961969
-0.341223 0.299347 0.247040 11.000000 6 348.961974
-0.332563 0.291852 0.197434 10.000000 4 348.961977
-0.334845 0.293958 0.154284 9.000000 2 348.961979
-0.330146 0.289935 0.111400 6.000000 0 348.961982
-0.036705 0.048792 5.449066 34.000000 31 348.961993
-0.618975 0.573447 5.364459 99.000000 28 348.961995
-0.813630 0.755520 5.361535 91.000000 27 348.961998
-0.723075 0.645228 3.143401 17.000000 25 348.962000
-0.875279 0.772450 2.809759 5.000000 23 348.962003
-1.124905 0.992415 2.815240 11.000000 21 348.962005
-1.536716 1.355733 3.082392 26.000000 19 348.962008
-2.047281 1.806178 3.344162 86.000000 17 348.962011
-0.227377 0.232356 5.445274 38.000000 30 348.962018
-0.422562 0.410627 5.443509 38.000000 29 348.962021
-0.666510 0.603253 3.496231 11.000000 26 348.962023
-0.759025 0.672207 2.811382 24.000000 24 348.962026
-1.243571 1.100201 2.786074 10.000000 20 348.962031
-1.688225 1.493601 3.058467 80.000000 18 348.962034
-2.247964 1.988821 3.332090 89.000000 16 348.962036
-3.595756 3.164503 4.786858 7.000000 15 348.961994
-3.173013 2.792463 3.489345 10.000000 13 348.961996
-3.322142 2.924736 2.986517 8.000000 11 348.961999
-0.350227 0.308329 0.330709 7.000000 9 348.962002
-0.331129 0.291618 0.266589 5.000000 7 348.962004
-0.331421 0.291978 0.219688 10.000000 5 348.962007
-0.320667 0.282504 0.172610 9.000000 3 348.962009
-0.321154 0.283033 0.131305 8.000000 1 348.962012
-3.513164 3.101622 4.253655 9.000000 14 348.962020
-3.283539 2.898898 3.272883 5.000000 12 348.962022
-3.352334 2.960676 2.712799 4.000000 10 348.962025
-0.340176 0.300536 0.247040 11.000000 6 348.962030
-0.331542 0.293011 0.197434 10.000000 4 348.962032
-0.333817 0.295125 0.154284 9.000000 2 348.962035
-0.329132 0.291086 0.111400 6.000000 0 348.962038
-0.036559 0.048957 5.454066 34.000000 31 348.962048
-0.617537 0.576135 5.369398 100.000000 28 348.962051
-0.810987 0.758356 5.361535 91.000000 27 348.962053
-0.721929 0.648746 3.148173 17.000000 25 348.962056
-0.872577 0.775500 2.809759 6.000000 23 348.962058
-1.121434 0.996335 2.815240 10.000000 21 348.962061
-1.527766 1.357351 3.074126 15.000000 19 348.962064
-2.040964 1.813313 3.344162 87.000000 17 348.962066
-0.226364 0.232939 5.440283 39.000000 30 348.962074
-0.421126 0.412099 5.443509 38.000000 29 348.962076
-0.665329 0.606424 3.501070 11.000000 26 348.962079
-0.756674 0.674852 2.811382 24.000000 24 348.962082
-0.999447 0.890763 2.830777 4.000000 22 348.962084
-1.239723 1.104535 2.786074 10.000000 20 348.962087
-1.683001 1.499485 3.058467 81.000000 18 348.962089
-2.241008 1.996655 3.332090 89.000000 16 348.962092
-3.539317 3.136823 4.727280 7.000000 15 348.962049
-3.215687 2.849999 3.545825 10.000000 13 348.962052
-3.283753 2.911349 2.961843 8.000000 11 348.962055
-0.349149 0.309550 0.330709 7.000000 9 348.962057
-0.330399 0.293133 0.219688 9.000000 5 348.962062
-0.319679 0.283621 0.172610 10.000000 3 348.962065
-0.320164 0.284152 0.131305 8.000000 1 348.962067
-3.505107 3.116348 4.256980 9.000000 14 348.962075
-3.249233 2.888857 3.249338 7.000000 12 348.962078
-3.325872 2.958035 2.700137 3.000000 10 348.962080
-0.339125 0.301722 0.247040 10.000000 6 348.962085
-0.330517 0.294166 0.197434 10.000000 4 348.962088
-0.332785 0.296289 0.154284 9.000000 2 348.962090
-0.328114 0.292233 0.111400 6.000000 0 348.962093
-0.036387 0.049084 5.454066 34.000000 31 348.962104
-0.615522 0.578287 5.369398 100.000000 28 348.962106
-0.808335 0.761182 5.361535 91.000000 27 348.962109
-0.719660 0.651262 3.148173 17.000000 25 348.962111
-0.869865 0.778541 2.809759 6.000000 23 348.962114
-1.117950 1.000244 2.815240 10.000000 21 348.962116
-1.508339 1.349541 3.045195 8.000000 19 348.962119
-2.025065 1.811875 3.328814 88.000000 17 348.962122
-0.225549 0.233728 5.440283 38.000000 30 348.962129
-0.419306 0.413192 5.438537 37.000000 29 348.962132
-0.664135 0.609593 3.505909 11.000000 26 348.962134
-0.754314 0.677489 2.811382 25.000000 24 348.962137
-1.004434 0.901520 2.853281 14.000000 22 348.962140
-1.235860 1.108856 2.786074 11.000000 20 348.962142
-1.677756 1.505351 3.058467 81.000000 18 348.962145
-2.234025 2.004466 3.332090 89.000000 16 348.962147
-3.480455 3.106414 4.664198 8.000000 15 348.962105
-3.234762 2.887128 3.577203 10.000000 13 348.962108
-3.245499 2.897730 2.937170 9.000000 11 348.962110
-0.348066 0.310767 0.330709 7.000000 9 348.962113
-0.325797 0.291088 0.218279 9.000000 5 348.962118
-0.318687 0.284736 0.172610 9.000000 3 348.962120
-0.315457 0.281949 0.130859 8.000000 1 348.962123
-3.502554 3.136037 4.266955 9.000000 14 348.962131
-3.212028 2.875915 3.222850 8.000000 12 348.962133
-3.305892 2.960997 2.692539 3.000000 10 348.962136
-0.338070 0.302904 0.247040 10.000000 6 348.962141
-0.329488 0.295318 0.197434 10.000000 4 348.962143
-0.331749 0.297449 0.154284 9.000000 2 348.962146
-0.323373 0.290041 0.111199 6.000000 0 348.962149
-0.036239 0.049248 5.459065 34.000000 31 348.962159
-0.613500 0.580432 5.369398 100.000000 28 348.962162
-0.805673 0.763999 5.361535 91.000000 27 348.962164
-0.718486 0.654777 3.152945 17.000000 25 348.962167
-0.867142 0.781573 2.809759 6.000000 23 348.962169
-1.112671 1.002537 2.810851 11.000000 21 348.962172
-1.491076 1.343496 3.020398 4.000000 19 348.962175
-2.011583 1.812495 3.317304 90.000000 17 348.962177
-0.224732 0.234514 5.440283 37.000000 30 348.962185
-0.417861 0.414653 5.438537 37.000000 29 348.962187
-0.662926 0.612762 3.510749 11.000000 26 348.962190
-0.751944 0.680118 2.811382 24.000000 24 348.962193
-0.993204 0.897719 2.830777 12.000000 22 348.962195
-1.231982 1.113163 2.786074 11.000000 20 348.962198
-1.674728 1.513219 3.062457 81.000000 18 348.962200
-2.227015 2.012251 3.332090 89.000000 16 348.962203
-3.440414 3.092320 4.625648 9.000000 15 348.962160
-3.291254 2.958255 3.649372 6.000000 13 348.962163
-3.207380 2.883879 2.912497 9.000000 11 348.962166
-0.346979 0.311980 0.330709 7.000000 9 348.962168
-0.324779 0.292223 0.218279 9.000000 5 348.962173
-0.314040 0.282561 0.171677 9.000000 3 348.962176
-0.314471 0.283048 0.130859 8.000000 1 348.962178
-3.477719 3.135740 4.250331 8.000000 14 348.962186
-3.174953 2.862749 3.196361 9.000000 12 348.962189
-3.276328 2.955193 2.677345 2.000000 10 348.962191
-0.337011 0.304082 0.247040 9.000000 6 348.962196
-0.324847 0.293210 0.196262 10.000000 4 348.962199
-0.330708 0.298605 0.154284 9.000000 2 348.962202
-0.322358 0.291168 0.111199 6.000000 0 348.962204
-0.036067 0.049374 5.459065 34.000000 31 348.962215
-0.611470 0.582570 5.369398 100.000000 28 348.962217
-0.803002 0.766807 5.361535 91.000000 27 348.962220
-0.716196 0.657281 3.152945 17.000000 25 348.962222
-0.864409 0.784595 2.809759 6.000000 23 348.962225
-1.109165 1.006414 2.810851 12.000000 21 348.962228
-1.480125 1.343020 3.007999 3.000000 19 348.962230
-1.986250 1.802271 3.286608 93.000000 17 348.962233
-0.223912 0.235297 5.440283 38.000000 30 348.962240
-0.416411 0.416109 5.438537 37.000000 29 348.962243
-0.661704 0.615929 3.515588 11.000000 26 348.962246
-0.749566 0.682739 2.811382 24.000000 24 348.962248
-0.988454 0.899715 2.826276 12.000000 22 348.962251
-1.228088 1.117457 2.786074 11.000000 20 348.962253
-1.669436 1.519055 3.062457 81.000000 18 348.962256
-2.222485 2.022295 3.335765 89.000000 16 348.962258
-3.419023 3.094738 4.611630 9.000000 15 348.962216
-3.286680 2.974950 3.655647 6.000000 13 348.962219
-3.169397 2.869798 2.887824 8.000000 11 348.962221
-0.345888 0.313189 0.330709 7.000000 9 348.962224
-0.337333 0.305550 0.272208 4.000000 7 348.962226
-0.323757 0.293355 0.218279 10.000000 5 348.962229
-0.313051 0.283655 0.171677 10.000000 3 348.962231
-0.309792 0.280800 0.130413 8.000000 1 348.962234
-3.455693 3.137819 4.237031 8.000000 14 348.962242
-3.141001 2.852077 3.172816 9.000000 12 348.962244
-3.272375 2.972409 2.682410 2.000000 10 348.962247
-0.332452 0.302081 0.245397 9.000000 6 348.962252
-0.323822 0.294342 0.196262 10.000000 4 348.962254
-0.326000 0.296426 0.153594 9.000000 2 348.962257
-0.321340 0.292291 0.111199 6.000000 0 348.962260
-0.035895 0.049499 5.459065 33.000000 31 348.962270
-0.609433 0.584701 5.369398 100.000000 28 348.962273
-0.800320 0.769605 5.361535 91.000000 27 348.962275
-0.714994 0.660790 3.157716 17.000000 25 348.962278
-0.860223 0.786290 2.805157 6.000000 23 348.962280
-1.105645 1.010280 2.810851 11.000000 21 348.962283
-1.958647 1.789731 3.252075 94.000000 17 348.962288
-0.223090 0.236077 5.440283 38.000000 30 348.962296
-0.414956 0.417560 5.438537 37.000000 29 348.962298
-0.660467 0.619096 3.520427 11.000000 26 348.962301
-0.747178 0.685351 2.811382 24.000000 24 348.962303
-0.985307 0.903159 2.826276 12.000000 22 348.962306
-1.224180 1.121737 2.786074 11.000000 20 348.962308
-1.666345 1.526910 3.066446 81.000000 18 348.962311
-2.215412 2.030041 3.335765 89.000000 16 348.962314
-3.381844 3.082630 4.576585 9.000000 15 348.962271
-3.276276 2.986405 3.655647 6.000000 13 348.962274
-3.131553 2.855487 2.863151 8.000000 11 348.962276
-0.344793 0.314395 0.330709 7.000000 9 348.962279
-0.332840 0.303601 0.270335 5.000000 7 348.962282
-0.322731 0.294484 0.218279 9.000000 5 348.962284
-0.312059 0.284746 0.171677 10.000000 3 348.962287
-0.308809 0.281879 0.130413 8.000000 1 348.962289
-3.110145 2.843930 3.152214 12.000000 12 348.962300
-3.258798 2.980904 2.679877 2.000000 10 348.962302
-0.331395 0.303239 0.245397 10.000000 6 348.962307
-0.322792 0.295470 0.196262 10.000000 4 348.962310
-0.324963 0.297562 0.153594 9.000000 2 348.962312
-0.320318 0.293411 0.111199 7.000000 0 348.962315
-0.035722 0.049624 5.459065 33.000000 31 348.962326
-0.606830 0.586284 5.364459 100.000000 28 348.962328
-0.797629 0.772394 5.361535 91.000000 27 348.962331
-0.712683 0.663282 3.157716 17.000000 25 348.962333
-0.863222 0.794580 2.823567 8.000000 23 348.962336
-1.102112 1.014133 2.810851 11.000000 21 348.962338
-1.912283 1.759653 3.186847 95.000000 17 348.962343
-0.222264 0.236855 5.440283 38.000000 30 348.962351
-0.413496 0.419006 5.438537 37.000000 29 348.962354
-0.658302 0.621397 3.520427 11.000000 26 348.962356
-0.744781 0.687955 2.811382 25.000000 24 348.962359
-0.982148 0.906593 2.826276 12.000000 22 348.962361
-1.220257 1.126003 2.786074 11.000000 20 348.962364
-1.663220 1.534761 3.070436 81.000000 18 348.962367
-2.208312 2.037761 3.335765 89.000000 16 348.962369
-3.274435 3.005721 3.665061 5.000000 13 348.962329
-3.096927 2.843776 2.841219 11.000000 11 348.962332
-0.343693 0.315596 0.330709 7.000000 9 348.962334
-0.345434 0.317306 0.277827 6.000000 7 348.962337
-0.321701 0.295608 0.218279 9.000000 5 348.962340
-0.314681 0.289157 0.172610 10.000000 3 348.962342
-0.307824 0.282956 0.130413 8.000000 1 348.962345
-2.974940 2.739423 3.681782 12.000000 14 348.962352
-3.100199 2.854769 3.152214 15.000000 12 348.962355
-3.245202 2.989340 2.677345 1.000000 10 348.962358
-0.326862 0.301194 0.243754 10.000000 6 348.962363
-0.321759 0.296595 0.196262 10.000000 4 348.962365
-0.323923 0.298694 0.153594 9.000000 2 348.962368
-0.315620 0.291140 0.110997 7.000000 0 348.962370
-0.035548 0.049749 5.459065 27.000000 31 348.962381
-0.604780 0.588399 5.364459 100.000000 28 348.962384
-0.794928 0.775174 5.361535 92.000000 27 348.962386
-0.711453 0.666787 3.162488 17.000000 25 348.962389
-0.864742 0.801573 2.837374 8.000000 23 348.962391
-1.098565 1.017974 2.810851 12.000000 21 348.962394
-1.866153 1.729273 3.121619 93.000000 17 348.962399
-0.221436 0.237629 5.440283 37.000000 30 348.962407
-0.412031 0.420447 5.438537 38.000000 29 348.962409
-0.657041 0.624558 3.525266 11.000000 26 348.962412
-0.742375 0.690551 2.811382 25.000000 24 348.962414
-0.978819 0.910187 2.826276 12.000000 22 348.962417
-1.216122 1.130468 2.786074 11.000000 20 348.962420
-1.661999 1.544951 3.078415 88.000000 18 348.962422
-2.200829 2.045841 3.335765 89.000000 16 348.962425
-2.485568 2.297625 3.406066 28.000000 15 348.962382
-3.272499 3.025060 3.674474 6.000000 13 348.962385
-3.062421 2.831858 2.819287 9.000000 11 348.962387
-0.339337 0.313786 0.328391 7.000000 9 348.962390
-0.327309 0.302770 0.268462 6.000000 7 348.962393
-0.320667 0.296729 0.218279 10.000000 5 348.962395
-0.313619 0.290309 0.172610 10.000000 3 348.962398
-0.306785 0.284082 0.130413 8.000000 1 348.962400
-2.962142 2.747768 3.678457 12.000000 14 348.962408
-3.104532 2.879858 3.166929 10.000000 12 348.962411
-0.326823 0.303270 0.347513 8.000000 10 348.962413
-0.325756 0.302390 0.243754 10.000000 6 348.962418
-0.317108 0.294465 0.195089 10.000000 4 348.962421
-0.322826 0.299880 0.153594 10.000000 2 348.962423
-0.314601 0.292240 0.110997 7.000000 0 348.962426
-0.035366 0.049879 5.459065 27.000000 31 348.962437
-0.602619 0.590612 5.364459 99.000000 28 348.962439
-0.791355 0.777368 5.356639 92.000000 27 348.962442
-0.710091 0.670416 3.167260 17.000000 25 348.962444
-0.867510 0.810071 2.855785 8.000000 23 348.962447
-1.094827 1.021994 2.810851 12.000000 21 348.962449
-1.335512 1.246675 2.755889 3.000000 19 348.962452
-1.843398 1.720788 3.094761 94.000000 17 348.962454
-0.220564 0.238439 5.440283 38.000000 30 348.962462
-0.410859 0.422337 5.443509 39.000000 29 348.962465
-0.654747 0.626962 3.525266 11.000000 26 348.962467
-0.739839 0.693267 2.811382 24.000000 24 348.962470
-0.977225 0.915087 2.830777 12.000000 22 348.962472
-1.212168 1.134706 2.786074 11.000000 20 348.962475
-1.658796 1.552803 3.082404 92.000000 18 348.962478
-2.193674 2.053511 3.335765 89.000000 16 348.962480
-2.477130 2.306720 3.406066 33.000000 15 348.962438
-3.269936 3.044992 3.683887 7.000000 13 348.962440
-3.030604 2.823112 2.800097 7.000000 11 348.962443
-0.338185 0.315028 0.328391 7.000000 9 348.962446
-0.336372 0.313449 0.274081 5.000000 7 348.962448
-0.319577 0.297903 0.218279 9.000000 5 348.962451
-0.312603 0.291402 0.172610 10.000000 3 348.962453
-0.305791 0.285151 0.130413 8.000000 1 348.962456
-2.957991 2.763190 3.685106 10.000000 14 348.962464
-3.100368 2.896195 3.172816 10.000000 12 348.962466
-0.328912 0.307353 0.350045 9.000000 10 348.962469
-0.321249 0.300300 0.242112 9.000000 6 348.962474
-0.316078 0.295570 0.195089 10.000000 4 348.962476
-0.321777 0.301005 0.153594 10.000000 2 348.962479
-0.313528 0.293391 0.110997 7.000000 0 348.962481
-0.035191 0.050002 5.459065 33.000000 31 348.962492
-0.600554 0.592712 5.364459 95.000000 28 348.962495
-0.788637 0.780126 5.356639 91.000000 27 348.962497
-0.708828 0.673920 3.172031 17.000000 25 348.962500
-0.873216 0.821124 2.883400 13.000000 23 348.962502
-1.091253 1.025809 2.810851 12.000000 21 348.962505
-1.322950 1.243620 2.739357 4.000000 19 348.962507
-1.830373 1.720625 3.083250 90.000000 17 348.962510
-0.219730 0.239207 5.440283 39.000000 30 348.962518
-0.409382 0.423769 5.443509 37.000000 29 348.962520
-0.653460 0.630117 3.530106 11.000000 26 348.962523
-0.737415 0.695845 2.811382 24.000000 24 348.962525
-0.974025 0.918492 2.830777 12.000000 22 348.962528
-1.208200 1.138931 2.786074 11.000000 20 348.962531
-1.655559 1.560651 3.086394 90.000000 18 348.962533
-2.188959 2.063482 3.339440 89.000000 16 348.962536
-2.450854 2.298277 3.381534 37.000000 15 348.962493
-3.267806 3.064377 3.693300 8.000000 13 348.962496
-3.002433 2.816508 2.783648 7.000000 11 348.962498
-0.333852 0.313175 0.326073 7.000000 9 348.962501
-0.325134 0.305104 0.268462 4.000000 7 348.962504
-0.318535 0.299016 0.218279 9.000000 5 348.962506
-0.315166 0.295853 0.173543 10.000000 3 348.962509
-0.301163 0.282808 0.129967 8.000000 1 348.962511
-3.096128 2.912539 3.178702 9.000000 12 348.962522
-0.324698 0.305545 0.347513 10.000000 10 348.962524
-0.320198 0.301420 0.242112 10.000000 6 348.962529
-0.311506 0.293339 0.193917 10.000000 4 348.962532
-0.320724 0.302126 0.153594 10.000000 2 348.962534
-0.312502 0.294484 0.110997 7.000000 0 348.962537
-0.035017 0.050124 5.459065 33.000000 31 348.962548
-0.598481 0.594804 5.364459 95.000000 28 348.962550
-0.785909 0.782874 5.356639 91.000000 27 348.962553
-0.706472 0.676390 3.172031 17.000000 25 348.962555
-0.866089 0.820137 2.869592 9.000000 23 348.962558
-1.087665 1.029612 2.810851 12.000000 21 348.962560
-1.320645 1.250165 2.743490 4.000000 19 348.962563
-1.815043 1.718188 3.067902 87.000000 17 348.962566
-0.218894 0.239973 5.440283 39.000000 30 348.962573
-0.408269 0.425581 5.448480 37.000000 29 348.962576
-0.652159 0.633271 3.534945 11.000000 26 348.962578
-0.736232 0.699604 2.816074 24.000000 24 348.962581
-0.970813 0.921887 2.830777 11.000000 22 348.962584
-1.204217 1.143141 2.786074 11.000000 20 348.962586
-1.652287 1.568496 3.090383 90.000000 18 348.962589
-2.181743 2.071110 3.339440 88.000000 16 348.962591
-2.427259 2.292126 3.360507 46.000000 15 348.962549
-3.265581 3.083783 3.702714 8.000000 13 348.962551
-2.971306 2.806872 2.764458 8.000000 11 348.962554
-0.332757 0.314339 0.326073 7.000000 9 348.962557
-0.317490 0.300127 0.218279 10.000000 5 348.962562
-0.314131 0.296952 0.173543 10.000000 3 348.962564
-0.300174 0.283857 0.129967 8.000000 1 348.962567
-3.185333 3.017479 3.987668 6.000000 14 348.962575
-3.091811 2.928888 3.184589 9.000000 12 348.962577
-0.323629 0.306676 0.347513 10.000000 10 348.962580
-0.322572 0.305785 0.243754 10.000000 6 348.962585
-0.310480 0.294425 0.193917 10.000000 4 348.962587
-0.319668 0.303244 0.153594 10.000000 2 348.962590
-0.307848 0.292134 0.110796 7.000000 0 348.962592
-0.034841 0.050246 5.459065 33.000000 31 348.962603
-0.596401 0.596890 5.364459 100.000000 28 348.962606
-0.783171 0.785612 5.356639 85.000000 27 348.962608
-0.705181 0.679888 3.176803 17.000000 25 348.962611
-0.857565 0.817762 2.851182 5.000000 23 348.962613
-1.084065 1.033402 2.810851 12.000000 21 348.962616
-1.320346 1.258650 2.751756 4.000000 19 348.962618
-1.806714 1.722301 3.064065 86.000000 17 348.962621
-0.218055 0.240736 5.440283 39.000000 30 348.962629
-0.406781 0.427003 5.448480 38.000000 29 348.962631
-0.649944 0.635543 3.534945 11.000000 26 348.962634
-0.735032 0.703363 2.820767 21.000000 24 348.962636
-0.969163 0.926775 2.835278 11.000000 22 348.962639
-1.200220 1.147338 2.786074 11.000000 20 348.962642
-1.648980 1.576336 3.094373 92.000000 18 348.962644
-2.176951 2.081056 3.343116 87.000000 16 348.962647
-2.403738 2.285840 3.339480 59.000000 15 348.962604
-3.263259 3.103211 3.712127 9.000000 13 348.962607
-2.940284 2.797053 2.745268 10.000000 11 348.962610
-0.328447 0.312445 0.323755 7.000000 9 348.962612
-0.316440 0.301233 0.218279 10.000000 5 348.962617
-0.313093 0.298046 0.173543 10.000000 3 348.962620
-0.302788 0.288338 0.130413 8.000000 1 348.962622
-3.174780 3.028579 3.987668 6.000000 14 348.962630
-3.087417 2.945243 3.190475 9.000000 12 348.962633
-0.322557 0.307804 0.347513 11.000000 10 348.962635
-0.321502 0.306909 0.243754 10.000000 6 348.962640
-0.309450 0.295507 0.193917 10.000000 4 348.962643
-0.315026 0.300937 0.152904 9.000000 2 348.962645
-0.306827 0.293206 0.110796 7.000000 0 348.962648
-0.034643 0.050330 5.454066 33.000000 31 348.962659
-0.594314 0.598968 5.364459 100.000000 28 348.962661
-0.780424 0.788341 5.356639 85.000000 27 348.962664
-0.702804 0.682346 3.176803 17.000000 25 348.962666
-0.854705 0.820751 2.851182 3.000000 23 348.962669
-1.082179 1.038839 2.815240 12.000000 21 348.962671
-1.315945 1.263251 2.751756 4.000000 19 348.962674
-1.800691 1.728597 3.064065 86.000000 17 348.962677
-0.217213 0.241495 5.440283 38.000000 30 348.962684
-0.405288 0.428421 5.448480 38.000000 29 348.962687
-0.648618 0.638691 3.539784 11.000000 26 348.962689
-0.733815 0.707122 2.825460 20.000000 24 348.962692
-0.965922 0.930152 2.835278 11.000000 22 348.962695
-1.196207 1.151520 2.786074 10.000000 20 348.962697
-1.643468 1.582083 3.094373 92.000000 18 348.962700
-2.169673 2.088642 3.343116 88.000000 16 348.962702
-2.390592 2.289284 3.332471 80.000000 15 348.962660
-3.258030 3.119968 3.718403 9.000000 13 348.962662
-2.930502 2.807300 2.745268 11.000000 11 348.962665
-0.327355 0.313590 0.323755 7.000000 9 348.962668
-0.311924 0.299016 0.216870 9.000000 5 348.962673
-0.312050 0.299137 0.173543 10.000000 3 348.962675
-0.301780 0.289393 0.130413 9.000000 1 348.962678
-3.148031 3.024121 3.967718 7.000000 14 348.962686
-3.082947 2.961602 3.196361 9.000000 12 348.962688
-0.321480 0.308928 0.347513 9.000000 10 348.962691
-0.320429 0.308029 0.243754 10.000000 6 348.962696
-0.308417 0.296585 0.193917 10.000000 4 348.962698
-0.313974 0.302035 0.152904 9.000000 2 348.962701
-0.305801 0.294276 0.110796 7.000000 0 348.962704
-0.034468 0.050451 5.454066 33.000000 31 348.962714
-0.592765 0.601593 5.369398 100.000000 28 348.962717
-0.777668 0.791061 5.356639 90.000000 27 348.962719
-0.701485 0.685839 3.181575 16.000000 25 348.962722
-1.078546 1.042611 2.815240 12.000000 21 348.962727
-1.313551 1.269793 2.755889 4.000000 19 348.962730
-1.792341 1.732644 3.060229 85.000000 17 348.962732
-0.216369 0.242252 5.440283 37.000000 30 348.962740
-0.403790 0.429833 5.448480 38.000000 29 348.962742
-0.647277 0.641837 3.544623 11.000000 26 348.962745
-0.732581 0.710881 2.830153 19.000000 24 348.962748
-0.962669 0.933518 2.835278 11.000000 22 348.962750
-1.192181 1.155689 2.786074 10.000000 20 348.962753
-1.637935 1.587810 3.094373 92.000000 18 348.962755
-2.162369 2.096203 3.343116 89.000000 16 348.962758
-2.377453 2.292663 3.325462 87.000000 15 348.962715
-3.249922 3.134024 3.721540 9.000000 13 348.962718
-2.929713 2.826221 2.753492 9.000000 11 348.962721
-0.326258 0.314730 0.323755 7.000000 9 348.962723
-0.310878 0.300103 0.216870 9.000000 5 348.962728
-0.311004 0.300225 0.173543 10.000000 3 348.962731
-0.300768 0.290445 0.130413 8.000000 1 348.962733
-3.115983 3.014319 3.941119 8.000000 14 348.962741
-3.078401 2.977966 3.202247 9.000000 12 348.962744
-0.320400 0.310048 0.347513 9.000000 10 348.962746
-0.319352 0.309146 0.243754 10.000000 6 348.962751
-0.307380 0.297660 0.193917 10.000000 4 348.962754
-0.312918 0.303129 0.152904 10.000000 2 348.962756
-0.304772 0.295341 0.110796 7.000000 0 348.962759
-0.034291 0.050571 5.454066 33.000000 31 348.962770
-0.590661 0.603658 5.369398 100.000000 28 348.962772
-0.774902 0.793771 5.356639 90.000000 27 348.962775
-0.699087 0.688284 3.181575 16.000000 25 348.962777
-1.076617 1.048040 2.819628 12.000000 21 348.962782
-1.309110 1.274371 2.755889 4.000000 19 348.962785
-1.786282 1.738890 3.060229 85.000000 17 348.962788
-0.215522 0.243006 5.440283 37.000000 30 348.962795
-0.401924 0.430849 5.443509 38.000000 29 348.962798
-0.645923 0.644981 3.549462 11.000000 26 348.962800
-0.731329 0.714639 2.834845 18.000000 24 348.962803
-0.959405 0.936873 2.835278 13.000000 22 348.962806
-1.188139 1.159843 2.786074 10.000000 20 348.962808
-1.632383 1.593518 3.094373 92.000000 18 348.962811
-2.155039 2.103738 3.343116 88.000000 16 348.962813
-2.371994 2.303432 3.328966 90.000000 15 348.962771
-3.244547 3.150773 3.727816 9.000000 13 348.962774
-2.922829 2.839344 2.756234 9.000000 11 348.962776
-0.325158 0.315867 0.323755 7.000000 9 348.962779
-0.309828 0.301186 0.216870 10.000000 5 348.962784
-0.306432 0.297885 0.172610 10.000000 3 348.962786
-0.299752 0.291493 0.130413 9.000000 1 348.962789
-3.105443 3.025178 3.941119 9.000000 14 348.962797
-3.073778 2.994335 3.208134 9.000000 12 348.962799
-0.319316 0.311165 0.347513 8.000000 10 348.962802
-0.318271 0.310259 0.243754 10.000000 6 348.962807
-0.302859 0.295338 0.192745 10.000000 4 348.962809
-0.308313 0.300761 0.152215 9.000000 2 348.962812
-0.303740 0.296403 0.110796 7.000000 0 348.962815
-0.034115 0.050690 5.454066 33.000000 31 348.962825
-0.588550 0.605716 5.369398 100.000000 28 348.962828
-0.772835 0.797202 5.361535 89.000000 27 348.962830
-0.696680 0.690720 3.181575 16.000000 25 348.962833
-0.841879 0.825552 2.837374 3.000000 23 348.962835
-1.072952 1.051792 2.819628 12.000000 21 348.962838
-1.306663 1.280902 2.760022 4.000000 19 348.962841
-1.780201 1.745114 3.060229 85.000000 17 348.962843
-0.214715 0.243719 5.440283 38.000000 30 348.962851
-0.400493 0.432179 5.443509 37.000000 29 348.962853
-0.644667 0.648012 3.554302 11.000000 26 348.962856
-0.730186 0.718271 2.839538 18.000000 24 348.962859
-0.956129 0.940216 2.835278 14.000000 22 348.962861
-1.185943 1.165812 2.790340 10.000000 20 348.962864
-1.628960 1.601319 3.098362 92.000000 18 348.962866
-2.148051 2.110873 3.343116 88.000000 16 348.962869
-2.363939 2.311698 3.328966 90.000000 15 348.962826
-3.211264 3.140306 3.702714 8.000000 13 348.962829
-2.918878 2.855377 2.761716 9.000000 11 348.962832
-0.324053 0.317000 0.323755 7.000000 9 348.962834
-0.308828 0.302212 0.216870 10.000000 5 348.962839
-0.305390 0.298952 0.172610 10.000000 3 348.962842
-0.298733 0.292537 0.130413 9.000000 1 348.962844
-3.097530 3.038615 3.944444 9.000000 14 348.962852
-3.069078 3.010707 3.214020 9.000000 12 348.962855
-0.318282 0.312222 0.347513 8.000000 10 348.962857
-0.313869 0.308005 0.242112 10.000000 6 348.962862
-0.301878 0.296341 0.192745 10.000000 4 348.962865
-0.307314 0.301782 0.152215 9.000000 2 348.962868
-0.302755 0.297409 0.110796 7.000000 0 348.962870
-0.033946 0.050803 5.454066 33.000000 31 348.962881
-0.586538 0.607665 5.369398 100.000000 28 348.962883
-0.770187 0.799760 5.361535 91.000000 27 348.962886
-0.694386 0.693026 3.181575 16.000000 25 348.962888
-0.837747 0.826967 2.832772 4.000000 23 348.962891
-1.069458 1.055344 2.819628 12.000000 21 348.962894
-1.302408 1.285228 2.760022 4.000000 19 348.962896
-1.774404 1.751008 3.060229 85.000000 17 348.962899
-0.214053 0.244686 5.445274 38.000000 30 348.962906
-0.398982 0.433575 5.443509 37.000000 29 348.962909
-0.643285 0.651153 3.559141 11.000000 26 348.962912
-0.727674 0.720815 2.839538 18.000000 24 348.962914
-0.953006 0.943382 2.835278 14.000000 22 348.962917
-1.182070 1.169738 2.790340 10.000000 20 348.962919
-1.623641 1.606712 3.098362 92.000000 18 348.962922
-2.143079 2.120743 3.346791 88.000000 16 348.962924
-2.358801 2.322026 3.332471 91.000000 15 348.962882
-3.186961 3.137282 3.687025 7.000000 13 348.962885
-2.912373 2.867975 2.764458 9.000000 11 348.962887
-0.323000 0.318073 0.323755 7.000000 9 348.962890
-0.307771 0.303288 0.216870 10.000000 5 348.962895
-0.300899 0.296516 0.171677 10.000000 3 348.962897
-0.297761 0.293526 0.130413 8.000000 1 348.962900
-3.074151 3.035750 3.927820 9.000000 14 348.962908
-3.064829 3.026548 3.219906 9.000000 12 348.962910
-0.317190 0.313331 0.347513 9.000000 10 348.962913
-0.312792 0.309098 0.242112 10.000000 6 348.962918
-0.300842 0.297392 0.192745 10.000000 4 348.962920
-0.306259 0.302853 0.152215 10.000000 2 348.962923
-0.301715 0.298464 0.110796 8.000000 0 348.962926
-0.033760 0.050927 5.454066 32.000000 31 348.962936
-0.584307 0.609810 5.369398 100.000000 28 348.962939
-0.767250 0.802578 5.361535 91.000000 27 348.962941
-0.690788 0.694508 3.176803 16.000000 25 348.962944
-0.830554 0.825899 2.818964 5.000000 23 348.962946
-1.065583 1.059257 2.819628 11.000000 21 348.962949
-1.301681 1.293961 2.768288 4.000000 19 348.962951
-1.770248 1.759760 3.064065 85.000000 17 348.962954
-0.213154 0.245469 5.445274 38.000000 30 348.962962
-0.397390 0.435034 5.443509 38.000000 29 348.962964
-0.640894 0.653506 3.559141 11.000000 26 348.962967
-0.726249 0.724696 2.844231 18.000000 24 348.962969
-0.951084 0.948406 2.839779 13.000000 22 348.962972
-1.177775 1.174063 2.790340 10.000000 20 348.962974
-1.617741 1.612652 3.098362 92.000000 18 348.962977
-2.135292 2.128583 3.346791 88.000000 16 348.962980
-2.350275 2.330656 3.332471 91.000000 15 348.962937
-2.907779 2.884520 2.769941 9.000000 11 348.962942
