# .PCD v.7 - Point Cloud Data file format
VERSION .7
FIELDS x y z intensity ring timestamp
SIZE 4 4 4 4 2 8
TYPE F F F F U D
COUNT 1 1 1 1 1 1
WIDTH 942
HEIGHT 1
VIEWPOINT 0 0 0 1 0 0 0
POINTS 942
DATA ascii
0.659961 1.369468 0.303974 38.000000 2 350.582075
0.659467 1.367833 0.154931 87.000000 0 350.582078
0.024356 0.033793 3.219151 95.000000 31 350.582089
0.233692 0.453816 3.245517 91.000000 28 350.582091
0.309535 0.599309 3.266377 86.000000 27 350.582094
0.448211 0.911123 3.291324 86.000000 25 350.582096
0.599070 1.234880 3.293024 12.000000 23 350.582099
0.766377 1.580433 3.284827 13.000000 21 350.582101
0.636300 1.312186 2.214473 21.000000 19 350.582104
0.647085 1.334420 1.851591 24.000000 17 350.582106
0.098235 0.170557 3.233992 96.000000 30 350.582114
0.169243 0.310643 3.251116 95.000000 29 350.582117
0.377142 0.753227 3.278467 88.000000 26 350.582119
0.521985 1.071230 3.294737 86.000000 24 350.582122
0.687078 1.411259 3.307865 12.000000 22 350.582124
0.630691 1.296007 2.427736 22.000000 20 350.582127
0.643448 1.322215 2.021198 26.000000 18 350.582130
0.676975 1.391102 1.755444 25.000000 16 350.582132
0.757642 1.567275 1.790470 24.000000 15 350.582090
1.122946 2.322936 2.162065 16.000000 13 350.582092
1.129685 2.335838 1.785755 17.000000 11 350.582095
1.138652 2.354373 1.454952 19.000000 9 350.582097
1.143196 2.362716 1.148787 24.000000 7 350.582100
1.156025 2.388167 0.869328 21.000000 5 350.582103
0.650640 1.344123 0.374989 78.000000 3 350.582105
0.674963 1.393751 0.231703 38.000000 1 350.582108
1.063044 2.190243 2.248772 14.000000 14 350.582115
1.125387 2.318684 1.960234 22.000000 12 350.582118
1.132558 2.332424 1.608661 18.000000 10 350.582121
1.150296 2.368948 1.304846 21.000000 8 350.582123
1.155814 2.379254 1.009246 23.000000 6 350.582126
1.158000 2.382695 0.729666 26.000000 4 350.582128
0.664737 1.367156 0.303974 35.000000 2 350.582131
0.664238 1.365522 0.154931 87.000000 0 350.582133
0.024474 0.033708 3.219151 95.000000 31 350.582144
0.235274 0.452997 3.245517 94.000000 28 350.582147
0.311625 0.598224 3.266377 82.000000 27 350.582149
0.451388 0.909553 3.291324 89.000000 25 350.582152
0.603377 1.232781 3.293024 12.000000 23 350.582154
0.763467 1.560532 3.249717 10.000000 21 350.582157
0.640877 1.309957 2.214473 21.000000 19 350.582159
0.651739 1.332153 1.851591 24.000000 17 350.582162
0.098829 0.170214 3.233992 96.000000 30 350.582170
0.170326 0.310050 3.251116 96.000000 29 350.582172
0.379769 0.751906 3.278467 88.000000 26 350.582175
0.525721 1.069401 3.294737 88.000000 24 350.582177
0.692000 1.408852 3.307865 12.000000 22 350.582180
0.635211 1.293797 2.427736 22.000000 20 350.582183
0.648060 1.319961 2.021198 26.000000 18 350.582185
0.683321 1.391773 1.759119 25.000000 16 350.582188
0.763108 1.564620 1.790470 24.000000 15 350.582145
1.131047 2.319003 2.162065 16.000000 13 350.582148
1.137832 2.331880 1.785755 17.000000 11 350.582150
1.146864 2.350384 1.454952 20.000000 9 350.582153
1.151437 2.358711 1.148787 25.000000 7 350.582156
1.164354 2.384117 0.869328 20.000000 5 350.582158
0.655328 1.341843 0.374989 80.000000 3 350.582161
0.679824 1.391386 0.231703 37.000000 1 350.582163
1.070683 2.186519 2.248772 14.000000 14 350.582171
1.131696 2.311111 1.957291 22.000000 12 350.582174
1.140693 2.328456 1.608661 19.000000 10 350.582176
1.158558 2.364918 1.304846 21.000000 8 350.582179
1.164112 2.375204 1.009246 23.000000 6 350.582181
1.166310 2.378639 0.729666 25.000000 4 350.582184
0.669506 1.364828 0.303974 33.000000 2 350.582186
0.669000 1.363196 0.154931 86.000000 0 350.582189
0.024591 0.033622 3.219151 95.000000 31 350.582200
0.236854 0.452173 3.245517 94.000000 28 350.582202
0.313711 0.597133 3.266377 82.000000 27 350.582205
0.454561 0.907972 3.291324 86.000000 25 350.582207
0.608541 1.232419 3.297627 12.000000 23 350.582210
0.767849 1.555709 3.245329 10.000000 21 350.582212
0.645446 1.307712 2.214473 21.000000 19 350.582215
0.656385 1.329870 1.851591 24.000000 17 350.582217
0.099275 0.169618 3.229000 96.000000 30 350.582225
0.171407 0.309454 3.251116 95.000000 29 350.582228
0.382392 0.750575 3.278467 88.000000 26 350.582230
0.529451 1.067560 3.294737 88.000000 24 350.582233
0.696913 1.406428 3.307865 12.000000 22 350.582235
0.639723 1.291572 2.427736 21.000000 20 350.582238
0.652663 1.317691 2.021198 26.000000 18 350.582241
0.688175 1.389380 1.759119 25.000000 16 350.582243
0.768565 1.561947 1.790470 24.000000 15 350.582201
1.139135 2.315040 2.162065 17.000000 13 350.582203
1.145965 2.327894 1.785755 17.000000 11 350.582206
1.155061 2.346366 1.454952 20.000000 9 350.582209
1.159663 2.354677 1.148787 24.000000 7 350.582211
1.170549 2.375735 0.867918 20.000000 5 350.582214
0.660008 1.339548 0.374989 78.000000 3 350.582216
0.684677 1.389005 0.231703 37.000000 1 350.582219
1.076655 2.179420 2.245447 14.000000 14 350.582227
1.139756 2.307147 1.957291 23.000000 12 350.582229
1.150724 2.328325 1.611193 18.000000 10 350.582232
1.166806 2.360859 1.304846 21.000000 8 350.582234
1.172396 2.371127 1.009246 23.000000 6 350.582237
1.174606 2.374553 0.729666 26.000000 4 350.582239
0.674266 1.362482 0.303974 31.000000 2 350.582242
0.673755 1.360852 0.154931 86.000000 0 350.582244
0.024709 0.033536 3.219151 95.000000 31 350.582255
0.238431 0.451344 3.245517 94.000000 28 350.582258
0.315793 0.596034 3.266377 85.000000 27 350.582260
0.457727 0.906380 3.291324 86.000000 25 350.582263
0.612840 1.230287 3.297627 12.000000 23 350.582265
0.747646 1.501549 3.140001 9.000000 21 350.582268
0.650006 1.305451 2.214473 21.000000 19 350.582270
0.661023 1.327571 1.851591 24.000000 17 350.582273
0.099867 0.169271 3.229000 96.000000 30 350.582281
0.172486 0.308853 3.251116 95.000000 29 350.582283
0.385009 0.749236 3.278467 88.000000 26 350.582286
0.533174 1.065705 3.294737 88.000000 24 350.582288
0.701819 1.403987 3.307865 12.000000 22 350.582291
0.644228 1.289331 2.427736 22.000000 20 350.582294
0.655912 1.312708 2.017208 26.000000 18 350.582296
0.694536 1.390002 1.762795 25.000000 16 350.582299
0.774012 1.559255 1.790470 24.000000 15 350.582256
1.147209 2.311050 2.162065 17.000000 13 350.582259
1.154084 2.323880 1.785755 17.000000 11 350.582261
1.163244 2.342320 1.454952 20.000000 9 350.582264
1.167875 2.350615 1.148787 24.000000 7 350.582267
1.178835 2.371634 0.867918 20.000000 5 350.582269
0.664680 1.337236 0.374989 78.000000 3 350.582272
0.691739 1.391065 0.232149 37.000000 1 350.582274
1.084256 2.175649 2.245447 14.000000 14 350.582282
1.147803 2.303154 1.957291 23.000000 12 350.582285
1.158844 2.324294 1.611193 18.000000 10 350.582287
1.175040 2.356772 1.304846 21.000000 8 350.582290
1.180665 2.367020 1.009246 22.000000 6 350.582292
1.182887 2.370438 0.729666 26.000000 4 350.582295
0.679017 1.360120 0.303974 31.000000 2 350.582297
0.678501 1.358492 0.154931 86.000000 0 350.582300
0.024855 0.033482 3.224151 95.000000 31 350.582311
0.240005 0.450509 3.245517 95.000000 28 350.582313
0.317872 0.594928 3.266377 85.000000 27 350.582316
0.460888 0.904776 3.291324 86.000000 25 350.582318
0.617130 1.228141 3.297627 12.000000 23 350.582321
0.747506 1.488225 3.118057 9.000000 21 350.582323
0.654559 1.303174 2.214473 21.000000 19 350.582326
0.665653 1.325256 1.851591 24.000000 17 350.582329
0.100457 0.168921 3.229000 96.000000 30 350.582336
0.173564 0.308249 3.251116 95.000000 29 350.582339
0.387622 0.747888 3.278467 88.000000 26 350.582341
0.536891 1.063837 3.294737 88.000000 24 350.582344
0.706960 1.401405 3.307865 12.000000 22 350.582347
0.648949 1.286962 2.427736 22.000000 20 350.582349
0.660719 1.310295 2.017208 27.000000 18 350.582352
0.699626 1.387447 1.762795 25.000000 16 350.582354
0.779450 1.556544 1.790470 24.000000 15 350.582312
1.155269 2.307031 2.162065 17.000000 13 350.582314
1.162189 2.319837 1.785755 18.000000 11 350.582317
1.171414 2.338245 1.454952 19.000000 9 350.582320
1.176074 2.346524 1.148787 24.000000 7 350.582322
1.187106 2.367505 0.867918 21.000000 5 350.582325
0.669576 1.334790 0.374989 78.000000 3 350.582327
0.696833 1.388521 0.232149 37.000000 1 350.582330
1.090545 2.168324 2.242122 14.000000 14 350.582338
1.156237 2.298932 1.957291 23.000000 12 350.582340
1.167356 2.320031 1.611193 18.000000 10 350.582343
1.183670 2.352449 1.304846 21.000000 8 350.582345
1.189333 2.362676 1.009246 22.000000 6 350.582348
1.191567 2.366087 0.729666 25.000000 4 350.582350
0.686226 1.362045 0.304664 30.000000 2 350.582353
0.683239 1.356115 0.154931 86.000000 0 350.582355
0.024977 0.033391 3.224151 95.000000 31 350.582366
0.241655 0.449626 3.245517 94.000000 28 350.582369
0.320050 0.593759 3.266377 85.000000 27 350.582371
0.464201 0.903081 3.291324 87.000000 25 350.582374
0.621628 1.225871 3.297627 11.000000 23 350.582376
0.751872 1.483339 3.113669 11.000000 21 350.582379
0.659331 1.300766 2.214473 21.000000 19 350.582381
0.670506 1.322807 1.851591 24.000000 17 350.582384
0.101075 0.168552 3.229000 96.000000 30 350.582392
0.174692 0.307611 3.251116 96.000000 29 350.582394
0.390361 0.746462 3.278467 90.000000 26 350.582397
0.540786 1.061862 3.294737 88.000000 24 350.582399
0.711847 1.398929 3.307865 12.000000 22 350.582402
0.653438 1.284688 2.427736 22.000000 20 350.582405
0.665288 1.307981 2.017208 27.000000 18 350.582407
0.704465 1.384996 1.762795 25.000000 16 350.582410
0.786759 1.556859 1.793975 24.000000 15 350.582367
1.163717 2.302782 2.162065 17.000000 13 350.582370
1.172570 2.319293 1.788496 18.000000 11 350.582373
1.179976 2.333936 1.454952 19.000000 9 350.582375
1.184666 2.342198 1.148787 24.000000 7 350.582378
1.195775 2.363138 0.867918 21.000000 5 350.582380
0.674232 1.332445 0.374989 78.000000 3 350.582383
0.701675 1.386080 0.232149 37.000000 1 350.582385
1.098107 2.164504 2.242122 14.000000 14 350.582393
1.164254 2.294882 1.957291 23.000000 12 350.582396
1.175447 2.315942 1.611193 18.000000 10 350.582398
1.191875 2.348303 1.304846 21.000000 8 350.582401
1.195435 2.354300 1.007603 23.000000 6 350.582403
1.199819 2.361913 0.729666 25.000000 4 350.582406
0.690977 1.359641 0.304664 30.000000 2 350.582408
0.688204 1.353602 0.154931 86.000000 0 350.582411
0.025094 0.033303 3.224151 95.000000 31 350.582422
0.243223 0.448780 3.245517 94.000000 28 350.582424
0.322121 0.592639 3.266377 85.000000 27 350.582427
0.467351 0.901455 3.291324 87.000000 25 350.582429
0.625903 1.223693 3.297627 11.000000 23 350.582432
0.755955 1.478572 3.109280 14.000000 21 350.582434
0.663868 1.298457 2.214473 21.000000 19 350.582437
0.675120 1.320458 1.851591 24.000000 17 350.582440
0.101663 0.168198 3.229000 96.000000 30 350.582447
0.175765 0.307000 3.251116 96.000000 29 350.582450
0.392964 0.745095 3.278467 88.000000 26 350.582452
0.545278 1.061503 3.299429 88.000000 24 350.582455
0.715732 1.394498 3.303365 12.000000 22 350.582458
0.657918 1.282400 2.427736 22.000000 20 350.582460
0.669850 1.305651 2.017208 27.000000 18 350.582463
0.709295 1.382529 1.762795 25.000000 16 350.582465
0.792188 1.554103 1.793975 24.000000 15 350.582423
1.171749 2.298705 2.162065 17.000000 13 350.582425
1.180659 2.315186 1.788496 17.000000 11 350.582428
1.188115 2.329803 1.454952 19.000000 9 350.582431
1.192835 2.338048 1.148787 24.000000 7 350.582433
1.204017 2.358950 0.867918 21.000000 5 350.582436
0.678879 1.330083 0.374989 78.000000 3 350.582438
0.706509 1.383622 0.232149 37.000000 1 350.582441
1.103955 2.157334 2.238797 14.000000 14 350.582449
1.172258 2.290804 1.957291 23.000000 12 350.582451
1.183524 2.311825 1.611193 18.000000 10 350.582454
1.200065 2.344129 1.304846 22.000000 8 350.582456
1.203646 2.350113 1.007603 23.000000 6 350.582459
1.208057 2.357710 0.729666 26.000000 4 350.582461
0.695718 1.357221 0.304664 30.000000 2 350.582464
0.692925 1.351191 0.154931 87.000000 0 350.582467
0.025210 0.033216 3.224151 95.000000 31 350.582477
0.244788 0.447928 3.245517 94.000000 28 350.582480
0.324188 0.591511 3.266377 86.000000 27 350.582482
0.470495 0.899818 3.291324 87.000000 25 350.582485
0.630171 1.221501 3.297627 12.000000 23 350.582487
0.761112 1.475924 3.109280 15.000000 21 350.582490
0.668396 1.296132 2.214473 21.000000 19 350.582493
0.679725 1.318094 1.851591 24.000000 17 350.582495
0.102250 0.167842 3.229000 96.000000 30 350.582503
0.177103 0.306846 3.256087 96.000000 29 350.582505
0.395563 0.743718 3.278467 88.000000 26 350.582508
0.548980 1.059593 3.299429 88.000000 24 350.582511
0.720595 1.391991 3.303365 12.000000 22 350.582513
0.662391 1.280095 2.427736 22.000000 20 350.582516
0.674403 1.303305 2.017208 26.000000 18 350.582518
0.715674 1.383055 1.766470 25.000000 16 350.582521
0.799239 1.554500 1.797479 24.000000 15 350.582478
1.179765 2.294601 2.162065 17.000000 13 350.582481
1.188733 2.311051 1.788496 17.000000 11 350.582484
1.198267 2.329581 1.457270 19.000000 9 350.582486
1.203110 2.337992 1.150661 23.000000 7 350.582489
1.212244 2.354732 0.867918 21.000000 5 350.582491
0.683517 1.327706 0.374989 77.000000 3 350.582494
0.709055 1.376720 0.231703 37.000000 1 350.582496
1.111478 2.153467 2.238797 15.000000 14 350.582504
1.180247 2.286698 1.957291 23.000000 12 350.582507
1.191586 2.307680 1.611193 18.000000 10 350.582509
1.208240 2.339926 1.304846 22.000000 8 350.582512
1.211842 2.345897 1.007603 23.000000 6 350.582514
1.216279 2.353479 0.729666 25.000000 4 350.582517
0.702726 1.359184 0.305354 32.000000 2 350.582519
0.699933 1.353202 0.155132 86.000000 0 350.582522
0.025325 0.033128 3.224151 95.000000 31 350.582533
0.246350 0.447071 3.245517 95.000000 28 350.582535
0.326251 0.590375 3.266377 86.000000 27 350.582538
0.473633 0.898170 3.291324 87.000000 25 350.582540
0.634431 1.219294 3.297627 12.000000 23 350.582543
0.766259 1.473259 3.109280 15.000000 21 350.582545
0.672916 1.293791 2.214473 21.000000 19 350.582548
0.684322 1.315713 1.851591 25.000000 17 350.582551
0.102835 0.167484 3.229000 96.000000 30 350.582558
0.178173 0.306226 3.256087 96.000000 29 350.582561
0.398156 0.742333 3.278467 90.000000 26 350.582563
0.552676 1.057671 3.299429 86.000000 24 350.582566
0.724442 1.387537 3.298864 11.000000 22 350.582569
0.666855 1.277775 2.427736 22.000000 20 350.582571
0.677554 1.298271 2.013219 26.000000 18 350.582574
0.720498 1.380549 1.766470 25.000000 16 350.582576
0.804660 1.551701 1.797479 24.000000 15 350.582534
1.187768 2.290469 2.162065 17.000000 13 350.582537
1.196793 2.306887 1.788496 17.000000 11 350.582539
1.206392 2.325384 1.457270 19.000000 9 350.582542
1.211264 2.333779 1.150661 23.000000 7 350.582544
1.222667 2.354744 0.869328 20.000000 5 350.582547
0.688148 1.325312 0.374989 77.000000 3 350.582549
0.713856 1.374237 0.231703 37.000000 1 350.582552
1.117264 2.146261 2.235472 14.000000 14 350.582560
1.190088 2.286150 1.960234 23.000000 12 350.582562
1.199635 2.303506 1.611193 18.000000 10 350.582565
1.216401 2.335693 1.304846 22.000000 8 350.582567
1.220023 2.341652 1.007603 23.000000 6 350.582570
1.224487 2.349219 0.729666 26.000000 4 350.582572
0.707466 1.356722 0.305354 32.000000 2 350.582575
0.704652 1.350750 0.155132 86.000000 0 350.582578
0.025441 0.033039 3.224151 95.000000 31 350.582588
0.247909 0.446208 3.245517 95.000000 28 350.582591
0.328805 0.590122 3.271272 86.000000 27 350.582593
0.476765 0.896512 3.291324 87.000000 25 350.582596
0.638683 1.217072 3.297627 11.000000 23 350.582598
0.771397 1.470575 3.109280 14.000000 21 350.582601
0.677428 1.291434 2.214473 21.000000 19 350.582604
0.688910 1.313316 1.851591 24.000000 17 350.582606
0.103419 0.167124 3.229000 96.000000 30 350.582614
0.179241 0.305602 3.256087 96.000000 29 350.582616
0.400745 0.740939 3.278467 90.000000 26 350.582619
0.556364 1.055735 3.299429 86.000000 24 350.582622
0.728266 1.383073 3.294363 10.000000 22 350.582624
0.671311 1.275440 2.427736 22.000000 20 350.582627
0.682082 1.295898 2.013219 26.000000 18 350.582629
0.725313 1.378025 1.766470 25.000000 16 350.582632
0.811725 1.552043 1.800984 24.000000 15 350.582589
1.195756 2.286309 2.162065 16.000000 13 350.582592
1.202900 2.298991 1.785755 17.000000 11 350.582595
1.214501 2.321159 1.457270 19.000000 9 350.582597
1.219403 2.329536 1.150661 23.000000 7 350.582600
1.230879 2.350462 0.869328 20.000000 5 350.582602
0.692770 1.322901 0.374989 77.000000 3 350.582605
0.718648 1.371736 0.231703 37.000000 1 350.582607
1.124749 2.142349 2.235472 14.000000 14 350.582615
1.198061 2.281981 1.960234 23.000000 12 350.582618
1.207668 2.299304 1.611193 18.000000 10 350.582620
1.224546 2.331433 1.304846 22.000000 8 350.582623
1.230386 2.341560 1.009246 23.000000 6 350.582625
1.232680 2.344931 0.729666 26.000000 4 350.582628
0.714503 1.358627 0.306043 32.000000 2 350.582631
0.709363 1.348282 0.155132 86.000000 0 350.582633
0.025556 0.032950 3.224151 95.000000 31 350.582644
0.249465 0.445340 3.245517 95.000000 28 350.582646
0.330863 0.588971 3.271272 85.000000 27 350.582649
0.480598 0.896158 3.296096 87.000000 25 350.582651
0.642927 1.214835 3.297627 11.000000 23 350.582654
0.779886 1.474226 3.122446 13.000000 21 350.582657
0.680616 1.286574 2.210340 22.000000 19 350.582659
0.693490 1.310903 1.851591 24.000000 17 350.582662
0.104002 0.166762 3.229000 96.000000 30 350.582669
0.180307 0.304975 3.256087 96.000000 29 350.582672
0.403329 0.739535 3.278467 90.000000 26 350.582675
0.560046 1.053786 3.299429 86.000000 24 350.582677
0.732068 1.378599 3.289862 10.000000 22 350.582680
0.675759 1.273089 2.427736 22.000000 20 350.582682
0.686601 1.293509 2.013219 26.000000 18 350.582685
0.731708 1.378479 1.770145 25.000000 16 350.582687
0.817137 1.549200 1.800984 24.000000 15 350.582645
1.203729 2.282121 2.162065 16.000000 13 350.582648
1.210917 2.294778 1.785755 18.000000 11 350.582650
1.222596 2.316905 1.457270 18.000000 9 350.582653
1.229691 2.329365 1.152534 23.000000 7 350.582655
1.239076 2.346151 0.869328 21.000000 5 350.582658
0.699677 1.324819 0.375921 77.000000 3 350.582660
0.723432 1.369219 0.231703 37.000000 1 350.582663
1.132221 2.138409 2.235472 14.000000 14 350.582671
1.206020 2.277786 1.960234 23.000000 12 350.582673
1.217705 2.298885 1.613726 18.000000 10 350.582676
1.232677 2.327145 1.304846 22.000000 8 350.582678
1.238552 2.337251 1.009246 23.000000 6 350.582681
1.240858 2.340614 0.729666 26.000000 4 350.582683
0.719241 1.356125 0.306043 32.000000 2 350.582686
0.714065 1.345798 0.155132 86.000000 0 350.582689
0.025671 0.032860 3.224151 95.000000 31 350.582699
0.251018 0.444466 3.245517 95.000000 28 350.582702
0.332917 0.587812 3.271272 85.000000 27 350.582704
0.483723 0.894475 3.296096 87.000000 25 350.582707
0.647164 1.212583 3.297627 11.000000 23 350.582709
0.792921 1.486291 3.153167 12.000000 21 350.582712
0.685103 1.284190 2.210340 22.000000 19 350.582714
0.698062 1.308475 1.851591 24.000000 17 350.582717
0.104583 0.166398 3.229000 96.000000 30 350.582725
0.181370 0.304343 3.256087 96.000000 29 350.582727
0.406514 0.739225 3.283306 90.000000 26 350.582730
0.564536 1.053346 3.304122 88.000000 24 350.582732
0.735848 1.374115 3.285361 10.000000 22 350.582735
0.680199 1.270722 2.427736 22.000000 20 350.582737
0.691112 1.291104 2.013219 27.000000 18 350.582740
0.736515 1.375917 1.770145 24.000000 16 350.582743
0.822540 1.546338 1.800984 24.000000 15 350.582700
1.211688 2.277905 2.162065 17.000000 13 350.582703
1.218920 2.290537 1.785755 18.000000 11 350.582705
1.232758 2.316534 1.459588 19.000000 9 350.582708
1.237815 2.325059 1.152534 22.000000 7 350.582711
1.247258 2.341811 0.869328 21.000000 5 350.582713
0.704298 1.322369 0.375921 75.000000 3 350.582716
0.728207 1.366686 0.231703 36.000000 1 350.582718
1.139678 2.134444 2.235472 15.000000 14 350.582726
1.213963 2.273562 1.960234 23.000000 12 350.582729
1.225722 2.294620 1.613726 18.000000 10 350.582731
1.240793 2.322828 1.304846 22.000000 8 350.582734
1.246703 2.332913 1.009246 22.000000 6 350.582736
1.249020 2.336268 0.729666 25.000000 4 350.582739
0.723970 1.353606 0.306043 32.000000 2 350.582741
0.718758 1.343297 0.155132 85.000000 0 350.582744
0.025786 0.032771 3.224151 95.000000 31 350.582755
0.252568 0.443587 3.245517 95.000000 28 350.582757
0.334967 0.586647 3.271272 85.000000 27 350.582760
0.486842 0.892781 3.296096 87.000000 25 350.582762
0.652319 1.212037 3.302229 12.000000 23 350.582765
0.813996 1.513052 3.214608 12.000000 21 350.582767
0.689582 1.281791 2.210340 21.000000 19 350.582770
0.702625 1.306030 1.851591 24.000000 17 350.582772
0.105163 0.166032 3.229000 96.000000 30 350.582780
0.182156 0.303251 3.251116 96.000000 29 350.582783
0.409092 0.737802 3.283306 88.000000 26 350.582785
0.568210 1.051369 3.304122 88.000000 24 350.582788
0.739605 1.369622 3.280860 10.000000 22 350.582790
0.684630 1.268340 2.427736 22.000000 20 350.582793
0.695615 1.288684 2.013219 27.000000 18 350.582796
0.742924 1.376321 1.773820 24.000000 16 350.582798
0.827933 1.543458 1.800984 25.000000 15 350.582756
1.219632 2.273662 2.162065 17.000000 13 350.582758
1.228885 2.289953 1.788496 18.000000 11 350.582761
1.240836 2.312217 1.459588 18.000000 9 350.582763
1.245923 2.320724 1.152534 22.000000 7 350.582766
1.255425 2.337443 0.869328 21.000000 5 350.582769
0.708909 1.319902 0.375921 75.000000 3 350.582771
0.732974 1.364136 0.231703 34.000000 1 350.582774
1.147122 2.130453 2.235472 15.000000 14 350.582781
1.221892 2.269310 1.960234 24.000000 12 350.582784
1.233724 2.290328 1.613726 18.000000 10 350.582787
1.248893 2.318482 1.304846 22.000000 8 350.582789
1.254839 2.328547 1.009246 22.000000 6 350.582792
1.257168 2.331894 0.729666 25.000000 4 350.582794
0.731042 1.355429 0.306733 33.000000 2 350.582797
0.725815 1.345177 0.155334 85.000000 0 350.582799
0.025870 0.032649 3.219151 89.000000 31 350.582810
0.254115 0.442703 3.245517 95.000000 28 350.582813
0.337013 0.585474 3.271272 85.000000 27 350.582815
0.489956 0.891076 3.296096 87.000000 25 350.582818
0.656545 1.209753 3.302229 12.000000 23 350.582820
0.838693 1.546000 3.289215 14.000000 21 350.582823
0.694052 1.279376 2.210340 21.000000 19 350.582825
0.707180 1.303570 1.851591 24.000000 17 350.582828
0.105742 0.165664 3.229000 96.000000 30 350.582836
0.183213 0.302614 3.251116 96.000000 29 350.582838
0.411665 0.736369 3.283306 88.000000 26 350.582841
0.571876 1.049379 3.304122 88.000000 24 350.582843
0.744381 1.367032 3.280860 10.000000 22 350.582846
0.689054 1.265942 2.427736 22.000000 20 350.582849
0.700109 1.286248 2.013219 27.000000 18 350.582851
0.747724 1.373719 1.773820 24.000000 16 350.582854
0.833315 1.540558 1.800984 25.000000 15 350.582811
1.227561 2.269391 2.162065 17.000000 13 350.582814
1.236871 2.285649 1.788496 18.000000 11 350.582816
1.248900 2.307872 1.459588 18.000000 9 350.582819
1.254017 2.316361 1.152534 22.000000 7 350.582822
1.263577 2.333047 0.869328 21.000000 5 350.582824
0.713512 1.317419 0.375921 75.000000 3 350.582827
0.737731 1.361569 0.231703 34.000000 1 350.582829
1.154552 2.126436 2.235472 15.000000 14 350.582837
1.229806 2.265032 1.960234 24.000000 12 350.582840
1.241711 2.286007 1.613726 18.000000 10 350.582842
1.256979 2.314109 1.304846 21.000000 8 350.582845
1.262960 2.324153 1.009246 23.000000 6 350.582847
1.265300 2.327491 0.729666 25.000000 4 350.582850
0.735769 1.352869 0.306733 33.000000 2 350.582852
0.730506 1.342635 0.155334 85.000000 0 350.582855
0.025983 0.032558 3.219151 89.000000 31 350.582866
0.255659 0.441813 3.245517 94.000000 28 350.582868
0.339054 0.584294 3.271272 85.000000 27 350.582871
0.493063 0.889361 3.296096 87.000000 25 350.582873
0.660764 1.207454 3.302229 12.000000 23 350.582876
0.865930 1.582998 3.372600 17.000000 21 350.582878
0.698513 1.276946 2.210340 21.000000 19 350.582881
0.711726 1.301093 1.851591 24.000000 17 350.582883
0.106320 0.165294 3.229000 96.000000 30 350.582891
0.184268 0.301972 3.251116 96.000000 29 350.582894
0.414233 0.734928 3.283306 88.000000 26 350.582896
0.575536 1.047377 3.304122 88.000000 24 350.582899
0.748101 1.362517 3.276360 9.000000 22 350.582901
0.693468 1.263530 2.427736 22.000000 20 350.582904
0.704595 1.283796 2.013219 27.000000 18 350.582907
0.752514 1.371101 1.773820 24.000000 16 350.582909
0.838688 1.537640 1.800984 24.000000 15 350.582867
1.235475 2.265092 2.162065 17.000000 13 350.582869
1.244842 2.281318 1.788496 18.000000 11 350.582872
1.256948 2.303498 1.459588 19.000000 9 350.582875
1.262094 2.311969 1.152534 22.000000 7 350.582877
1.271713 2.328622 0.869328 21.000000 5 350.582880
0.718107 1.314921 0.375921 77.000000 3 350.582882
0.742479 1.358985 0.231703 36.000000 1 350.582885
1.160174 2.119117 2.232147 15.000000 14 350.582893
1.237705 2.260725 1.960234 24.000000 12 350.582895
1.249683 2.281659 1.613726 18.000000 10 350.582898
1.265049 2.309707 1.304846 21.000000 8 350.582900
1.271065 2.319730 1.009246 23.000000 6 350.582903
1.273417 2.323061 0.729666 26.000000 4 350.582905
0.740486 1.350293 0.306733 34.000000 2 350.582908
0.735188 1.340077 0.155334 82.000000 0 350.582910
0.026097 0.032468 3.219151 95.000000 31 350.582921
0.257591 0.441589 3.250456 92.000000 28 350.582924
0.341092 0.583107 3.271272 85.000000 27 350.582926
0.496164 0.887634 3.296096 87.000000 25 350.582929
0.665919 1.206850 3.306832 11.000000 23 350.582931
0.874922 1.586259 3.385766 18.000000 21 350.582934
0.702967 1.274500 2.210340 21.000000 19 350.582936
0.716263 1.298601 1.851591 24.000000 17 350.582939
0.106896 0.164922 3.229000 96.000000 30 350.582947
0.185321 0.301327 3.251116 95.000000 29 350.582949
0.416796 0.733477 3.283306 88.000000 26 350.582952
0.579188 1.045361 3.304122 88.000000 24 350.582954
0.752852 1.359897 3.276360 8.000000 22 350.582957
0.696612 1.258819 2.423470 22.000000 20 350.582960
0.709072 1.281329 2.013219 27.000000 18 350.582962
0.757296 1.368466 1.773820 24.000000 16 350.582965
0.844050 1.534703 1.800984 24.000000 15 350.582922
1.243374 2.260766 2.162065 17.000000 13 350.582925
1.252798 2.276958 1.788496 18.000000 11 350.582927
1.264981 2.299096 1.459588 19.000000 9 350.582930
1.270157 2.307550 1.152534 21.000000 7 350.582933
1.279833 2.324169 0.869328 20.000000 5 350.582935
0.722692 1.312406 0.375921 75.000000 3 350.582938
0.747218 1.356385 0.231703 36.000000 1 350.582940
1.167564 2.115054 2.232147 15.000000 14 350.582948
1.245589 2.256391 1.960234 24.000000 12 350.582951
1.257640 2.277283 1.613726 18.000000 10 350.582953
1.273103 2.305277 1.304846 22.000000 8 350.582956
1.279154 2.315279 1.009246 23.000000 6 350.582958
1.281518 2.318601 0.729666 25.000000 4 350.582961
0.747592 1.352034 0.307423 34.000000 2 350.582963
0.739862 1.337502 0.155334 82.000000 0 350.582966
0.026210 0.032376 3.219151 95.000000 31 350.582977
0.259131 0.440687 3.250456 92.000000 28 350.582979
0.343125 0.581913 3.271272 85.000000 27 350.582982
0.499260 0.885897 3.296096 87.000000 25 350.582984
0.670128 1.204519 3.306832 11.000000 23 350.582987
0.879290 1.581102 3.381377 18.000000 21 350.582989
0.707411 1.272038 2.210340 21.000000 19 350.582992
0.720792 1.296093 1.851591 24.000000 17 350.582995
0.107471 0.164548 3.229000 96.000000 30 350.583002
0.186372 0.300678 3.251116 95.000000 29 350.583005
0.419354 0.732018 3.283306 90.000000 26 350.583007
0.583675 1.044840 3.308815 88.000000 24 350.583010
0.758893 1.359030 3.280860 8.000000 22 350.583013
0.701221 1.256258 2.423470 23.000000 20 350.583015
0.715232 1.281353 2.017208 27.000000 18 350.583018
0.762306 1.365681 1.773820 24.000000 16 350.583020
0.849402 1.531747 1.800984 25.000000 15 350.582978
1.251258 2.256412 2.162065 16.000000 13 350.582980
1.260738 2.272572 1.788496 17.000000 11 350.582983
1.272999 2.294667 1.459588 19.000000 9 350.582986
1.278204 2.303102 1.152534 22.000000 7 350.582988
1.287939 2.319687 0.869328 20.000000 5 350.582991
0.727497 1.309749 0.375921 75.000000 3 350.582993
0.752185 1.353637 0.231703 36.000000 1 350.582996
1.173491 2.107498 2.228823 15.000000 14 350.583004
1.253850 2.251810 1.960234 23.000000 12 350.583006
1.265979 2.272658 1.613726 18.000000 10 350.583009
1.281544 2.300595 1.304846 22.000000 8 350.583011
1.287632 2.310575 1.009246 22.000000 6 350.583014
1.290008 2.313889 0.729666 26.000000 4 350.583016
0.752542 1.349284 0.307423 34.000000 2 350.583019
0.744526 1.334912 0.155334 85.000000 0 350.583021
0.026329 0.032280 3.219151 95.000000 31 350.583032
0.260745 0.439735 3.250456 94.000000 28 350.583035
0.345256 0.580651 3.271272 80.000000 27 350.583037
0.502504 0.884061 3.296096 87.000000 25 350.583040
0.674538 1.202054 3.306832 11.000000 23 350.583042
0.885079 1.577868 3.381377 17.000000 21 350.583045
0.712069 1.269437 2.210340 21.000000 19 350.583047
0.725537 1.293442 1.851591 24.000000 17 350.583050
0.108074 0.164153 3.229000 96.000000 30 350.583058
0.187757 0.300446 3.256087 96.000000 29 350.583060
0.422034 0.730476 3.283306 87.000000 26 350.583063
0.587501 1.042693 3.308815 88.000000 24 350.583065
0.764701 1.358270 3.285361 8.000000 22 350.583068
0.704323 1.251529 2.419204 24.000000 20 350.583071
0.719701 1.278849 2.017208 27.000000 18 350.583073
0.767069 1.363012 1.773820 24.000000 16 350.583076
0.856752 1.531736 1.804489 25.000000 15 350.583033
1.259520 2.251810 2.162065 16.000000 13 350.583036
1.269059 2.267936 1.788496 17.000000 11 350.583039
1.281401 2.289986 1.459588 18.000000 9 350.583041
1.286637 2.298402 1.152534 22.000000 7 350.583044
1.296432 2.314951 0.869328 20.000000 5 350.583046
0.732065 1.307201 0.375921 75.000000 3 350.583049
0.756905 1.351004 0.231703 36.000000 1 350.583051
1.180841 2.103389 2.228823 15.000000 14 350.583059
1.261703 2.247420 1.960234 23.000000 12 350.583062
1.273904 2.268225 1.613726 18.000000 10 350.583064
1.291789 2.300065 1.306944 21.000000 8 350.583067
1.295689 2.306067 1.009246 22.000000 6 350.583069
1.298077 2.309371 0.729666 26.000000 4 350.583072
0.759675 1.350966 0.308113 35.000000 2 350.583074
0.749414 1.332174 0.155334 82.000000 0 350.583077
0.026441 0.032188 3.219151 95.000000 31 350.583088
0.262278 0.438822 3.250456 95.000000 28 350.583090
0.347805 0.580315 3.276168 80.000000 27 350.583093
0.506329 0.883597 3.300868 87.000000 25 350.583095
0.678730 1.199692 3.306832 11.000000 23 350.583098
0.890581 1.574769 3.381377 17.000000 21 350.583100
0.716495 1.266943 2.210340 21.000000 19 350.583103
0.730048 1.290902 1.851591 25.000000 17 350.583106
0.108807 0.164015 3.233992 96.000000 30 350.583113
0.188804 0.299788 3.256087 96.000000 29 350.583116
0.424581 0.728998 3.283306 87.000000 26 350.583118
0.591137 1.040636 3.308815 86.000000 24 350.583121
0.771587 1.359380 3.294363 8.000000 22 350.583124
0.708687 1.249063 2.419204 23.000000 20 350.583126
0.724160 1.276329 2.017208 26.000000 18 350.583129
0.771822 1.360326 1.773820 24.000000 16 350.583131
0.862093 1.528736 1.804489 25.000000 15 350.583089
1.269285 2.250791 2.165203 17.000000 13 350.583091
1.276968 2.263492 1.788496 17.000000 11 350.583094
1.289387 2.285499 1.459588 18.000000 9 350.583097
1.296930 2.297934 1.154407 21.000000 7 350.583099
1.304505 2.310411 0.869328 20.000000 5 350.583102
0.736623 1.304638 0.375921 75.000000 3 350.583104
0.764066 1.352690 0.232149 37.000000 1 350.583107
1.186336 2.096004 2.225498 15.000000 14 350.583115
1.269540 2.243002 1.960234 23.000000 12 350.583117
1.281814 2.263764 1.613726 18.000000 10 350.583120
1.299810 2.295542 1.306944 21.000000 8 350.583122
1.303731 2.301530 1.009246 22.000000 6 350.583125
1.306130 2.304826 0.729666 26.000000 4 350.583127
0.764386 1.348306 0.308113 35.000000 2 350.583130
0.754059 1.329550 0.155334 82.000000 0 350.583133
0.026553 0.032095 3.219151 95.000000 31 350.583143
0.263407 0.437238 3.245517 95.000000 28 350.583146
0.349828 0.579098 3.276168 85.000000 27 350.583148
0.509410 0.881824 3.300868 84.000000 25 350.583151
0.682913 1.197316 3.306832 11.000000 23 350.583153
0.896073 1.571651 3.381377 17.000000 21 350.583156
0.720914 1.264435 2.210340 21.000000 19 350.583159
0.734549 1.288345 1.851591 24.000000 17 350.583161
0.109379 0.163634 3.233992 96.000000 30 350.583169
0.189850 0.299127 3.256087 96.000000 29 350.583171
0.427123 0.727512 3.283306 88.000000 26 350.583174
0.594766 1.038566 3.308815 88.000000 24 350.583177
0.778491 1.360459 3.303365 8.000000 22 350.583179
0.714338 1.248846 2.423470 23.000000 20 350.583182
0.728611 1.273793 2.017208 26.000000 18 350.583184
0.776566 1.357623 1.773820 23.000000 16 350.583187
0.867424 1.525718 1.804489 24.000000 15 350.583144
1.277134 2.246347 2.165203 17.000000 13 350.583147
1.284861 2.259021 1.788496 17.000000 11 350.583150
1.297357 2.280984 1.459588 19.000000 9 350.583152
1.304944 2.293392 1.154407 22.000000 7 350.583155
1.312562 2.305844 0.869328 21.000000 5 350.583157
0.741173 1.302058 0.375921 73.000000 3 350.583160
0.768783 1.350014 0.232149 37.000000 1 350.583162
1.193645 2.091851 2.225498 15.000000 14 350.583170
1.277362 2.238557 1.960234 23.000000 12 350.583173
1.289708 2.259276 1.613726 18.000000 10 350.583175
1.307815 2.290991 1.306944 21.000000 8 350.583178
1.311757 2.296965 1.009246 23.000000 6 350.583180
1.314167 2.300253 0.729666 26.000000 4 350.583183
0.771545 1.349929 0.308803 35.000000 2 350.583185
0.758696 1.326910 0.155334 79.000000 0 350.583188
0.026665 0.032003 3.219151 95.000000 31 350.583199
0.264931 0.436316 3.245517 95.000000 28 350.583201
0.351847 0.577873 3.276168 85.000000 27 350.583204
0.512485 0.880041 3.300868 86.000000 25 350.583206
0.688062 1.196618 3.311435 11.000000 23 350.583209
0.901553 1.568513 3.381377 17.000000 21 350.583211
0.725323 1.261910 2.210340 21.000000 19 350.583214
0.740640 1.288553 1.855428 24.000000 17 350.583217
0.109950 0.163251 3.233992 96.000000 30 350.583224
0.190893 0.298463 3.256087 96.000000 29 350.583227
0.429660 0.726016 3.283306 87.000000 26 350.583229
0.598388 1.036484 3.308815 86.000000 24 350.583232
0.784323 1.359620 3.307865 9.000000 22 350.583235
0.718693 1.246345 2.423470 22.000000 20 350.583237
0.733053 1.271242 2.017208 26.000000 18 350.583240
0.781300 1.354904 1.773820 23.000000 16 350.583242
0.874518 1.525775 1.807993 25.000000 15 350.583200
1.284967 2.241875 2.165203 17.000000 13 350.583203
1.294819 2.258149 1.791238 17.000000 11 350.583205
1.305311 2.276442 1.459588 19.000000 9 350.583208
1.312941 2.288823 1.154407 22.000000 7 350.583210
1.320603 2.301248 0.869328 21.000000 5 350.583213
0.748158 1.303724 0.376854 73.000000 3 350.583215
0.773491 1.347322 0.232149 36.000000 1 350.583218
1.199078 2.084434 2.222173 15.000000 14 350.583226
1.285169 2.234084 1.960234 23.000000 12 350.583228
1.297586 2.254761 1.613726 18.000000 10 350.583231
1.315804 2.286411 1.306944 22.000000 8 350.583233
1.319767 2.292372 1.009246 23.000000 6 350.583236
1.322189 2.295652 0.729666 25.000000 4 350.583238
0.776252 1.347228 0.308803 35.000000 2 350.583241
0.763323 1.324253 0.155334 79.000000 0 350.583244
0.026777 0.031909 3.219151 95.000000 31 350.583254
0.266453 0.435389 3.245517 94.000000 28 350.583257
0.353862 0.576641 3.276168 85.000000 27 350.583259
0.515554 0.878247 3.300868 87.000000 25 350.583262
0.692235 1.194209 3.311435 10.000000 23 350.583264
0.907023 1.565357 3.381377 17.000000 21 350.583267
0.731134 1.261806 2.214473 21.000000 19 350.583270
0.745133 1.285960 1.855428 24.000000 17 350.583272
0.110519 0.162866 3.233992 96.000000 30 350.583280
0.191933 0.297795 3.256087 96.000000 29 350.583282
0.432192 0.724512 3.283306 87.000000 26 350.583285
0.602002 1.034389 3.308815 86.000000 24 350.583288
0.791254 1.360639 3.316867 10.000000 22 350.583290
0.723039 1.243828 2.423470 21.000000 20 350.583293
0.737486 1.268675 2.017208 27.000000 18 350.583295
0.786025 1.352169 1.773820 23.000000 16 350.583298
0.879839 1.522713 1.807993 25.000000 15 350.583255
1.294733 2.240746 2.168341 17.000000 13 350.583258
1.302693 2.253616 1.791238 17.000000 11 350.583261
1.313249 2.271871 1.459588 19.000000 9 350.583263
1.320923 2.284226 1.154407 22.000000 7 350.583266
1.328627 2.296624 0.869328 21.000000 5 350.583268
0.752705 1.301104 0.376854 73.000000 3 350.583271
0.778189 1.344614 0.232149 36.000000 1 350.583273
1.206347 2.080236 2.222173 16.000000 14 350.583281
1.292959 2.229585 1.960234 23.000000 12 350.583284
1.305449 2.250217 1.613726 19.000000 10 350.583286
1.323777 2.281804 1.306944 22.000000 8 350.583289
1.327761 2.287751 1.009246 23.000000 6 350.583291
1.330194 2.291023 0.729666 26.000000 4 350.583294
0.780950 1.344510 0.308803 36.000000 2 350.583297
0.765431 1.317261 0.155132 81.000000 0 350.583299
0.026888 0.031816 3.219151 95.000000 31 350.583310
0.267971 0.434456 3.245517 93.000000 28 350.583312
0.355873 0.575403 3.276168 86.000000 27 350.583315
0.518617 0.876442 3.300868 87.000000 25 350.583317
0.696400 1.191786 3.311435 10.000000 23 350.583320
0.912481 1.562181 3.381377 17.000000 21 350.583323
0.735534 1.259246 2.214473 22.000000 19 350.583325
0.749617 1.283351 1.855428 24.000000 17 350.583328
0.110922 0.162241 3.229000 96.000000 30 350.583335
0.192971 0.297123 3.256087 96.000000 29 350.583338
0.435367 0.724077 3.288145 88.000000 26 350.583341
0.605609 1.032281 3.308815 86.000000 24 350.583343
0.797100 1.359747 3.321368 11.000000 22 350.583346
0.727376 1.241297 2.423470 22.000000 20 350.583348
0.741910 1.266093 2.017208 27.000000 18 350.583351
0.792454 1.352342 1.777495 24.000000 16 350.583353
0.886943 1.522714 1.811498 25.000000 15 350.583311
1.302546 2.236213 2.168341 17.000000 13 350.583314
1.310552 2.249055 1.791238 19.000000 11 350.583316
1.321171 2.267273 1.459588 19.000000 9 350.583319
1.328888 2.279602 1.154407 22.000000 7 350.583321
1.339053 2.296116 0.870737 21.000000 5 350.583324
0.757242 1.298469 0.376854 73.000000 3 350.583326
0.785387 1.346191 0.232595 36.000000 1 350.583329
1.211716 2.072788 2.218848 16.000000 14 350.583337
1.302774 2.228547 1.963177 23.000000 12 350.583339
1.313296 2.245647 1.613726 19.000000 10 350.583342
1.334025 2.281088 1.309042 22.000000 8 350.583344
1.335738 2.283103 1.009246 23.000000 6 350.583347
1.340638 2.290560 0.730838 26.000000 4 350.583349
0.785639 1.341775 0.308803 36.000000 2 350.583352
0.770024 1.314581 0.155132 81.000000 0 350.583355
0.026999 0.031722 3.219151 95.000000 31 350.583365
0.269486 0.433518 3.245517 94.000000 28 350.583368
0.357879 0.574157 3.276168 85.000000 27 350.583370
0.522438 0.875909 3.305640 89.000000 25 350.583373
0.700555 1.189348 3.311435 11.000000 23 350.583375
0.917929 1.558986 3.381377 15.000000 21 350.583378
0.739925 1.256671 2.214473 22.000000 19 350.583380
0.754093 1.280726 1.855428 25.000000 17 350.583383
0.111488 0.161853 3.229000 96.000000 30 350.583391
0.194008 0.296448 3.256087 96.000000 29 350.583393
0.437891 0.722553 3.288145 88.000000 26 350.583396
0.610087 1.031646 3.313508 86.000000 24 350.583398
0.802949 1.358831 3.325869 11.000000 22 350.583401
0.733031 1.240996 2.427736 22.000000 20 350.583403
0.746325 1.263496 2.017208 26.000000 18 350.583406
0.797169 1.349567 1.777495 24.000000 16 350.583409
0.892253 1.519609 1.811498 25.000000 15 350.583366
1.310344 2.231653 2.168341 17.000000 13 350.583369
1.318395 2.244466 1.791238 18.000000 11 350.583371
1.329078 2.262648 1.459588 19.000000 9 350.583374
1.336837 2.274949 1.154407 22.000000 7 350.583377
1.347059 2.291428 0.870737 20.000000 5 350.583379
0.761770 1.295818 0.376854 73.000000 3 350.583382
0.790082 1.343441 0.232595 36.000000 1 350.583384
1.218944 2.068546 2.218848 16.000000 14 350.583392
1.310545 2.223986 1.963177 23.000000 12 350.583395
1.321127 2.241049 1.613726 19.000000 10 350.583397
1.341980 2.276417 1.309042 20.000000 8 350.583400
1.343700 2.278426 1.009246 24.000000 6 350.583402
1.348626 2.285866 0.730838 26.000000 4 350.583405
0.790318 1.339025 0.308803 36.000000 2 350.583407
0.774608 1.311885 0.155132 78.000000 0 350.583410
0.027109 0.031627 3.219151 95.000000 31 350.583421
0.270997 0.432575 3.245517 93.000000 28 350.583423
0.359881 0.572904 3.276168 85.000000 27 350.583426
0.525492 0.874080 3.305640 87.000000 25 350.583428
0.704703 1.186895 3.311435 11.000000 23 350.583431
0.923365 1.555773 3.381377 15.000000 21 350.583433
0.744307 1.254080 2.214473 22.000000 19 350.583436
0.758559 1.278086 1.855428 25.000000 17 350.583438
0.112052 0.161463 3.229000 96.000000 30 350.583446
0.195041 0.295769 3.256087 96.000000 29 350.583449
0.440411 0.721020 3.288145 88.000000 26 350.583451
0.613684 1.029510 3.313508 86.000000 24 350.583454
0.807688 1.356020 3.325869 12.000000 22 350.583456
0.737359 1.238430 2.427736 22.000000 20 350.583459
0.750731 1.260883 2.017208 27.000000 18 350.583462
0.803610 1.349689 1.781170 24.000000 16 350.583464
0.897552 1.516485 1.811498 25.000000 15 350.583422
1.318126 2.227065 2.168341 17.000000 13 350.583424
1.326221 2.239851 1.791238 18.000000 11 350.583427
1.336968 2.257994 1.459588 19.000000 9 350.583429
1.344770 2.270269 1.154407 22.000000 7 350.583432
1.357496 2.290839 0.872146 18.000000 5 350.583435
0.766288 1.293151 0.376854 73.000000 3 350.583437
0.794766 1.340675 0.232595 36.000000 1 350.583440
1.226157 2.064279 2.218848 16.000000 14 350.583447
1.318300 2.219398 1.963177 23.000000 12 350.583450
1.328941 2.236423 1.613726 19.000000 10 350.583453
1.352236 2.275620 1.311140 20.000000 8 350.583455
1.351645 2.273721 1.009246 24.000000 6 350.583458
1.356597 2.281145 0.730838 24.000000 4 350.583460
0.794987 1.336258 0.308803 36.000000 2 350.583463
0.781738 1.313467 0.155334 77.000000 0 350.583465
0.027251 0.031562 3.224151 95.000000 31 350.583476
0.272921 0.432283 3.250456 93.000000 28 350.583479
0.361879 0.571644 3.276168 85.000000 27 350.583481
0.528540 0.872240 3.305640 87.000000 25 350.583484
0.708841 1.184428 3.311435 11.000000 23 350.583486
0.928790 1.552540 3.381377 16.000000 21 350.583489
0.748680 1.251474 2.214473 21.000000 19 350.583491
0.763015 1.275431 1.855428 25.000000 17 350.583494
0.112448 0.160835 3.224008 96.000000 30 350.583502
0.196072 0.295086 3.256087 96.000000 29 350.583504
0.442925 0.719478 3.288145 88.000000 26 350.583507
0.617274 1.027362 3.313508 86.000000 24 350.583509
0.813537 1.355060 3.330370 12.000000 22 350.583512
0.741677 1.235848 2.427736 21.000000 20 350.583515
0.755127 1.258255 2.017208 27.000000 18 350.583517
0.808316 1.346876 1.781170 24.000000 16 350.583520
0.902840 1.513343 1.811498 25.000000 15 350.583477
1.327887 2.225794 2.171479 17.000000 13 350.583480
1.334032 2.235208 1.791238 18.000000 11 350.583482
1.344841 2.253314 1.459588 19.000000 9 350.583485
1.352687 2.265561 1.154407 23.000000 7 350.583488
1.365484 2.286087 0.872146 18.000000 5 350.583490
0.770797 1.290468 0.376854 71.000000 3 350.583493
0.799441 1.337893 0.232595 35.000000 1 350.583495
1.233356 2.059986 2.218848 16.000000 14 350.583503
1.326039 2.214783 1.963177 23.000000 12 350.583506
1.336740 2.231771 1.613726 19.000000 10 350.583508
1.360171 2.270886 1.311140 21.000000 8 350.583511
1.359573 2.268990 1.009246 23.000000 6 350.583513
1.367050 2.280565 0.732011 24.000000 4 350.583516
0.799647 1.333475 0.308803 36.000000 2 350.583518
0.786318 1.310730 0.155334 77.000000 0 350.583521
0.027361 0.031467 3.224151 95.000000 31 350.583532
0.274428 0.431327 3.250456 94.000000 28 350.583534
0.363872 0.570378 3.276168 86.000000 27 350.583537
0.531582 0.870390 3.305640 87.000000 25 350.583539
0.712972 1.181946 3.311435 11.000000 23 350.583542
0.935441 1.551340 3.385766 16.000000 21 350.583544
0.751591 1.246444 2.210340 21.000000 19 350.583547
0.767463 1.272760 1.855428 25.000000 17 350.583549
0.113008 0.160441 3.224008 96.000000 30 350.583557
0.197101 0.294400 3.256087 96.000000 29 350.583560
0.445434 0.717928 3.288145 88.000000 26 350.583562
0.620857 1.025201 3.313508 88.000000 24 350.583565
0.818262 1.352212 3.330370 13.000000 22 350.583567
0.747336 1.235483 2.432002 20.000000 20 350.583570
0.759515 1.255611 2.017208 26.000000 18 350.583573
0.814768 1.346947 1.784846 24.000000 16 350.583575
0.909955 1.513238 1.815002 25.000000 15 350.583533
1.335648 2.221145 2.171479 17.000000 13 350.583535
1.341826 2.230537 1.791238 18.000000 11 350.583538
1.352699 2.248606 1.459588 19.000000 9 350.583541
1.360587 2.260825 1.154407 22.000000 7 350.583543
1.373455 2.281307 0.872146 21.000000 5 350.583546
0.775297 1.287770 0.376854 71.000000 3 350.583548
0.804107 1.335094 0.232595 35.000000 1 350.583551
1.240539 2.055668 2.218848 17.000000 14 350.583559
1.333762 2.210141 1.963177 23.000000 12 350.583561
1.344522 2.227092 1.613726 19.000000 10 350.583564
1.368090 2.266124 1.311140 21.000000 8 350.583566
1.369927 2.268272 1.010888 23.000000 6 350.583569
1.375002 2.275779 0.732011 25.000000 4 350.583571
0.804296 1.330675 0.308803 36.000000 2 350.583574
0.790888 1.307977 0.155334 77.000000 0 350.583576
0.027471 0.031371 3.224151 95.000000 31 350.583587
0.275932 0.430367 3.250456 94.000000 28 350.583590
0.365861 0.569104 3.276168 86.000000 27 350.583592
0.534617 0.868529 3.305640 89.000000 25 350.583595
0.717093 1.179450 3.311435 11.000000 23 350.583597
0.942095 1.550113 3.390154 16.000000 21 350.583600
0.755938 1.243813 2.210340 22.000000 19 350.583602
0.771901 1.270073 1.855428 25.000000 17 350.583605
0.113568 0.160046 3.224008 96.000000 30 350.583613
0.198128 0.293710 3.256087 96.000000 29 350.583615
0.447937 0.716368 3.288145 87.000000 26 350.583618
0.624432 1.023028 3.313508 88.000000 24 350.583620
0.822977 1.349347 3.330370 12.000000 22 350.583623
0.753002 1.235094 2.436268 20.000000 20 350.583626
0.763893 1.252953 2.017208 26.000000 18 350.583628
0.819464 1.344095 1.784846 24.000000 16 350.583631
0.915232 1.510052 1.815002 25.000000 15 350.583588
1.343393 2.216469 2.171479 18.000000 13 350.583591
1.349604 2.225840 1.791238 18.000000 11 350.583593
1.360540 2.243870 1.459588 19.000000 9 350.583596
1.368471 2.256062 1.154407 22.000000 7 350.583599
1.381410 2.276499 0.872146 20.000000 5 350.583601
0.779788 1.285056 0.376854 71.000000 3 350.583604
0.808762 1.332279 0.232595 35.000000 1 350.583606
1.245766 2.048135 2.215523 17.000000 14 350.583614
1.343569 2.208925 1.966120 24.000000 12 350.583617
1.352288 2.222385 1.613726 20.000000 10 350.583619
1.375992 2.261335 1.311140 21.000000 8 350.583622
1.377836 2.263477 1.010888 23.000000 6 350.583624
1.382938 2.270965 0.732011 25.000000 4 350.583627
0.808936 1.327860 0.308803 36.000000 2 350.583629
0.795449 1.305208 0.155334 77.000000 0 350.583632
0.027580 0.031275 3.224151 95.000000 31 350.583643
0.277433 0.429401 3.250456 94.000000 28 350.583645
0.367845 0.567824 3.276168 85.000000 27 350.583648
0.537645 0.866657 3.305640 87.000000 25 350.583650
0.721206 1.176940 3.311435 11.000000 23 350.583653
0.948751 1.548858 3.394543 15.000000 21 350.583655
0.760275 1.241166 2.210340 22.000000 19 350.583658
0.776329 1.267371 1.855428 25.000000 17 350.583661
0.114126 0.159648 3.224008 96.000000 30 350.583668
0.199152 0.293016 3.256087 96.000000 29 350.583671
0.450435 0.714801 3.288145 87.000000 26 350.583673
0.627999 1.020842 3.313508 86.000000 24 350.583676
0.827683 1.346466 3.330370 12.000000 22 350.583679
0.757309 1.232458 2.436268 19.000000 20 350.583681
0.768262 1.250278 2.017208 27.000000 18 350.583684
0.824151 1.341226 1.784846 23.000000 16 350.583686
0.922356 1.509892 1.818507 25.000000 15 350.583644
1.351122 2.211766 2.171479 17.000000 13 350.583646
1.359546 2.224683 1.793979 19.000000 11 350.583649
1.368364 2.239108 1.459588 20.000000 9 350.583652
1.376337 2.251271 1.154407 22.000000 7 350.583654
1.389348 2.271663 0.872146 20.000000 5 350.583657
0.784269 1.282326 0.376854 71.000000 3 350.583659
0.813408 1.329448 0.232595 33.000000 1 350.583662
1.252908 2.043774 2.215523 17.000000 14 350.583670
1.351272 2.204221 1.966120 24.000000 12 350.583672
1.360037 2.217651 1.613726 19.000000 10 350.583675
1.383877 2.256518 1.311140 21.000000 8 350.583677
1.385729 2.258653 1.010888 23.000000 6 350.583680
1.393399 2.270267 0.733183 25.000000 4 350.583682
0.816158 1.329248 0.309493 36.000000 2 350.583685
0.800001 1.302424 0.155334 75.000000 0 350.583687
0.027689 0.031179 3.224151 91.000000 31 350.583698
0.278930 0.428430 3.250456 94.000000 28 350.583701
0.369825 0.566536 3.276168 85.000000 27 350.583703
0.540667 0.864775 3.305640 89.000000 25 350.583706
0.726336 1.176078 3.316037 11.000000 23 350.583708
0.954152 1.545537 3.394543 14.000000 21 350.583711
0.764603 1.238505 2.210340 22.000000 19 350.583713
0.780749 1.264653 1.855428 25.000000 17 350.583716
0.114853 0.159483 3.229000 96.000000 30 350.583724
0.200173 0.292320 3.256087 95.000000 29 350.583726
0.452927 0.713224 3.288145 87.000000 26 350.583729
0.632468 1.020110 3.318200 88.000000 24 350.583731
