# .PCD v.7 - Point Cloud Data file format
VERSION .7
FIELDS x y z intensity ring timestamp
SIZE 4 4 4 4 2 8
TYPE F F F F U D
COUNT 1 1 1 1 1 1
WIDTH 925
HEIGHT 1
VIEWPOINT 0 0 0 1 0 0 0
POINTS 925
DATA ascii
-2.904459 0.042072 2.198630 23.000000 12 350.350400
-2.851222 0.041799 1.760607 21.000000 10 350.350402
-2.814695 0.041266 1.388768 27.000000 8 350.350405
-2.758173 0.040919 1.048670 30.000000 6 350.350407
-2.707211 0.040635 0.743734 33.000000 4 350.350410
-2.678698 0.040675 0.465391 32.000000 2 350.350412
-2.652272 0.040737 0.200678 23.000000 0 350.350415
-0.040943 0.007905 3.224151 96.000000 31 350.350426
-0.492930 0.020527 3.136853 97.000000 28 350.350428
-0.643387 0.027574 3.119520 87.000000 27 350.350431
-0.950921 0.022138 3.086140 89.000000 25 350.350433
-1.323470 0.023543 3.177961 50.000000 23 350.350436
-1.662753 0.029298 3.113669 38.000000 21 350.350438
-3.092793 0.054512 4.615716 47.000000 19 350.350441
-3.216933 0.056703 3.927378 12.000000 17 350.350444
-0.193745 0.017211 3.194059 97.000000 30 350.350451
-0.345550 0.022465 3.181516 97.000000 29 350.350454
-0.795465 0.024116 3.099416 95.000000 26 350.350456
-1.162080 0.022696 3.214959 55.000000 24 350.350459
-1.493132 0.028652 3.150336 48.000000 22 350.350462
-1.837408 0.034946 3.076158 39.000000 20 350.350464
-3.257153 0.061962 4.386971 9.000000 18 350.350467
-3.089043 0.058766 3.427644 10.000000 16 350.350469
-2.949358 0.048384 2.978511 10.000000 15 350.350427
-2.933980 0.048134 2.447603 17.000000 13 350.350429
-2.899518 0.048075 1.985882 17.000000 11 350.350432
-2.845243 0.047178 1.575489 22.000000 9 350.350435
-2.786619 0.046692 1.214344 27.000000 7 350.350437
-2.739208 0.046376 0.894693 28.000000 5 350.350440
-2.701344 0.045735 0.604413 32.000000 3 350.350442
-2.673685 0.045733 0.332546 29.000000 1 350.350445
-2.908383 0.052282 2.671027 28.000000 14 350.350453
-2.940666 0.052865 2.225118 23.000000 12 350.350455
-2.872611 0.052143 1.773269 20.000000 10 350.350458
-2.841760 0.051585 1.401357 26.000000 8 350.350460
-2.781622 0.050979 1.056883 30.000000 6 350.350463
-2.726492 0.050445 0.748423 33.000000 4 350.350465
-2.703296 0.050487 0.468840 31.000000 2 350.350468
-2.672093 0.050371 0.201484 24.000000 0 350.350470
-0.040915 0.008048 3.224151 96.000000 31 350.350481
-0.492855 0.022248 3.136853 97.000000 28 350.350484
-0.643287 0.029820 3.119520 87.000000 27 350.350486
-0.950837 0.025457 3.086140 90.000000 25 350.350489
-1.323380 0.028162 3.177961 40.000000 23 350.350491
-1.662641 0.035102 3.113669 38.000000 21 350.350494
-3.092583 0.065308 4.615716 48.000000 19 350.350496
-3.264794 0.068947 3.984932 12.000000 17 350.350499
-0.193684 0.017887 3.194059 97.000000 30 350.350507
-0.345469 0.023671 3.181516 96.000000 29 350.350509
-0.795376 0.026892 3.099416 95.000000 26 350.350512
-1.161994 0.026752 3.214959 56.000000 24 350.350514
-1.493023 0.033863 3.150336 46.000000 22 350.350517
-1.837275 0.041360 3.076158 39.000000 20 350.350520
-3.290061 0.074077 4.430855 9.000000 18 350.350522
-3.112544 0.070082 3.453370 10.000000 16 350.350525
-2.949172 0.058679 2.978511 10.000000 15 350.350482
-2.941578 0.058530 2.453879 21.000000 13 350.350485
-2.920236 0.058616 1.999589 17.000000 11 350.350488
-2.867207 0.057554 1.587079 22.000000 9 350.350490
-2.809613 0.056888 1.223709 27.000000 7 350.350493
-2.758215 0.056329 0.900330 27.000000 5 350.350495
-2.720813 0.055565 0.608144 32.000000 3 350.350498
-2.698404 0.055579 0.334777 29.000000 1 350.350500
-2.904449 0.062353 2.667703 32.000000 14 350.350508
-2.940464 0.063129 2.225118 23.000000 12 350.350511
-2.898273 0.062729 1.788463 19.000000 10 350.350513
-2.864250 0.061995 1.411847 25.000000 8 350.350516
-2.805033 0.061203 1.065097 29.000000 6 350.350518
-2.750596 0.060496 0.754285 32.000000 4 350.350521
-2.722907 0.060362 0.471599 31.000000 2 350.350523
-2.686886 0.060033 0.202089 24.000000 0 350.350526
-0.040887 0.008190 3.224151 96.000000 31 350.350537
-0.492775 0.023968 3.136853 97.000000 28 350.350539
-0.643179 0.032065 3.119520 87.000000 27 350.350542
-0.950743 0.028776 3.086140 90.000000 25 350.350544
-1.323273 0.032782 3.177961 40.000000 23 350.350547
-1.662508 0.040906 3.113669 38.000000 21 350.350549
-3.095150 0.076172 4.619849 54.000000 19 350.350552
-3.315812 0.081605 4.046323 12.000000 17 350.350555
-0.193620 0.018563 3.194059 97.000000 30 350.350562
-0.345385 0.024877 3.181516 96.000000 29 350.350565
-0.795277 0.029669 3.099416 95.000000 26 350.350567
-1.161893 0.030808 3.214959 58.000000 24 350.350570
-1.492895 0.039075 3.150336 43.000000 22 350.350573
-1.837120 0.047773 3.076158 39.000000 20 350.350575
-3.307860 0.086031 4.454792 9.000000 18 350.350578
-3.132615 0.081476 3.475421 10.000000 16 350.350580
-2.923992 0.068389 2.953980 11.000000 15 350.350538
-2.921897 0.068343 2.438190 27.000000 13 350.350540
-2.945095 0.069400 2.016038 17.000000 11 350.350543
-2.893562 0.068188 1.600987 21.000000 9 350.350546
-2.832571 0.067245 1.233074 26.000000 7 350.350548
-2.781981 0.066530 0.907376 27.000000 5 350.350551
-2.745157 0.065649 0.612807 32.000000 3 350.350553
-2.723087 0.065597 0.337008 26.000000 1 350.350556
-2.893014 0.072212 2.657728 32.000000 14 350.350564
-2.948307 0.073595 2.231004 25.000000 12 350.350566
-2.919585 0.073387 1.801125 18.000000 10 350.350569
-2.886702 0.072563 1.422337 26.000000 8 350.350571
-2.828408 0.071592 1.073310 29.000000 6 350.350574
-2.769805 0.070592 0.758974 32.000000 4 350.350576
-2.747433 0.070502 0.475048 31.000000 2 350.350579
-2.706637 0.069928 0.202895 23.000000 0 350.350582
-0.040858 0.008333 3.224151 96.000000 31 350.350592
-0.492688 0.025688 3.136853 97.000000 28 350.350595
-0.643063 0.034310 3.119520 87.000000 27 350.350597
-0.950637 0.032095 3.086140 90.000000 25 350.350600
-1.323151 0.037401 3.177961 50.000000 23 350.350602
-1.662355 0.046709 3.113669 38.000000 21 350.350605
-3.094865 0.086975 4.619849 64.000000 19 350.350608
-3.366782 0.094621 4.107715 12.000000 17 350.350610
-0.193554 0.019239 3.194059 97.000000 30 350.350618
-0.345296 0.026082 3.181516 97.000000 29 350.350620
-0.795169 0.032445 3.099416 95.000000 26 350.350623
-1.160054 0.034812 3.210267 58.000000 24 350.350626
-1.492750 0.044286 3.150336 43.000000 22 350.350628
-1.836942 0.054185 3.076158 39.000000 20 350.350631
-3.331641 0.098289 4.486708 10.000000 18 350.350633
-3.159421 0.093210 3.504823 10.000000 16 350.350636
-2.909476 0.078212 2.939961 12.000000 15 350.350593
-2.913857 0.078333 2.431914 33.000000 13 350.350596
-2.965734 0.080245 2.029745 17.000000 11 350.350599
-2.919878 0.079007 1.614895 21.000000 9 350.350601
-2.855489 0.077763 1.242439 26.000000 7 350.350604
-2.805710 0.076898 0.914422 27.000000 5 350.350606
-2.769463 0.075904 0.617470 32.000000 3 350.350609
-2.742754 0.075651 0.338793 26.000000 1 350.350611
-2.889012 0.082204 2.654403 32.000000 14 350.350619
-2.927831 0.083311 2.216289 31.000000 12 350.350622
-2.940859 0.084195 1.813787 18.000000 10 350.350624
-2.913651 0.083419 1.434926 25.000000 8 350.350627
-2.851743 0.082144 1.081524 28.000000 6 350.350629
-2.793834 0.080964 0.764836 32.000000 4 350.350632
-2.766970 0.080669 0.477808 31.000000 2 350.350634
-2.726351 0.079961 0.203701 23.000000 0 350.350637
-0.040829 0.008476 3.224151 97.000000 31 350.350648
-0.492595 0.027408 3.136853 97.000000 28 350.350650
-0.642939 0.036555 3.119520 86.000000 27 350.350653
-0.950519 0.035413 3.086140 90.000000 25 350.350655
-1.323012 0.042019 3.177961 50.000000 23 350.350658
-1.662182 0.052511 3.113669 38.000000 21 350.350660
-3.097355 0.097867 4.623982 81.000000 19 350.350663
-3.420904 0.108094 4.172943 13.000000 17 350.350666
-0.193198 0.019883 3.189067 97.000000 30 350.350673
-0.345202 0.027287 3.181516 97.000000 29 350.350676
-0.795051 0.035220 3.099416 95.000000 26 350.350678
-1.159925 0.038861 3.210267 56.000000 24 350.350681
-1.492586 0.049496 3.150336 44.000000 22 350.350684
-1.836741 0.060597 3.076158 39.000000 20 350.350686
-3.352364 0.110613 4.514634 12.000000 18 350.350689
-3.172630 0.104685 3.519523 10.000000 16 350.350691
-2.894927 0.087935 2.925943 16.000000 15 350.350649
-2.905784 0.088267 2.425639 33.000000 13 350.350652
-2.986334 0.091236 2.043453 17.000000 11 350.350654
-2.941725 0.089875 1.626486 20.000000 9 350.350657
-2.883003 0.088585 1.253677 26.000000 7 350.350659
-2.829399 0.087432 0.921468 25.000000 5 350.350662
-2.788821 0.086178 0.621200 31.000000 3 350.350664
-2.767361 0.085998 0.341024 26.000000 1 350.350667
-2.881242 0.092049 2.647753 33.000000 14 350.350675
-2.919442 0.093272 2.210402 36.000000 12 350.350677
-2.966401 0.095291 1.828982 18.000000 10 350.350680
-2.940559 0.094463 1.447514 25.000000 8 350.350682
-2.875039 0.092861 1.089737 28.000000 6 350.350685
-2.817825 0.091505 0.770697 31.000000 4 350.350687
-2.791420 0.091135 0.481257 30.000000 2 350.350690
-2.746028 0.090133 0.204507 22.000000 0 350.350693
-0.040799 0.008618 3.224151 96.000000 31 350.350703
-0.492497 0.029127 3.136853 97.000000 28 350.350706
-0.642808 0.038799 3.119520 86.000000 27 350.350708
-0.950389 0.038731 3.086140 90.000000 25 350.350711
-1.324810 0.046706 3.182564 50.000000 23 350.350713
-1.661988 0.058313 3.113669 38.000000 21 350.350716
-3.099807 0.108776 4.628115 88.000000 19 350.350719
-3.465361 0.121608 4.226660 13.000000 17 350.350721
-0.193127 0.020557 3.189067 97.000000 30 350.350729
-0.345105 0.028492 3.181516 97.000000 29 350.350731
-0.794923 0.037995 3.099416 95.000000 26 350.350734
-1.159783 0.042910 3.210267 56.000000 24 350.350737
-1.492404 0.054706 3.150336 45.000000 22 350.350739
-1.836519 0.067008 3.076158 39.000000 20 350.350742
-3.376053 0.123194 4.546550 23.000000 18 350.350744
-3.212899 0.117242 3.563625 11.000000 16 350.350747
-2.880345 0.097556 2.911925 19.000000 15 350.350704
-2.897677 0.098146 2.419363 33.000000 13 350.350707
-3.006892 0.102371 2.057160 16.000000 11 350.350710
-2.967960 0.101048 1.640394 19.000000 9 350.350712
-2.905842 0.099441 1.263042 25.000000 7 350.350715
-2.853050 0.098132 0.928514 25.000000 5 350.350717
-2.813050 0.096757 0.625863 31.000000 3 350.350720
-2.786953 0.096346 0.342809 28.000000 1 350.350722
-2.877171 0.101974 2.644428 32.000000 14 350.350730
-2.906980 0.103033 2.201573 36.000000 12 350.350733
-2.987593 0.106412 1.841644 18.000000 10 350.350735
-2.967425 0.105696 1.460102 23.000000 8 350.350738
-2.903013 0.103909 1.099593 28.000000 6 350.350740
-2.841776 0.102214 0.776559 31.000000 4 350.350743
-2.815829 0.101773 0.484706 30.000000 2 350.350746
-2.765668 0.100443 0.205314 21.000000 0 350.350748
-0.040768 0.008760 3.224151 96.000000 31 350.350759
-0.492392 0.030846 3.136853 97.000000 28 350.350761
-0.642668 0.041042 3.119520 86.000000 27 350.350764
-0.950248 0.042048 3.086140 90.000000 25 350.350766
-1.324639 0.051330 3.182564 50.000000 23 350.350769
-1.659381 0.064022 3.109280 38.000000 21 350.350772
-3.099408 0.119596 4.628115 90.000000 19 350.350774
-3.480933 0.134322 4.245844 12.000000 17 350.350777
-0.193342 0.021264 3.194059 97.000000 30 350.350784
-0.345004 0.029697 3.181516 97.000000 29 350.350787
-0.794786 0.040770 3.099416 95.000000 26 350.350790
-1.159626 0.046958 3.210267 56.000000 24 350.350792
-1.492204 0.059915 3.150336 45.000000 22 350.350795
-1.836274 0.073418 3.076158 39.000000 20 350.350797
-3.387648 0.135460 4.562508 37.000000 18 350.350800
-3.246345 0.129811 3.600377 11.000000 16 350.350802
-2.869296 0.107210 2.901412 27.000000 15 350.350760
-2.893426 0.108115 2.416225 33.000000 13 350.350763
-3.027409 0.113650 2.070867 15.000000 11 350.350765
-2.994151 0.112404 1.654302 19.000000 9 350.350768
-2.933274 0.110632 1.274281 25.000000 7 350.350770
-2.876659 0.108999 0.935560 26.000000 5 350.350773
-2.837239 0.107505 0.630527 30.000000 3 350.350775
-2.806505 0.106831 0.344594 28.000000 1 350.350778
-2.873066 0.111871 2.641104 32.000000 14 350.350786
-2.902564 0.113022 2.198630 36.000000 12 350.350788
-3.013051 0.117851 1.856839 17.000000 10 350.350791
-2.994248 0.117118 1.472690 23.000000 8 350.350793
-2.926227 0.114969 1.107807 28.000000 6 350.350796
-2.865686 0.113091 0.782420 31.000000 4 350.350798
-2.835250 0.112386 0.487465 29.000000 2 350.350801
-2.785268 0.110892 0.206120 22.000000 0 350.350804
-0.040738 0.008903 3.224151 96.000000 31 350.350815
-0.492281 0.032565 3.136853 97.000000 28 350.350818
-0.642521 0.043286 3.119520 87.000000 27 350.350820
-0.948604 0.045293 3.081368 90.000000 25 350.350823
-1.324451 0.055954 3.182564 50.000000 23 350.350825
-1.659147 0.069814 3.109280 38.000000 21 350.350828
-3.101784 0.130533 4.632248 91.000000 19 350.350830
-3.518880 0.148090 4.291888 13.000000 17 350.350833
-0.192979 0.021905 3.189067 97.000000 30 350.350841
-0.344898 0.030901 3.181516 97.000000 29 350.350843
-0.794639 0.043544 3.099416 93.000000 26 350.350846
-1.161179 0.051081 3.214959 56.000000 24 350.350848
-1.491986 0.065123 3.150336 45.000000 22 350.350851
-1.836006 0.079828 3.076158 39.000000 20 350.350853
-3.387155 0.147284 4.562508 47.000000 18 350.350856
-3.269581 0.142174 3.626103 11.000000 16 350.350859
-2.861778 0.116934 2.894403 27.000000 15 350.350816
-2.889142 0.118055 2.413087 33.000000 13 350.350819
-3.047883 0.125075 2.084574 15.000000 11 350.350821
-3.015873 0.123764 1.665892 18.000000 9 350.350824
-2.960661 0.122015 1.285519 24.000000 7 350.350827
-2.905020 0.120230 0.944015 26.000000 5 350.350829
-2.861387 0.118424 0.635190 30.000000 3 350.350832
-2.830994 0.117661 0.346825 28.000000 1 350.350834
-2.865196 0.121582 2.634454 32.000000 14 350.350842
-2.898113 0.122982 2.195687 36.000000 12 350.350845
-3.034158 0.129286 1.869501 17.000000 10 350.350847
-3.021028 0.128729 1.485279 22.000000 8 350.350850
-2.954117 0.126394 1.117663 26.000000 6 350.350852
-2.889555 0.124137 0.788282 30.000000 4 350.350855
-2.859578 0.123349 0.490914 29.000000 2 350.350857
-2.804829 0.121478 0.206926 22.000000 0 350.350860
-0.040665 0.009031 3.219151 96.000000 31 350.350871
-0.492165 0.034283 3.136853 97.000000 28 350.350873
-0.642366 0.045528 3.119520 87.000000 27 350.350876
-0.948440 0.048604 3.081368 90.000000 25 350.350878
-1.322297 0.060487 3.177961 50.000000 23 350.350881
-1.658894 0.075605 3.109280 38.000000 21 350.350883
-3.101309 0.141359 4.632248 92.000000 19 350.350886
-3.540760 0.161394 4.318747 13.000000 17 350.350888
-0.192906 0.022545 3.189067 97.000000 30 350.350896
-0.344793 0.032044 3.181516 97.000000 29 350.350899
-0.794490 0.046179 3.099416 95.000000 26 350.350901
-1.161003 0.054931 3.214959 58.000000 24 350.350904
-1.491749 0.070331 3.150336 45.000000 22 350.350906
-1.835716 0.086236 3.076158 39.000000 20 350.350909
-3.386620 0.159106 4.562508 59.000000 18 350.350912
-3.319889 0.155393 3.681231 12.000000 16 350.350914
-2.854227 0.126607 2.887393 29.000000 15 350.350872
-2.884823 0.127967 2.409950 33.000000 13 350.350874
-3.072492 0.136829 2.101023 16.000000 11 350.350877
-3.041978 0.135473 1.679800 18.000000 9 350.350879
-2.988029 0.133070 1.296757 24.000000 7 350.350882
-2.933360 0.131149 0.952470 25.000000 5 350.350885
-2.890399 0.129733 0.640785 30.000000 3 350.350887
-2.850466 0.128439 0.348610 24.000000 1 350.350890
-2.861024 0.131412 2.631129 32.000000 14 350.350897
-2.893629 0.132912 2.192743 36.000000 12 350.350900
-3.059553 0.140534 1.884695 16.000000 10 350.350903
-3.047787 0.139996 1.497867 21.000000 8 350.350905
-2.981986 0.137495 1.127519 25.000000 6 350.350908
-2.918260 0.135067 0.795316 30.000000 4 350.350910
-2.883888 0.133980 0.494363 29.000000 2 350.350913
-2.829364 0.131942 0.207933 22.000000 0 350.350915
-0.040635 0.009166 3.219151 94.000000 31 350.350926
-0.492048 0.035915 3.136853 97.000000 28 350.350929
-0.643227 0.047734 3.124416 89.000000 27 350.350931
-0.948274 0.051749 3.081368 89.000000 25 350.350934
-1.322089 0.064872 3.177961 50.000000 23 350.350936
-1.661026 0.081222 3.113669 38.000000 21 350.350939
-3.100823 0.151643 4.632248 92.000000 19 350.350941
-3.559417 0.174074 4.341768 12.000000 17 350.350944
-0.192826 0.023218 3.189067 98.000000 30 350.350952
-0.344680 0.033248 3.181516 97.000000 29 350.350954
-0.794324 0.048952 3.099416 95.000000 26 350.350957
-1.160804 0.058984 3.214959 58.000000 24 350.350959
-1.491508 0.075278 3.150336 45.000000 22 350.350962
-1.835420 0.092323 3.076158 39.000000 20 350.350965
-3.386074 0.170336 4.562508 51.000000 18 350.350967
-3.366728 0.169365 3.732683 12.000000 16 350.350970
-2.850229 0.135901 2.883889 29.000000 15 350.350927
-2.880495 0.137347 2.406812 33.000000 13 350.350930
-3.097081 0.148217 2.117472 17.000000 11 350.350932
-3.063637 0.146619 1.691390 17.000000 9 350.350935
-3.015329 0.144834 1.307995 23.000000 7 350.350938
-2.961635 0.142773 0.960925 25.000000 5 350.350940
-2.914486 0.140500 0.645449 29.000000 3 350.350943
-2.874896 0.139094 0.350841 24.000000 1 350.350945
-2.856843 0.140715 2.627805 32.000000 14 350.350953
-2.889135 0.142308 2.189800 36.000000 12 350.350956
-3.084880 0.152490 1.899890 16.000000 10 350.350958
-3.069945 0.151754 1.508357 20.000000 8 350.350961
-3.009788 0.149307 1.137375 26.000000 6 350.350963
-2.942043 0.146461 0.801177 30.000000 4 350.350966
-2.908133 0.145282 0.497812 28.000000 2 350.350968
-2.853834 0.143068 0.208941 20.000000 0 350.350971
-0.040602 0.009308 3.219151 95.000000 31 350.350982
-0.492695 0.037692 3.141792 97.000000 28 350.350984
-0.643057 0.049979 3.124416 86.000000 27 350.350987
-0.948087 0.055059 3.081368 89.000000 25 350.350989
-1.321854 0.069486 3.177961 50.000000 23 350.350992
-1.660733 0.087020 3.113669 38.000000 21 350.350994
-3.100275 0.162466 4.632248 92.000000 19 350.350997
-3.558788 0.186498 4.341768 11.000000 17 350.350999
-0.192743 0.023891 3.189067 97.000000 30 350.351007
-0.344561 0.034451 3.181516 97.000000 29 350.351010
-0.794148 0.051724 3.099416 95.000000 26 350.351012
-1.160591 0.063035 3.214959 58.000000 24 350.351015
-1.491236 0.080483 3.150336 45.000000 22 350.351017
-1.835087 0.098729 3.076158 38.000000 20 350.351020
-3.385459 0.182154 4.562508 47.000000 18 350.351023
-3.427051 0.184395 3.798836 13.000000 16 350.351025
-2.842614 0.145485 2.876880 29.000000 15 350.350983
-2.876110 0.147202 2.403674 34.000000 13 350.350985
-3.121601 0.160313 2.133921 16.000000 11 350.350988
-3.089653 0.158675 1.705299 17.000000 9 350.350991
-3.042584 0.156790 1.319234 22.000000 7 350.350993
-2.989864 0.154597 0.969380 24.000000 5 350.350996
-2.943412 0.152195 0.651044 29.000000 3 350.350998
-2.899259 0.150419 0.353072 27.000000 1 350.351001
-2.852605 0.150489 2.624480 33.000000 14 350.351009
-2.884584 0.152179 2.186857 36.000000 12 350.351011
-3.114465 0.164852 1.917617 16.000000 10 350.351014
-3.096589 0.163909 1.520946 20.000000 8 350.351016
-3.037544 0.161315 1.147231 26.000000 6 350.351019
-2.970636 0.158281 0.808211 30.000000 4 350.351021
-2.937279 0.157018 0.501951 28.000000 2 350.351024
-2.878261 0.154367 0.209949 21.000000 0 350.351026
-0.040570 0.009450 3.219151 96.000000 31 350.351037
-0.492560 0.039411 3.141792 95.000000 28 350.351040
-0.642878 0.052223 3.124416 86.000000 27 350.351042
-0.947889 0.058368 3.081368 89.000000 25 350.351045
-1.321604 0.074100 3.177961 50.000000 23 350.351047
-1.660419 0.092816 3.113669 38.000000 21 350.351050
-3.099689 0.173287 4.632248 92.000000 19 350.351052
-3.570919 0.199635 4.357116 9.000000 17 350.351055
-0.192659 0.024564 3.189067 97.000000 30 350.351063
-0.344439 0.035653 3.181516 97.000000 29 350.351065
-0.793963 0.054496 3.099416 95.000000 26 350.351068
-1.160364 0.067086 3.214959 56.000000 24 350.351070
-1.490946 0.085688 3.150336 48.000000 22 350.351073
-1.834731 0.105134 3.076158 39.000000 20 350.351076
-3.384802 0.193971 4.562508 44.000000 18 350.351078
-3.463617 0.198490 3.839262 12.000000 16 350.351081
-2.838528 0.155212 2.873375 29.000000 15 350.351038
-2.871691 0.157028 2.400536 34.000000 13 350.351041
-3.150248 0.172812 2.153111 14.000000 11 350.351043
-3.111199 0.170672 1.716889 16.000000 9 350.351046
-3.069792 0.168938 1.330472 22.000000 7 350.351049
-3.018047 0.166619 0.977836 23.000000 5 350.351051
-2.967387 0.163822 0.655707 28.000000 3 350.351054
-2.923579 0.161915 0.355303 27.000000 1 350.351056
-2.848334 0.160236 2.621155 33.000000 14 350.351064
-2.880000 0.162020 2.183914 36.000000 12 350.351067
-3.139697 0.177180 1.932811 16.000000 10 350.351069
-3.118655 0.175995 1.531436 19.000000 8 350.351072
-3.065251 0.173518 1.157087 26.000000 6 350.351074
-2.999183 0.170303 0.815245 29.000000 4 350.351077
-2.961434 0.168678 0.505400 27.000000 2 350.351079
-2.902644 0.165838 0.210956 20.000000 0 350.351082
-0.040578 0.009605 3.224151 96.000000 31 350.351093
-0.492419 0.041131 3.141792 95.000000 28 350.351095
-0.642692 0.054467 3.124416 87.000000 27 350.351098
-0.947680 0.061676 3.081368 90.000000 25 350.351100
-1.321337 0.078713 3.177961 52.000000 23 350.351103
-1.660085 0.098612 3.113669 38.000000 21 350.351105
-3.099065 0.184106 4.632248 92.000000 19 350.351108
-3.567000 0.211909 4.353279 8.000000 17 350.351111
-0.192572 0.025236 3.189067 97.000000 30 350.351118
-0.344312 0.036855 3.181516 97.000000 29 350.351121
-0.793768 0.057267 3.099416 95.000000 26 350.351123
-1.160123 0.071136 3.214959 58.000000 24 350.351126
-1.490638 0.090892 3.150336 48.000000 22 350.351129
-1.834353 0.111538 3.076158 39.000000 20 350.351131
-3.384105 0.205785 4.562508 44.000000 18 350.351134
-3.537349 0.215106 3.920116 12.000000 16 350.351136
-2.834408 0.164912 2.869870 29.000000 15 350.351094
-2.867239 0.166825 2.397398 32.000000 13 350.351096
-3.183020 0.185756 2.175043 13.000000 11 350.351099
-3.137120 0.183080 1.730797 16.000000 9 350.351102
-3.096951 0.181278 1.341710 21.000000 7 350.351104
-3.046181 0.178840 0.986291 23.000000 5 350.351107
-2.996220 0.175907 0.661303 28.000000 3 350.351109
-2.952825 0.173876 0.357980 26.000000 1 350.351112
-2.844029 0.169955 2.617830 33.000000 14 350.351120
-2.875382 0.171831 2.180971 36.000000 12 350.351122
-3.169184 0.189944 1.950539 15.000000 10 350.351125
-3.145204 0.188510 1.544024 18.000000 8 350.351127
-3.092910 0.185917 1.166943 25.000000 6 350.351130
-3.027681 0.182526 0.822279 28.000000 4 350.351132
-2.990485 0.180808 0.509539 27.000000 2 350.351135
-2.926981 0.177481 0.211964 20.000000 0 350.351137
-0.040544 0.009747 3.224151 96.000000 31 350.351148
-0.492273 0.042849 3.141792 97.000000 28 350.351151
-0.642498 0.056710 3.124416 86.000000 27 350.351153
-0.947459 0.064984 3.081368 90.000000 25 350.351156
-1.321054 0.083325 3.177961 50.000000 23 350.351158
-1.659730 0.104406 3.113669 38.000000 21 350.351161
-3.098404 0.194922 4.632248 92.000000 19 350.351163
-3.598234 0.226371 4.391649 9.000000 17 350.351166
-0.192483 0.025908 3.189067 97.000000 30 350.351174
-0.344182 0.038057 3.181516 97.000000 29 350.351176
-0.793563 0.060037 3.099416 93.000000 26 350.351179
-1.158146 0.075074 3.210267 58.000000 24 350.351181
-1.490312 0.096095 3.150336 48.000000 22 350.351184
-1.831350 0.117773 3.071892 39.000000 20 350.351187
-3.383366 0.217596 4.562508 48.000000 18 350.351189
-3.624539 0.233110 4.015671 13.000000 16 350.351192
-2.830256 0.174586 2.866366 29.000000 15 350.351149
-2.862754 0.176593 2.394261 32.000000 13 350.351152
-3.199046 0.197899 2.186009 12.000000 11 350.351155
-3.167414 0.195944 1.747023 16.000000 9 350.351157
-3.124062 0.193810 1.352948 20.000000 7 350.351160
-3.069478 0.190961 0.993337 23.000000 5 350.351162
-3.025004 0.188194 0.666899 27.000000 3 350.351165
-2.977051 0.185733 0.360211 26.000000 1 350.351167
-2.839692 0.179646 2.614505 33.000000 14 350.351175
-2.870731 0.181612 2.178028 36.000000 12 350.351178
-3.198620 0.202916 1.968265 15.000000 10 350.351180
-3.167174 0.200924 1.554515 18.000000 8 350.351183
-3.120520 0.198511 1.176799 23.000000 6 350.351185
-3.056130 0.194951 0.829313 28.000000 4 350.351188
-3.019489 0.193142 0.513678 27.000000 2 350.351190
-2.951272 0.189296 0.212972 19.000000 0 350.351193
-0.040510 0.009888 3.224151 96.000000 31 350.351204
-0.492120 0.044567 3.141792 97.000000 28 350.351206
-0.642296 0.058953 3.124416 86.000000 27 350.351209
-0.947226 0.068291 3.081368 90.000000 25 350.351211
-1.320755 0.087935 3.177961 49.000000 23 350.351214
-1.659356 0.110199 3.113669 38.000000 21 350.351216
-3.097704 0.205736 4.632248 91.000000 19 350.351219
-3.610218 0.239780 4.406996 9.000000 17 350.351222
-0.192391 0.026580 3.189067 97.000000 30 350.351229
-0.344047 0.039258 3.181516 97.000000 29 350.351232
-0.793348 0.062807 3.099416 92.000000 26 350.351234
-1.157876 0.079116 3.210267 58.000000 24 350.351237
-1.489967 0.101296 3.150336 48.000000 22 350.351240
-1.830927 0.124165 3.071892 39.000000 20 350.351242
-3.382585 0.229405 4.562508 57.000000 18 350.351245
-3.701498 0.251037 4.100200 14.000000 16 350.351247
-2.826071 0.184232 2.862861 30.000000 15 350.351205
-2.858236 0.186332 2.391123 33.000000 13 350.351207
-3.185818 0.208246 2.177784 12.000000 11 350.351210
-3.193235 0.208733 1.760931 15.000000 9 350.351213
-3.151122 0.206533 1.364186 19.000000 7 350.351215
-3.097515 0.203562 1.001792 22.000000 5 350.351218
-3.053739 0.200685 0.672494 27.000000 3 350.351220
-3.001231 0.197761 0.362442 25.000000 1 350.351223
-2.839048 0.189557 2.614505 33.000000 14 350.351231
-2.866046 0.191362 2.175084 37.000000 12 350.351233
-3.228003 0.216096 1.985992 15.000000 10 350.351236
-3.193624 0.213797 1.567103 18.000000 8 350.351238
-3.148079 0.211300 1.186655 23.000000 6 350.351241
-3.084529 0.207575 0.836347 28.000000 4 350.351243
-3.043501 0.205348 0.517127 26.000000 2 350.351246
-2.975516 0.201283 0.213979 19.000000 0 350.351249
-0.040475 0.010030 3.224151 96.000000 31 350.351259
-0.491962 0.046285 3.141792 97.000000 28 350.351262
-0.642086 0.061194 3.124416 87.000000 27 350.351264
-0.946982 0.071597 3.081368 90.000000 25 350.351267
-1.320440 0.092545 3.177961 50.000000 23 350.351269
-1.658961 0.115990 3.113669 38.000000 21 350.351272
-3.096967 0.216548 4.632248 91.000000 19 350.351275
-3.644538 0.254841 4.449203 10.000000 17 350.351277
-0.192297 0.027251 3.189067 97.000000 30 350.351285
-0.343908 0.040459 3.181516 97.000000 29 350.351287
-0.791871 0.065472 3.094577 92.000000 26 350.351290
-1.157593 0.083157 3.210267 56.000000 24 350.351293
-1.489604 0.106497 3.150336 48.000000 22 350.351295
-1.830483 0.130556 3.071892 39.000000 20 350.351298
-3.384771 0.241426 4.566498 75.000000 18 350.351300
-3.771612 0.269022 4.177378 15.000000 16 350.351303
-2.821852 0.193851 2.859357 30.000000 15 350.351260
-2.853684 0.196041 2.387985 34.000000 13 350.351263
-3.223426 0.222009 1.777157 15.000000 9 350.351268
-3.173506 0.219128 1.373551 19.000000 7 350.351271
-3.120715 0.216030 1.008838 21.000000 5 350.351273
-3.082423 0.213379 0.678090 26.000000 3 350.351276
-3.025363 0.209960 0.364673 24.000000 1 350.351278
-2.834643 0.199204 2.611180 33.000000 14 350.351286
-2.861329 0.201082 2.172141 36.000000 12 350.351289
-3.257333 0.229484 2.003720 15.000000 10 350.351291
-3.220021 0.226858 1.579691 17.000000 8 350.351294
-3.175587 0.224284 1.196512 22.000000 6 350.351296
-3.112876 0.220401 0.843381 27.000000 4 350.351299
-3.072404 0.218074 0.521266 24.000000 2 350.351301
-2.999712 0.213441 0.214987 19.000000 0 350.351304
-0.040440 0.010171 3.224151 96.000000 31 350.351315
-0.491797 0.048002 3.141792 97.000000 28 350.351317
-0.640856 0.063334 3.119520 87.000000 27 350.351320
-0.946726 0.074902 3.081368 90.000000 25 350.351322
-1.320109 0.097154 3.177961 52.000000 23 350.351325
-1.658546 0.121781 3.113669 38.000000 21 350.351327
-3.096193 0.227357 4.632248 91.000000 19 350.351330
-3.662810 0.268970 4.472224 15.000000 17 350.351333
-0.192201 0.027922 3.189067 98.000000 30 350.351340
-0.343764 0.041659 3.181516 97.000000 29 350.351343
-0.791638 0.068236 3.094577 92.000000 26 350.351345
-1.157296 0.087197 3.210267 56.000000 24 350.351348
-1.489224 0.111696 3.150336 45.000000 22 350.351351
-1.830016 0.136944 3.071892 39.000000 20 350.351353
-3.383907 0.253239 4.566498 87.000000 18 350.351356
-3.794315 0.283956 4.203104 13.000000 16 350.351358
-2.817601 0.203443 2.855852 30.000000 15 350.351316
-2.849100 0.205720 2.384847 34.000000 13 350.351319
-3.249143 0.235179 1.791065 14.000000 9 350.351324
-3.200465 0.232217 1.384790 18.000000 7 350.351326
-3.148650 0.229010 1.017293 20.000000 5 350.351329
-3.111055 0.226276 0.683686 26.000000 3 350.351331
-3.049446 0.222330 0.366904 23.000000 1 350.351334
-2.830206 0.208823 2.607855 33.000000 14 350.351342
-2.856578 0.210771 2.169198 36.000000 12 350.351344
-3.290909 0.243397 2.023979 15.000000 10 350.351347
-3.246367 0.240105 1.592279 16.000000 8 350.351349
-3.198333 0.237113 1.204725 22.000000 6 350.351352
-3.146019 0.233787 0.851587 27.000000 4 350.351354
-3.096317 0.230637 0.524715 24.000000 2 350.351357
-3.023859 0.225770 0.215995 19.000000 0 350.351360
-0.040404 0.010312 3.224151 96.000000 31 350.351370
-0.490854 0.049639 3.136853 97.000000 28 350.351373
-0.640631 0.065571 3.119520 86.000000 27 350.351375
-0.946459 0.078206 3.081368 90.000000 25 350.351378
-1.319762 0.101761 3.177961 46.000000 23 350.351380
-1.658111 0.127569 3.113669 38.000000 21 350.351383
-3.095380 0.238164 4.632248 90.000000 19 350.351386
-3.709795 0.285443 4.529778 37.000000 17 350.351388
-0.192102 0.028593 3.189067 97.000000 30 350.351396
-0.343617 0.042859 3.181516 97.000000 29 350.351398
-0.791395 0.070999 3.094577 95.000000 26 350.351401
-1.156984 0.091237 3.210267 58.000000 24 350.351404
-1.488825 0.116894 3.150336 46.000000 22 350.351406
-1.829527 0.143331 3.071892 39.000000 20 350.351409
-3.383003 0.265050 4.566498 92.000000 18 350.351411
-3.816959 0.299053 4.228830 13.000000 16 350.351414
-2.813318 0.213008 2.852348 30.000000 15 350.351371
-2.844482 0.215370 2.381710 34.000000 13 350.351374
-3.279225 0.248866 1.807292 14.000000 9 350.351379
-3.227370 0.245497 1.396028 17.000000 7 350.351382
-3.171748 0.241823 1.024339 19.000000 5 350.351384
-3.139635 0.239374 0.689282 26.000000 3 350.351387
-3.073479 0.234870 0.369135 22.000000 1 350.351389
-2.825737 0.218413 2.604530 33.000000 14 350.351397
-2.851795 0.220430 2.166255 36.000000 12 350.351400
-3.324426 0.257547 2.044238 15.000000 10 350.351402
-3.272659 0.253539 1.604868 16.000000 8 350.351405
-3.225735 0.250470 1.214581 20.000000 6 350.351407
-3.174260 0.247030 0.858621 26.000000 4 350.351410
-3.120179 0.243369 0.528164 23.000000 2 350.351413
-3.047956 0.238271 0.217002 18.000000 0 350.351415
-0.040368 0.010453 3.224151 96.000000 31 350.351426
-0.490677 0.051353 3.136853 97.000000 28 350.351428
-0.640398 0.067807 3.119520 87.000000 27 350.351431
-0.946180 0.081510 3.081368 90.000000 25 350.351433
-1.319399 0.106367 3.177961 46.000000 23 350.351436
-1.657656 0.133356 3.113669 38.000000 21 350.351439
-3.094530 0.248967 4.632248 91.000000 19 350.351441
-3.705581 0.298134 4.525942 44.000000 17 350.351444
-0.192001 0.029263 3.189067 97.000000 30 350.351451
-0.343465 0.044058 3.181516 97.000000 29 350.351454
-0.791142 0.073761 3.094577 95.000000 26 350.351457
-1.156659 0.095275 3.210267 58.000000 24 350.351459
-1.490578 0.122268 3.154837 45.000000 22 350.351462
-1.829015 0.149717 3.071892 39.000000 20 350.351464
-3.385061 0.277103 4.570487 92.000000 18 350.351467
-3.859818 0.315971 4.276608 13.000000 16 350.351469
-2.809002 0.222546 2.848843 30.000000 15 350.351427
-2.839833 0.224991 2.378572 33.000000 13 350.351430
-3.309250 0.262766 1.823518 13.000000 9 350.351435
-3.254221 0.258968 1.407266 17.000000 7 350.351437
-3.199577 0.255181 1.032794 18.000000 5 350.351440
-3.163263 0.252285 0.693945 25.000000 3 350.351442
-3.097462 0.247581 0.371366 21.000000 1 350.351445
-2.821235 0.227975 2.601206 33.000000 14 350.351453
-2.851009 0.230383 2.166255 37.000000 12 350.351455
-3.370775 0.272977 2.072095 15.000000 10 350.351458
-3.298896 0.267159 1.617456 16.000000 8 350.351460
-3.253083 0.264020 1.224437 19.000000 6 350.351463
-3.202446 0.260473 0.865655 26.000000 4 350.351465
-3.143989 0.256271 0.531613 23.000000 2 350.351468
-3.076982 0.251349 0.218212 17.000000 0 350.351471
-0.040331 0.010594 3.224151 97.000000 31 350.351481
-0.490495 0.053065 3.136853 97.000000 28 350.351484
-0.640157 0.070042 3.119520 87.000000 27 350.351486
-0.945890 0.084812 3.081368 90.000000 25 350.351489
-1.319019 0.110972 3.177961 52.000000 23 350.351491
-1.657180 0.139142 3.113669 38.000000 21 350.351494
-3.093642 0.259768 4.632248 91.000000 19 350.351496
-3.701323 0.310798 4.522105 58.000000 17 350.351499
-0.191898 0.029933 3.189067 97.000000 30 350.351507
-0.343309 0.045256 3.181516 97.000000 29 350.351509
-0.792132 0.076643 3.099416 95.000000 26 350.351512
-1.156319 0.099312 3.210267 58.000000 24 350.351514
-1.490142 0.127470 3.154837 46.000000 22 350.351517
-1.828481 0.156100 3.071892 39.000000 20 350.351519
-3.384072 0.288917 4.570487 93.000000 18 350.351522
-3.872202 0.330596 4.291308 12.000000 16 350.351525
-2.804654 0.232055 2.845339 30.000000 15 350.351482
-2.835150 0.234581 2.375434 34.000000 13 350.351485
-3.010847 0.249648 2.065384 2.000000 11 350.351487
-3.343633 0.277244 1.842062 13.000000 9 350.351490
-3.285638 0.273013 1.420377 16.000000 7 350.351493
-3.222571 0.268339 1.039840 18.000000 5 350.351495
-3.191736 0.265771 0.699540 24.000000 3 350.351498
-3.121393 0.260462 0.373597 21.000000 1 350.351500
-2.816701 0.237507 2.597881 33.000000 14 350.351508
-2.846159 0.239994 2.163312 37.000000 12 350.351511
-3.421353 0.289098 2.102484 15.000000 10 350.351513
-3.329601 0.281348 1.632142 15.000000 8 350.351516
-3.280375 0.277765 1.234293 18.000000 6 350.351518
-3.230576 0.274116 0.872689 25.000000 4 350.351521
-3.167747 0.269342 0.535062 22.000000 2 350.351523
-3.100976 0.264209 0.219219 17.000000 0 350.351526
-0.040294 0.010734 3.224151 97.000000 31 350.351537
-0.490307 0.054777 3.136853 97.000000 28 350.351539
-0.639909 0.072276 3.119520 86.000000 27 350.351542
-0.945588 0.088113 3.081368 90.000000 25 350.351544
-1.316678 0.115405 3.173359 52.000000 23 350.351547
-1.654298 0.144717 3.109280 38.000000 21 350.351549
-3.092716 0.270565 4.632248 91.000000 19 350.351552
-3.703410 0.323996 4.525942 51.000000 17 350.351554
-0.192078 0.030650 3.194059 97.000000 30 350.351562
-0.343149 0.046455 3.181516 97.000000 29 350.351565
-0.791859 0.079408 3.099416 95.000000 26 350.351567
-1.155966 0.103347 3.210267 58.000000 24 350.351570
-1.489688 0.132671 3.154837 48.000000 22 350.351572
-1.830523 0.162713 3.076158 39.000000 20 350.351575
-3.383043 0.300728 4.570487 93.000000 18 350.351578
-3.887909 0.345611 4.309684 11.000000 16 350.351580
-2.800274 0.241537 2.841834 30.000000 15 350.351538
-2.830436 0.244142 2.372296 34.000000 13 350.351540
-3.009957 0.260156 2.065384 2.000000 11 350.351543
-3.373541 0.291585 1.858288 13.000000 9 350.351545
-3.312376 0.286880 1.431615 16.000000 7 350.351548
-3.250291 0.282075 1.048295 17.000000 5 350.351551
-3.215258 0.279034 0.704204 22.000000 3 350.351553
-3.145271 0.273514 0.375828 20.000000 1 350.351556
-2.812135 0.247011 2.594556 33.000000 14 350.351563
-2.841278 0.249574 2.160369 37.000000 12 350.351566
-3.463270 0.304819 2.127808 15.000000 10 350.351569
-3.355724 0.295356 1.644731 15.000000 8 350.351571
-3.307611 0.291703 1.244149 18.000000 6 350.351574
-3.253808 0.287530 0.878550 24.000000 4 350.351576
-3.196385 0.283018 0.539201 21.000000 2 350.351579
-3.129893 0.277681 0.220428 17.000000 0 350.351581
-0.040215 0.010860 3.219151 97.000000 31 350.351592
-0.490113 0.056488 3.136853 97.000000 28 350.351595
-0.639653 0.074509 3.119520 86.000000 27 350.351597
-0.945275 0.091413 3.081368 89.000000 25 350.351600
-1.316267 0.120001 3.173359 52.000000 23 350.351602
-1.653782 0.150491 3.109280 38.000000 21 350.351605
-3.091753 0.281359 4.632248 90.000000 19 350.351607
-3.702256 0.336921 4.525942 48.000000 17 350.351610
-0.191970 0.031321 3.194059 97.000000 30 350.351618
-0.342985 0.047652 3.181516 97.000000 29 350.351620
-0.791577 0.082171 3.099416 95.000000 26 350.351623
-1.155598 0.107382 3.210267 58.000000 24 350.351625
-1.489216 0.137870 3.154837 48.000000 22 350.351628
-1.829944 0.169102 3.076158 39.000000 20 350.351631
-3.381973 0.312535 4.570487 93.000000 18 350.351633
-3.900182 0.360428 4.324384 10.000000 16 350.351636
-2.795862 0.250992 2.838330 30.000000 15 350.351593
-2.825689 0.253672 2.369159 34.000000 13 350.351596
-3.025689 0.272160 2.076350 2.000000 11 350.351598
-3.407802 0.306534 1.876833 13.000000 9 350.351601
-3.343675 0.301354 1.444727 16.000000 7 350.351604
-3.277954 0.296007 1.056751 17.000000 5 350.351606
-3.243618 0.292907 0.709799 22.000000 3 350.351609
-3.174056 0.287184 0.378506 19.000000 1 350.351611
-2.807537 0.256486 2.591231 33.000000 14 350.351619
-2.840389 0.259490 2.160369 37.000000 12 350.351622
-3.487944 0.319264 2.143003 14.000000 10 350.351624
-3.386310 0.309964 1.659417 15.000000 8 350.351627
-3.339491 0.306266 1.255648 17.000000 6 350.351629
-3.281826 0.301555 0.885584 23.000000 4 350.351632
-3.220035 0.296444 0.542650 20.000000 2 350.351634
-3.153778 0.290899 0.221436 17.000000 0 350.351637
-0.040177 0.011000 3.219151 97.000000 31 350.351648
-0.489912 0.058198 3.136853 97.000000 28 350.351650
-0.639389 0.076742 3.119520 86.000000 27 350.351653
-0.944950 0.094712 3.081368 87.000000 25 350.351655
-1.315840 0.124595 3.173359 52.000000 23 350.351658
-1.653247 0.156262 3.109280 38.000000 21 350.351660
-3.090752 0.292149 4.632248 90.000000 19 350.351663
-3.701057 0.349843 4.525942 47.000000 17 350.351665
-0.191859 0.031990 3.194059 97.000000 30 350.351673
-0.342816 0.048849 3.181516 97.000000 29 350.351676
-0.791286 0.084934 3.099416 95.000000 26 350.351678
-1.155216 0.111415 3.210267 58.000000 24 350.351681
-1.486558 0.142859 3.150336 48.000000 22 350.351683
-1.829343 0.175488 3.076158 39.000000 20 350.351686
-3.380862 0.324339 4.570487 92.000000 18 350.351689
-3.912399 0.375335 4.339086 9.000000 16 350.351691
-2.794969 0.260750 2.838330 30.000000 15 350.351649
-2.820910 0.263173 2.366021 34.000000 13 350.351651
-3.012230 0.281552 2.068126 3.000000 11 350.351654
-3.441999 0.321726 1.895377 13.000000 9 350.351657
-3.374913 0.316049 1.457838 15.000000 7 350.351659
-3.310335 0.310585 1.066615 16.000000 5 350.351662
-3.267030 0.306522 0.714462 21.000000 3 350.351664
-3.202784 0.301058 0.381183 18.000000 1 350.351667
-2.802907 0.265932 2.587906 33.000000 14 350.351675
-2.835442 0.269022 2.157425 37.000000 12 350.351677
-3.495392 0.332253 2.148068 8.000000 10 350.351680
-3.416835 0.324788 1.674103 14.000000 8 350.351682
-3.366609 0.320607 1.265504 17.000000 6 350.351685
-3.309786 0.315779 0.892618 22.000000 4 350.351687
-3.248559 0.310509 0.546789 19.000000 2 350.351690
-3.182583 0.304764 0.222645 17.000000 0 350.351692
-0.040138 0.011140 3.219151 97.000000 31 350.351703
-0.489706 0.059908 3.136853 97.000000 28 350.351706
-0.639117 0.078973 3.119520 86.000000 27 350.351708
-0.944614 0.098010 3.081368 87.000000 25 350.351711
-1.315397 0.129187 3.173359 52.000000 23 350.351713
-1.652691 0.162032 3.109280 38.000000 21 350.351716
-3.089713 0.302936 4.632248 91.000000 19 350.351718
-3.696623 0.362447 4.522105 47.000000 17 350.351721
-0.191746 0.032660 3.194059 97.000000 30 350.351729
-0.342644 0.050045 3.181516 97.000000 29 350.351731
-0.790984 0.087696 3.099416 95.000000 26 350.351734
-1.154820 0.115447 3.210267 58.000000 24 350.351736
-1.486050 0.148047 3.150336 48.000000 22 350.351739
-1.828719 0.181873 3.076158 39.000000 20 350.351742
-3.379709 0.336138 4.570487 92.000000 18 350.351744
-3.927932 0.390667 4.357461 8.000000 16 350.351747
-2.790492 0.270161 2.834825 30.000000 15 350.351704
-2.816100 0.272643 2.362883 34.000000 13 350.351707
-3.007067 0.291661 2.065384 3.000000 11 350.351709
-3.480541 0.337588 1.916239 12.000000 9 350.351712
-3.406089 0.330967 1.470949 15.000000 7 350.351715
-3.337879 0.324927 1.075070 16.000000 5 350.351717
-3.295275 0.320779 0.720058 19.000000 3 350.351720
-3.231452 0.315136 0.383860 18.000000 1 350.351722
-2.798245 0.275349 2.584581 34.000000 14 350.351730
-2.830463 0.278522 2.154482 37.000000 12 350.351733
-3.451813 0.340275 1.690888 14.000000 8 350.351738
-3.398367 0.335606 1.277003 16.000000 6 350.351740
-3.337685 0.330201 0.899652 21.000000 4 350.351743
-3.281951 0.325266 0.551618 19.000000 2 350.351745
-3.211329 0.318833 0.223854 16.000000 0 350.351748
-0.040099 0.011280 3.219151 97.000000 31 350.351759
-0.489494 0.061617 3.136853 97.000000 28 350.351761
-0.638837 0.081203 3.119520 87.000000 27 350.351764
-0.944266 0.101307 3.081368 89.000000 25 350.351766
-1.314938 0.133778 3.173359 52.000000 23 350.351769
-1.652116 0.167800 3.109280 38.000000 21 350.351771
-3.088637 0.313719 4.632248 91.000000 19 350.351774
-3.695335 0.375348 4.522105 55.000000 17 350.351777
-0.191631 0.033329 3.194059 98.000000 30 350.351784
-0.342467 0.051241 3.181516 97.000000 29 350.351787
-0.790673 0.090456 3.099416 93.000000 26 350.351789
-1.154410 0.119477 3.210267 58.000000 24 350.351792
-1.485524 0.153234 3.150336 45.000000 22 350.351795
-1.828073 0.188255 3.076158 39.000000 20 350.351797
-3.378515 0.347933 4.570487 93.000000 18 350.351800
-3.946778 0.406460 4.379512 9.000000 16 350.351802
-2.785984 0.279544 2.831321 31.000000 15 350.351760
-2.811258 0.282082 2.359745 34.000000 13 350.351762
-3.001870 0.301738 2.062643 3.000000 11 350.351765
-3.514605 0.353280 1.934783 12.000000 9 350.351768
-3.437201 0.346105 1.484060 14.000000 7 350.351770
-3.370136 0.339946 1.084935 15.000000 5 350.351773
-3.323460 0.335238 0.725654 19.000000 3 350.351775
-3.260061 0.329418 0.386537 16.000000 1 350.351778
-2.793552 0.284736 2.581257 34.000000 14 350.351786
-2.825453 0.287990 2.151539 36.000000 12 350.351788
-3.482210 0.355550 1.705574 13.000000 8 350.351793
-3.425362 0.350349 1.286859 16.000000 6 350.351796
-3.370360 0.345318 0.907858 20.000000 4 350.351798
-3.310354 0.339754 0.555757 18.000000 2 350.351801
-3.244984 0.333617 0.225265 16.000000 0 350.351803
-0.040060 0.011420 3.219151 95.000000 31 350.351814
-0.489276 0.063326 3.136853 97.000000 28 350.351817
-0.638550 0.083433 3.119520 87.000000 27 350.351819
-0.943906 0.104602 3.081368 84.000000 25 350.351822
-1.314463 0.138367 3.173359 52.000000 23 350.351824
-1.651520 0.173566 3.109280 38.000000 21 350.351827
-3.087523 0.324499 4.632248 91.000000 19 350.351829
-3.694003 0.388245 4.522105 72.000000 17 350.351832
-0.191514 0.033998 3.194059 97.000000 30 350.351840
-0.342286 0.052436 3.181516 97.000000 29 350.351842
-0.790353 0.093216 3.099416 93.000000 26 350.351845
-1.153986 0.123506 3.210267 58.000000 24 350.351847
-1.484980 0.158418 3.150336 45.000000 22 350.351850
-1.827405 0.194635 3.076158 39.000000 20 350.351853
-3.377280 0.359724 4.570487 93.000000 18 350.351855
-3.972304 0.423107 4.408913 12.000000 16 350.351858
-2.781444 0.288898 2.827816 31.000000 15 350.351815
-2.806384 0.291492 2.356607 34.000000 13 350.351818
-2.996640 0.311782 2.059901 3.000000 11 350.351821
-3.553008 0.369672 1.955645 12.000000 9 350.351823
-3.472859 0.361946 1.499045 14.000000 7 350.351826
-3.402328 0.355195 1.094799 15.000000 5 350.351828
-3.351583 0.349898 0.731250 18.000000 3 350.351831
-3.288610 0.343903 0.389215 16.000000 1 350.351833
-2.792541 0.294486 2.581257 34.000000 14 350.351841
-2.820410 0.297427 2.148596 36.000000 12 350.351844
-3.517054 0.371517 1.722359 13.000000 8 350.351849
-3.456992 0.365782 1.298358 15.000000 6 350.351851
-3.398135 0.360154 0.914892 19.000000 4 350.351854
-3.343619 0.354966 0.560585 17.000000 2 350.351856
-3.273608 0.348112 0.226474 16.000000 0 350.351859
-0.040019 0.011560 3.219151 95.000000 31 350.351870
-0.489822 0.065136 3.141792 97.000000 28 350.351872
-0.638255 0.085661 3.119520 87.000000 27 350.351875
-0.943536 0.107897 3.081368 84.000000 25 350.351877
-1.313972 0.142954 3.173359 52.000000 23 350.351880
-1.650904 0.179330 3.109280 38.000000 21 350.351882
-3.086372 0.335274 4.632248 91.000000 19 350.351885
-3.692625 0.401137 4.522105 90.000000 17 350.351888
-0.191394 0.034666 3.194059 97.000000 30 350.351895
-0.342101 0.053631 3.181516 97.000000 29 350.351898
-0.790023 0.095974 3.099416 93.000000 26 350.351900
-1.153548 0.127533 3.210267 58.000000 24 350.351903
-1.484418 0.163601 3.150336 45.000000 22 350.351906
-1.824122 0.200728 3.071892 39.000000 20 350.351908
-3.376003 0.371511 4.570487 92.000000 18 350.351911
-3.991022 0.439195 4.430964 21.000000 16 350.351913
-2.776872 0.298225 2.824311 30.000000 15 350.351871
-2.801479 0.300870 2.353470 34.000000 13 350.351873
-2.995533 0.322240 2.059901 3.000000 11 350.351876
-3.591340 0.386337 1.976508 12.000000 9 350.351879
-3.508449 0.378039 1.514029 14.000000 7 350.351881
-3.434455 0.370673 1.104663 14.000000 5 350.351884
-3.384529 0.365284 0.737778 17.000000 3 350.351886
-3.317097 0.358592 0.391892 17.000000 1 350.351889
-2.787783 0.303827 2.577932 34.000000 14 350.351897
-2.815337 0.306833 2.145653 37.000000 12 350.351899
-3.556342 0.388224 1.741241 13.000000 8 350.351904
-3.493250 0.381954 1.311499 15.000000 6 350.351907
-3.430679 0.375718 0.923098 18.000000 4 350.351909
-3.371896 0.369876 0.564724 17.000000 2 350.351912
-3.307135 0.363356 0.227885 16.000000 0 350.351915
-0.039979 0.011700 3.219151 97.000000 31 350.351925
-0.489592 0.066845 3.141792 96.000000 28 350.351928
-0.637952 0.087889 3.119520 87.000000 27 350.351930
-0.943153 0.111190 3.081368 82.000000 25 350.351933
-1.313465 0.147540 3.173359 52.000000 23 350.351935
-1.650268 0.185092 3.109280 38.000000 21 350.351938
-3.085183 0.346046 4.632248 91.000000 19 350.351941
-3.694388 0.414382 4.525942 97.000000 17 350.351943
-0.191272 0.035334 3.194059 97.000000 30 350.351951
-0.341912 0.054825 3.181516 97.000000 29 350.351953
-0.789683 0.098731 3.099416 95.000000 26 350.351956
-1.153095 0.131559 3.210267 60.000000 24 350.351959
-1.483838 0.168782 3.150336 45.000000 22 350.351961
-1.823410 0.207094 3.071892 39.000000 20 350.351964
-3.374686 0.383293 4.570487 92.000000 18 350.351966
-4.019781 0.456567 4.464041 18.000000 16 350.351969
-2.772270 0.307523 2.820807 30.000000 15 350.351926
-2.800411 0.310647 2.353470 34.000000 13 350.351929
-2.994390 0.332695 2.059901 3.000000 11 350.351932
-3.629597 0.403274 1.997370 13.000000 9 350.351934
-3.543967 0.394386 1.529013 13.000000 7 350.351937
-3.466515 0.386379 1.114528 14.000000 5 350.351939
-3.417407 0.380905 0.744306 16.000000 3 350.351942
-3.350470 0.374037 0.395015 17.000000 1 350.351944
-2.782995 0.313139 2.574607 34.000000 14 350.351952
-2.810232 0.316206 2.142710 37.000000 12 350.351955
-3.262003 0.367617 2.013849 2.000000 10 350.351957
-3.591045 0.404702 1.758026 13.000000 8 350.351960
-3.524744 0.397853 1.322998 15.000000 6 350.351962
-3.463156 0.391513 0.931305 17.000000 4 350.351965
-3.405029 0.385544 0.569553 16.000000 2 350.351967
-3.340595 0.378838 0.229296 16.000000 0 350.351970
-0.039938 0.011839 3.219151 97.000000 31 350.351981
-0.489356 0.068554 3.141792 96.000000 28 350.351983
-0.637641 0.090115 3.119520 87.000000 27 350.351986
-0.944242 0.114661 3.086140 74.000000 25 350.351988
-1.312942 0.152124 3.173359 52.000000 23 350.351991
-1.649612 0.190851 3.109280 38.000000 21 350.351993
-3.083956 0.356813 4.632248 92.000000 19 350.351996
-3.692919 0.427275 4.525942 96.000000 17 350.351999
-0.191147 0.036001 3.194059 97.000000 30 350.352006
-0.341718 0.056018 3.181516 97.000000 29 350.352009
-0.789333 0.101487 3.099416 95.000000 26 350.352011
-1.152629 0.135583 3.210267 60.000000 24 350.352014
-1.481077 0.173706 3.145835 46.000000 22 350.352017
-1.822676 0.213457 3.071892 39.000000 20 350.352019
-3.373328 0.395071 4.570487 92.000000 18 350.352022
-4.034998 0.472568 4.482417 11.000000 16 350.352024
-2.767637 0.316793 2.817302 31.000000 15 350.351982
-2.795442 0.319978 2.350332 32.000000 13 350.351985
-2.989057 0.342669 2.057160 3.000000 11 350.351987
-3.663378 0.419978 2.015914 10.000000 9 350.351990
-3.579414 0.410985 1.543997 13.000000 7 350.351992
-3.503272 0.402862 1.125801 14.000000 5 350.351995
-3.450218 0.396760 0.750835 16.000000 3 350.351997
-3.378828 0.389148 0.397693 16.000000 1 350.352000
-2.778175 0.322421 2.571282 34.000000 14 350.352008
-2.805096 0.325548 2.139766 37.000000 12 350.352010
-3.235005 0.376014 1.998655 2.000000 10 350.352013
-3.630184 0.421950 1.776908 12.000000 8 350.352015
-3.560860 0.414522 1.336140 14.000000 6 350.352018
-3.495564 0.407540 0.939511 17.000000 4 350.352020
