# .PCD v.7 - Point Cloud Data file format
VERSION .7
FIELDS x y z intensity ring timestamp
SIZE 4 4 4 4 2 8
TYPE F F F F U D
COUNT 1 1 1 1 1 1
WIDTH 943
HEIGHT 1
VIEWPOINT 0 0 0 1 0 0 0
POINTS 943
DATA ascii
0.192948 2.087865 0.705861 16.000000 5 349.976770
0.200703 2.171779 0.505556 13.000000 3 349.976772
0.188687 2.037874 0.276324 18.000000 1 349.976775
0.173396 1.855148 1.740070 25.000000 14 349.976783
0.257915 2.759350 2.101505 17.000000 12 349.976785
0.250193 2.671700 1.661842 8.000000 10 349.976788
0.233691 2.495460 1.246101 11.000000 8 349.976790
0.217532 2.318551 0.899186 14.000000 6 349.976793
0.201528 2.143954 0.610090 14.000000 4 349.976795
0.201037 2.134725 0.390891 15.000000 2 349.976798
0.196606 2.083785 0.178107 54.000000 0 349.976801
0.011332 0.040806 3.299148 97.000000 31 349.976811
0.062041 0.512929 3.285031 97.000000 28 349.976814
0.082300 0.673588 3.285958 86.000000 27 349.976816
0.103542 1.011609 3.296096 92.000000 25 349.976819
0.131680 1.360301 3.279217 92.000000 23 349.976821
0.168712 1.745917 3.280438 14.000000 21 349.976824
0.152720 1.580408 2.404588 18.000000 19 349.976827
0.154058 1.594229 1.993558 19.000000 17 349.976829
0.033390 0.197497 3.293891 98.000000 30 349.976837
0.051273 0.354335 3.290887 96.000000 29 349.976839
0.092077 0.841118 3.292984 94.000000 26 349.976842
0.116712 1.184175 3.290044 93.000000 24 349.976845
0.152146 1.549107 3.280860 15.000000 22 349.976847
0.182628 1.862714 3.131615 17.000000 20 349.976850
0.155247 1.583434 2.180778 23.000000 18 349.976852
0.156254 1.593682 1.814247 21.000000 16 349.976855
0.160925 1.686776 1.744911 27.000000 15 349.976812
0.261685 2.742848 2.303265 15.000000 13 349.976815
0.262397 2.745237 1.892672 11.000000 11 349.976818
0.249685 2.612217 1.459588 9.000000 9 349.976820
0.232082 2.423593 1.071993 16.000000 7 349.976823
0.200235 2.087179 0.705861 16.000000 5 349.976825
0.211097 2.200404 0.511151 13.000000 3 349.976828
0.194369 2.022331 0.274985 18.000000 1 349.976830
0.179870 1.854532 1.740070 25.000000 14 349.976838
0.267155 2.754410 2.098562 17.000000 12 349.976841
0.262436 2.700848 1.679569 8.000000 10 349.976843
0.245912 2.530767 1.262885 11.000000 8 349.976846
0.233860 2.402381 0.928754 18.000000 6 349.976848
0.201934 2.070672 0.592505 23.000000 4 349.976851
0.208968 2.138939 0.391581 15.000000 2 349.976853
0.203392 2.078114 0.177905 50.000000 0 349.976856
0.011475 0.040767 3.299148 97.000000 31 349.976867
0.063831 0.512709 3.285031 97.000000 28 349.976869
0.084650 0.673296 3.285958 85.000000 27 349.976872
0.107072 1.011241 3.296096 92.000000 25 349.976874
0.136428 1.359833 3.279217 92.000000 23 349.976877
0.174806 1.745318 3.280438 14.000000 21 349.976879
0.157955 1.577065 2.400455 18.000000 19 349.976882
0.159622 1.593681 1.993558 19.000000 17 349.976885
0.034079 0.197379 3.293891 97.000000 30 349.976892
0.052509 0.354154 3.290887 96.000000 29 349.976895
0.095013 0.840792 3.292984 95.000000 26 349.976897
0.120845 1.183761 3.290044 93.000000 24 349.976900
0.157773 1.550733 3.285361 15.000000 22 349.976903
0.189129 1.862065 3.131615 15.000000 20 349.976905
0.160468 1.579884 2.176788 23.000000 18 349.976908
0.161816 1.593127 1.814247 21.000000 16 349.976910
0.167163 1.689753 1.748416 26.000000 15 349.976868
0.271258 2.741918 2.303265 15.000000 13 349.976871
0.271978 2.744304 1.892672 15.000000 11 349.976873
0.262734 2.651007 1.480450 9.000000 9 349.976876
0.243747 2.455061 1.085104 12.000000 7 349.976878
0.221288 2.224906 0.746728 13.000000 5 349.976881
0.217318 2.184989 0.508353 12.000000 3 349.976883
0.198465 1.991907 0.272308 25.000000 1 349.976886
0.186716 1.857608 1.743395 25.000000 14 349.976894
0.276768 2.753460 2.098562 17.000000 12 349.976896
0.273158 2.712784 1.687166 8.000000 10 349.976899
0.257927 2.561503 1.277572 11.000000 8 349.976901
0.240348 2.382756 0.922183 23.000000 6 349.976904
0.209161 2.069955 0.592505 25.000000 4 349.976906
0.215436 2.128342 0.390201 15.000000 2 349.976909
0.210141 2.072421 0.177704 46.000000 0 349.976912
0.011617 0.040726 3.299148 93.000000 31 349.976922
0.065620 0.512483 3.285031 97.000000 28 349.976925
0.087131 0.674006 3.290853 86.000000 27 349.976927
0.110601 1.010861 3.296096 92.000000 25 349.976930
0.141174 1.359349 3.279217 91.000000 23 349.976932
0.181144 1.747080 3.284827 14.000000 21 349.976935
0.163169 1.573705 2.396322 18.000000 19 349.976938
0.164853 1.589925 1.989721 19.000000 17 349.976940
0.034768 0.197259 3.293891 98.000000 30 349.976948
0.053826 0.354496 3.295859 96.000000 29 349.976950
0.097947 0.840455 3.292984 92.000000 26 349.976953
0.124976 1.183331 3.290044 91.000000 24 349.976956
0.163185 1.550173 3.285361 15.000000 22 349.976958
0.195627 1.861393 3.131615 14.000000 20 349.976961
0.165982 1.579314 2.176788 23.000000 18 349.976963
0.167376 1.592552 1.814247 22.000000 16 349.976966
0.173060 1.689159 1.748416 26.000000 15 349.976923
0.280431 2.737082 2.300128 15.000000 13 349.976926
0.281129 2.739178 1.889930 15.000000 11 349.976929
0.275605 2.685331 1.498994 8.000000 9 349.976931
0.256582 2.495700 1.101962 11.000000 7 349.976934
0.236917 2.300473 0.769275 13.000000 5 349.976936
0.220918 2.145126 0.500892 12.000000 3 349.976939
0.205417 1.991202 0.272308 24.000000 1 349.976941
0.193199 1.856945 1.743395 25.000000 14 349.976949
0.285960 2.748457 2.095619 17.000000 12 349.976952
0.285754 2.741830 1.704893 11.000000 10 349.976954
0.270631 2.596699 1.294356 11.000000 8 349.976957
0.254058 2.433569 0.940253 14.000000 6 349.976959
0.217396 2.078881 0.594850 23.000000 4 349.976962
0.222348 2.122652 0.389511 14.000000 2 349.976965
0.216852 2.066706 0.177502 47.000000 0 349.976967
0.011759 0.040685 3.299148 92.000000 31 349.976978
0.067409 0.512251 3.285031 97.000000 28 349.976980
0.089483 0.673698 3.290853 88.000000 27 349.976983
0.114129 1.010469 3.296096 92.000000 25 349.976985
0.146127 1.360790 3.283819 91.000000 23 349.976988
0.187241 1.746437 3.284827 14.000000 21 349.976991
0.168361 1.570328 2.392190 18.000000 19 349.976993
0.170402 1.589340 1.989721 20.000000 17 349.976996
0.035456 0.197136 3.293891 98.000000 30 349.977003
0.055063 0.354306 3.295859 96.000000 29 349.977006
0.100880 0.840108 3.292984 92.000000 26 349.977009
0.129106 1.182888 3.290044 90.000000 24 349.977011
0.168595 1.549594 3.285361 15.000000 22 349.977014
0.202405 1.863292 3.135881 13.000000 20 349.977016
0.171169 1.575729 2.172799 23.000000 18 349.977019
0.172568 1.588588 1.810572 22.000000 16 349.977021
0.178955 1.688545 1.748416 25.000000 15 349.976979
0.289573 2.732215 2.296990 15.000000 13 349.976982
0.290689 2.738180 1.889930 15.000000 11 349.976984
0.289186 2.724001 1.519856 8.000000 9 349.976987
0.269214 2.531668 1.116946 12.000000 7 349.976989
0.253583 2.380728 0.793231 18.000000 5 349.976992
0.221120 2.075957 0.487836 23.000000 3 349.976994
0.213951 2.005329 0.273646 20.000000 1 349.976997
0.200079 1.859972 1.746720 25.000000 14 349.977005
0.295552 2.747442 2.095619 17.000000 12 349.977007
0.296709 2.753675 1.712490 16.000000 10 349.977010
0.282610 2.622813 1.306944 10.000000 8 349.977012
0.265592 2.460839 0.950109 11.000000 6 349.977015
0.242414 2.242413 0.634708 14.000000 4 349.977017
0.228690 2.112016 0.388131 13.000000 2 349.977020
0.224065 2.065937 0.177502 48.000000 0 349.977023
0.011901 0.040644 3.299148 97.000000 31 349.977033
0.069197 0.512013 3.285031 95.000000 28 349.977036
0.091834 0.673382 3.290853 88.000000 27 349.977038
0.117656 1.010065 3.296096 92.000000 25 349.977041
0.150876 1.360272 3.283819 91.000000 23 349.977043
0.193336 1.745773 3.284827 15.000000 21 349.977046
0.173842 1.569731 2.392190 19.000000 19 349.977048
0.175596 1.585549 1.985884 20.000000 17 349.977051
0.036144 0.197011 3.293891 98.000000 30 349.977059
0.056300 0.354112 3.295859 95.000000 29 349.977061
0.103812 0.839751 3.292984 92.000000 26 349.977064
0.133234 1.182430 3.290044 90.000000 24 349.977066
0.174003 1.548996 3.285361 15.000000 22 349.977069
0.209490 1.867757 3.144413 12.000000 20 349.977071
0.176332 1.572127 2.168809 23.000000 18 349.977074
0.178112 1.587976 1.810572 22.000000 16 349.977077
0.184848 1.687910 1.748416 25.000000 15 349.977034
0.299109 2.731187 2.296990 16.000000 13 349.977037
0.300245 2.737149 1.889930 15.000000 11 349.977039
0.298693 2.722975 1.519856 8.000000 9 349.977042
0.282100 2.567579 1.131930 11.000000 7 349.977045
0.258743 2.351217 0.784776 20.000000 5 349.977047
0.228903 2.080056 0.488768 23.000000 3 349.977050
0.221495 2.009520 0.274093 20.000000 1 349.977052
0.206571 1.859263 1.746720 25.000000 14 349.977060
0.304694 2.742377 2.092676 18.000000 12 349.977063
0.305842 2.748338 1.709958 16.000000 10 349.977065
0.295278 2.653386 1.321631 9.000000 8 349.977068
0.278888 2.502137 0.964893 11.000000 6 349.977070
0.261564 2.342996 0.659327 14.000000 4 349.977073
0.233860 2.091519 0.385372 14.000000 2 349.977075
0.230719 2.060177 0.177301 51.000000 0 349.977078
0.012043 0.040602 3.299148 97.000000 31 349.977089
0.070983 0.511768 3.285031 95.000000 28 349.977091
0.094184 0.673057 3.290853 86.000000 27 349.977094
0.121359 1.011131 3.300868 92.000000 25 349.977096
0.155623 1.359737 3.283819 92.000000 23 349.977099
0.199701 1.747468 3.289215 15.000000 21 349.977101
0.179000 1.566319 2.388057 19.000000 19 349.977104
0.180766 1.581742 1.982047 20.000000 17 349.977106
0.036832 0.196884 3.293891 98.000000 30 349.977114
0.057536 0.353913 3.295859 95.000000 29 349.977117
0.106743 0.839383 3.292984 92.000000 26 349.977119
0.137361 1.181958 3.290044 91.000000 24 349.977122
0.179409 1.548379 3.285361 14.000000 22 349.977124
0.216608 1.872197 3.152945 12.000000 20 349.977127
0.181472 1.568508 2.164820 23.000000 18 349.977130
0.183265 1.583977 1.806897 22.000000 16 349.977132
0.190739 1.687254 1.748416 25.000000 15 349.977090
0.308203 2.726258 2.293852 15.000000 13 349.977092
0.309327 2.731929 1.887189 15.000000 11 349.977095
0.312183 2.757133 1.538401 11.000000 9 349.977097
0.294718 2.598823 1.145041 10.000000 7 349.977100
0.275070 2.421799 0.805914 11.000000 5 349.977103
0.239488 2.108529 0.494364 16.000000 3 349.977105
0.229072 2.013683 0.274539 23.000000 1 349.977108
0.213485 1.862240 1.750044 24.000000 14 349.977115
0.314265 2.741297 2.092676 17.000000 12 349.977118
0.314942 2.742970 1.707426 16.000000 10 349.977121
0.307644 2.679392 1.334219 9.000000 8 349.977123
0.291397 2.533989 0.976392 11.000000 6 349.977126
0.274747 2.385527 0.669878 18.000000 4 349.977128
0.242294 2.100529 0.386752 19.000000 2 349.977131
0.237336 2.054396 0.177099 52.000000 0 349.977133
0.012184 0.040560 3.299148 96.000000 31 349.977144
0.072769 0.511517 3.285031 97.000000 28 349.977147
0.096533 0.672724 3.290853 83.000000 27 349.977149
0.124888 1.010701 3.300868 92.000000 25 349.977152
0.160368 1.359185 3.283819 91.000000 23 349.977154
0.205800 1.746760 3.289215 15.000000 21 349.977157
0.184467 1.565684 2.388057 19.000000 19 349.977159
0.186286 1.581101 1.982047 20.000000 17 349.977162
0.037519 0.196754 3.293891 98.000000 30 349.977170
0.058771 0.353710 3.295859 95.000000 29 349.977172
0.109672 0.839006 3.292984 92.000000 26 349.977175
0.141486 1.181471 3.290044 91.000000 24 349.977177
0.184813 1.547743 3.285361 14.000000 22 349.977180
0.223759 1.876608 3.161477 12.000000 20 349.977183
0.186589 1.564872 2.160830 23.000000 18 349.977185
0.188793 1.583327 1.806897 23.000000 16 349.977188
0.196628 1.686578 1.748416 25.000000 15 349.977145
0.317718 2.725166 2.293852 15.000000 13 349.977148
0.318861 2.730833 1.887189 15.000000 11 349.977150
0.323861 2.773628 1.547673 16.000000 9 349.977153
0.307557 2.630010 1.158153 10.000000 7 349.977156
0.287429 2.454178 0.815778 10.000000 5 349.977158
0.262847 2.244289 0.520477 14.000000 3 349.977161
0.236099 2.012871 0.274539 28.000000 1 349.977163
0.219984 1.861484 1.750044 25.000000 14 349.977171
0.323357 2.736169 2.089733 17.000000 12 349.977174
0.324008 2.737573 1.704893 16.000000 10 349.977176
0.320196 2.705344 1.346807 9.000000 8 349.977179
0.304688 2.570473 0.989533 10.000000 6 349.977181
0.284791 2.399034 0.673395 22.000000 4 349.977184
0.249625 2.099670 0.386752 18.000000 2 349.977186
0.244506 2.053555 0.177099 58.000000 0 349.977189
0.012326 0.040517 3.299148 96.000000 31 349.977200
0.074554 0.511260 3.285031 97.000000 28 349.977202
0.099030 0.673390 3.295749 83.000000 27 349.977205
0.128415 1.010259 3.300868 92.000000 25 349.977207
0.165112 1.358617 3.283819 92.000000 23 349.977210
0.212184 1.748409 3.293604 15.000000 21 349.977212
0.189592 1.562237 2.383924 19.000000 19 349.977215
0.191418 1.577258 1.978210 20.000000 17 349.977217
0.038205 0.196622 3.293891 98.000000 30 349.977225
0.059915 0.352977 3.290887 96.000000 29 349.977228
0.112600 0.838618 3.292984 92.000000 26 349.977230
0.145609 1.180970 3.290044 93.000000 24 349.977233
0.190215 1.547089 3.285361 14.000000 22 349.977235
0.230944 1.880993 3.170009 13.000000 20 349.977238
0.192051 1.564211 2.160830 23.000000 18 349.977241
0.193905 1.579294 1.803222 23.000000 16 349.977243
0.202514 1.685881 1.748416 25.000000 15 349.977201
0.326764 2.720175 2.290714 17.000000 13 349.977203
0.327892 2.725551 1.884447 15.000000 11 349.977206
0.332482 2.763683 1.543037 16.000000 9 349.977209
0.320617 2.661139 1.171264 9.000000 7 349.977211
0.301166 2.496025 0.828461 10.000000 5 349.977214
0.284213 2.355527 0.541928 15.000000 3 349.977216
0.243721 2.016978 0.274985 32.000000 1 349.977219
0.226932 1.864411 1.753369 24.000000 14 349.977227
0.332907 2.735023 2.089733 18.000000 12 349.977229
0.333562 2.736425 1.704893 16.000000 10 349.977232
0.332933 2.731241 1.359396 9.000000 8 349.977234
0.317664 2.602208 1.001032 11.000000 6 349.977237
0.298472 2.441447 0.683946 13.000000 4 349.977239
0.257554 2.103702 0.387442 12.000000 2 349.977242
0.251064 2.047730 0.176898 62.000000 0 349.977244
0.012467 0.040474 3.299148 97.000000 31 349.977255
0.076339 0.510996 3.285031 97.000000 28 349.977258
0.101380 0.673041 3.295749 86.000000 27 349.977260
0.131747 1.008323 3.296096 90.000000 25 349.977263
0.169853 1.358032 3.283819 91.000000 23 349.977265
0.218286 1.747658 3.293604 15.000000 21 349.977268
0.195044 1.561566 2.383924 18.000000 19 349.977270
0.196922 1.576581 1.978210 20.000000 17 349.977273
0.038891 0.196487 3.293891 98.000000 30 349.977281
0.061146 0.352765 3.290887 96.000000 29 349.977283
0.115699 0.839466 3.297824 94.000000 26 349.977286
0.149948 1.182166 3.294737 91.000000 24 349.977288
0.195614 1.546415 3.285361 14.000000 22 349.977291
0.238489 1.887938 3.182806 15.000000 20 349.977294
0.197132 1.560541 2.156841 24.000000 18 349.977296
0.198992 1.575244 1.799546 22.000000 16 349.977299
0.208835 1.688704 1.751920 25.000000 15 349.977256
0.336257 2.719018 2.290714 17.000000 13 349.977259
0.337404 2.724391 1.884447 15.000000 11 349.977261
0.341583 2.758109 1.540719 16.000000 9 349.977264
0.333328 2.687608 1.182502 9.000000 7 349.977267
0.314016 2.528283 0.838325 9.000000 5 349.977269
0.291828 2.349645 0.540995 17.000000 3 349.977272
0.250761 2.016115 0.274985 36.000000 1 349.977274
0.233438 1.863608 1.753369 24.000000 14 349.977282
0.341949 2.729834 2.086790 18.000000 12 349.977285
0.342575 2.730966 1.702361 17.000000 10 349.977287
0.345854 2.757082 1.371984 16.000000 8 349.977290
0.330278 2.629197 1.010888 10.000000 6 349.977292
0.310632 2.469326 0.690980 11.000000 4 349.977295
0.281608 2.235451 0.406067 11.000000 2 349.977297
0.258211 2.046842 0.176898 66.000000 0 349.977300
0.012608 0.040430 3.299148 97.000000 31 349.977311
0.078122 0.510727 3.285031 97.000000 28 349.977313
0.103728 0.672683 3.295749 86.000000 27 349.977316
0.135266 1.007857 3.296096 90.000000 25 349.977318
0.174842 1.359369 3.288422 90.000000 23 349.977321
0.224385 1.746885 3.293604 15.000000 21 349.977323
0.200135 1.558084 2.379791 19.000000 19 349.977326
0.202016 1.572704 1.974373 20.000000 17 349.977329
0.039577 0.196350 3.293891 98.000000 30 349.977336
0.062377 0.352550 3.290887 95.000000 29 349.977339
0.118628 0.839057 3.297824 94.000000 26 349.977341
0.154074 1.181636 3.294737 93.000000 24 349.977344
0.201011 1.545723 3.285361 14.000000 22 349.977347
0.246757 1.900025 3.204136 16.000000 20 349.977349
0.202190 1.556854 2.152851 24.000000 18 349.977352
0.204053 1.571178 1.795871 23.000000 16 349.977354
0.214728 1.687964 1.751920 25.000000 15 349.977312
0.345746 2.717828 2.290714 17.000000 13 349.977314
0.346384 2.719049 1.881706 15.000000 11 349.977317
0.350648 2.752505 1.538401 17.000000 9 349.977320
0.345640 2.709421 1.191867 9.000000 7 349.977322
0.327094 2.560482 0.848190 9.000000 5 349.977325
0.306876 2.402212 0.551254 15.000000 3 349.977327
0.258428 2.020168 0.275431 39.000000 1 349.977330
0.239942 1.862782 1.753369 25.000000 14 349.977338
0.351476 2.728624 2.086790 19.000000 12 349.977340
0.352106 2.729754 1.702361 17.000000 10 349.977343
0.358959 2.782865 1.384572 18.000000 8 349.977345
0.343688 2.660813 1.022387 9.000000 6 349.977348
0.324238 2.506791 0.700358 10.000000 4 349.977350
0.298951 2.308122 0.416414 14.000000 2 349.977353
0.265354 2.045928 0.176898 69.000000 0 349.977355
0.012750 0.040386 3.299148 97.000000 31 349.977366
0.080025 0.511219 3.289970 97.000000 28 349.977369
0.106076 0.672316 3.295749 86.000000 27 349.977371
0.138783 1.007379 3.296096 90.000000 25 349.977374
0.179586 1.358750 3.288422 85.000000 23 349.977376
0.230482 1.746091 3.293604 15.000000 21 349.977379
0.205573 1.557377 2.379791 19.000000 19 349.977381
0.207504 1.571989 1.974373 20.000000 17 349.977384
0.040262 0.196211 3.293891 97.000000 30 349.977392
0.063608 0.352330 3.290887 96.000000 29 349.977394
0.121556 0.838637 3.297824 91.000000 26 349.977397
0.158197 1.181091 3.294737 91.000000 24 349.977399
0.206405 1.545012 3.285361 13.000000 22 349.977402
0.255458 1.914663 3.229732 17.000000 20 349.977405
0.207224 1.553152 2.148862 24.000000 18 349.977407
0.209536 1.570456 1.795871 23.000000 16 349.977410
0.221082 1.690740 1.755425 25.000000 15 349.977367
0.354726 2.712744 2.287576 18.000000 13 349.977370
0.355330 2.713676 1.878964 15.000000 11 349.977373
0.360254 2.751264 1.538401 17.000000 9 349.977375
0.358109 2.731181 1.201232 10.000000 7 349.977378
0.340402 2.592620 0.858054 9.000000 5 349.977380
0.319735 2.435219 0.557782 11.000000 3 349.977383
0.266128 2.024191 0.275877 45.000000 1 349.977385
0.246443 1.861933 1.753369 25.000000 14 349.977393
0.360468 2.723373 2.083847 19.000000 12 349.977396
0.361066 2.724234 1.699828 17.000000 10 349.977398
0.367478 2.772597 1.380376 19.000000 8 349.977401
0.356702 2.687685 1.032243 9.000000 6 349.977403
0.337469 2.539371 0.708564 10.000000 4 349.977406
0.313538 2.356153 0.423312 19.000000 2 349.977408
0.272494 2.044989 0.176898 71.000000 0 349.977411
0.012890 0.040341 3.299148 97.000000 31 349.977422
0.081685 0.510169 3.285031 97.000000 28 349.977424
0.108422 0.671942 3.295749 85.000000 27 349.977427
0.142299 1.006889 3.296096 90.000000 25 349.977429
0.184328 1.358115 3.288422 85.000000 23 349.977432
0.236575 1.745276 3.293604 15.000000 21 349.977434
0.210630 1.553861 2.375658 20.000000 19 349.977437
0.212560 1.568079 1.970536 20.000000 17 349.977440
0.040947 0.196069 3.293891 98.000000 30 349.977447
0.064837 0.352106 3.290887 95.000000 29 349.977450
0.124483 0.838208 3.297824 91.000000 26 349.977452
0.162319 1.180531 3.294737 91.000000 24 349.977455
0.211797 1.544282 3.285361 13.000000 22 349.977458
0.264263 1.929263 3.255327 17.000000 20 349.977460
0.212645 1.552419 2.148862 24.000000 18 349.977463
0.214556 1.566356 1.792196 23.000000 16 349.977465
0.226982 1.689958 1.755425 25.000000 15 349.977423
0.364193 2.711489 2.287576 17.000000 13 349.977425
0.364243 2.708276 1.876223 15.000000 11 349.977428
0.369265 2.745599 1.536083 17.000000 9 349.977431
0.373210 2.771264 1.218090 19.000000 7 349.977433
0.353937 2.624696 0.867918 8.000000 5 349.977436
0.333486 2.473033 0.565243 11.000000 3 349.977438
0.273192 2.023249 0.275877 52.000000 1 349.977441
0.252941 1.861061 1.753369 24.000000 14 349.977449
0.369428 2.718093 2.080903 19.000000 12 349.977451
0.369992 2.718686 1.697296 17.000000 10 349.977454
0.377154 2.771297 1.380376 19.000000 8 349.977456
0.369907 2.714499 1.042099 9.000000 6 349.977459
0.350931 2.571890 0.716771 10.000000 4 349.977461
0.332487 2.433550 0.434349 10.000000 2 349.977464
0.279631 2.044025 0.176898 75.000000 0 349.977467
0.013031 0.040296 3.299148 97.000000 31 349.977477
0.083466 0.509881 3.285031 97.000000 28 349.977480
0.110767 0.671559 3.295749 86.000000 27 349.977482
0.145812 1.006386 3.296096 90.000000 25 349.977485
0.189067 1.357464 3.288422 91.000000 23 349.977487
0.242666 1.744440 3.293604 13.000000 21 349.977490
0.215665 1.550329 2.371525 20.000000 19 349.977493
0.218032 1.567327 1.970536 20.000000 17 349.977495
0.041631 0.195925 3.293891 98.000000 30 349.977503
0.066066 0.351877 3.290887 95.000000 29 349.977505
0.127408 0.837768 3.297824 92.000000 26 349.977508
0.166439 1.179958 3.294737 91.000000 24 349.977511
0.217186 1.543533 3.285361 13.000000 22 349.977513
0.273174 1.943825 3.280923 16.000000 20 349.977516
0.217643 1.548683 2.144872 25.000000 18 349.977518
0.220023 1.565598 1.792196 23.000000 16 349.977521
0.233367 1.692689 1.758929 25.000000 15 349.977478
0.373124 2.706346 2.284439 17.000000 13 349.977481
0.373123 2.702846 1.873482 15.000000 11 349.977484
0.378847 2.744294 1.536083 17.000000 9 349.977486
0.380976 2.756168 1.212471 19.000000 7 349.977489
0.367701 2.656708 0.877783 8.000000 5 349.977491
0.346830 2.505915 0.571772 10.000000 3 349.977494
0.280936 2.027216 0.276324 57.000000 1 349.977496
0.259951 1.863866 1.756694 24.000000 14 349.977504
0.378355 2.712784 2.077960 19.000000 12 349.977507
0.379479 2.717378 1.697296 17.000000 10 349.977509
0.386198 2.765469 1.378278 19.000000 8 349.977512
0.383304 2.741253 1.051955 11.000000 6 349.977514
0.363950 2.599531 0.723804 10.000000 4 349.977517
0.345105 2.461800 0.438488 10.000000 2 349.977519
0.287458 2.047985 0.177099 81.000000 0 349.977522
0.013172 0.040250 3.299148 97.000000 31 349.977533
0.085374 0.510353 3.289970 97.000000 28 349.977535
0.113110 0.671169 3.295749 86.000000 27 349.977538
0.149325 1.005871 3.296096 90.000000 25 349.977540
0.193805 1.356795 3.288422 91.000000 23 349.977543
0.248754 1.743582 3.293604 13.000000 21 349.977545
0.220677 1.546781 2.367392 20.000000 19 349.977548
0.223049 1.563383 1.966699 21.000000 17 349.977551
0.042315 0.195779 3.293891 98.000000 30 349.977558
0.067294 0.351645 3.290887 96.000000 29 349.977561
0.130332 0.837319 3.297824 92.000000 26 349.977563
0.170804 1.181077 3.299429 91.000000 24 349.977566
0.222573 1.542766 3.285361 13.000000 22 349.977569
0.282561 1.960929 3.310784 16.000000 20 349.977571
0.223047 1.547913 2.144872 24.000000 18 349.977574
0.225003 1.561465 1.788521 24.000000 16 349.977576
0.239274 1.691864 1.758929 25.000000 15 349.977534
0.382569 2.705026 2.284439 17.000000 13 349.977537
0.381969 2.697387 1.870740 15.000000 11 349.977539
0.387803 2.738568 1.533765 17.000000 9 349.977542
0.390595 2.754821 1.212471 19.000000 7 349.977544
0.383041 2.698156 0.890466 8.000000 5 349.977547
0.360409 2.538734 0.578300 9.000000 3 349.977549
0.288011 2.026224 0.276324 62.000000 1 349.977552
0.266456 1.862947 1.756694 24.000000 14 349.977560
0.387822 2.711446 2.077960 20.000000 12 349.977562
0.388351 2.711769 1.694763 17.000000 10 349.977565
0.395205 2.759611 1.376180 20.000000 8 349.977567
0.396222 2.763271 1.060169 22.000000 6 349.977570
0.377857 2.631924 0.732011 9.000000 4 349.977572
0.358628 2.494893 0.443317 10.000000 2 349.977575
0.293894 2.042024 0.176898 82.000000 0 349.977578
0.013312 0.040204 3.299148 96.000000 31 349.977588
0.087155 0.510051 3.289970 97.000000 28 349.977591
0.115453 0.670770 3.295749 86.000000 27 349.977593
0.152835 1.005343 3.296096 92.000000 25 349.977596
0.198540 1.356111 3.288422 91.000000 23 349.977598
0.255185 1.745073 3.297992 14.000000 21 349.977601
0.225668 1.543217 2.363259 20.000000 19 349.977604
0.228041 1.559422 1.962862 21.000000 17 349.977606
0.042998 0.195630 3.293891 98.000000 30 349.977614
0.068521 0.351407 3.290887 96.000000 29 349.977616
0.133254 0.836858 3.297824 92.000000 26 349.977619
0.174925 1.180474 3.299429 91.000000 24 349.977622
0.227638 1.539825 3.280860 13.000000 22 349.977624
0.289785 1.962511 3.315050 16.000000 20 349.977627
0.228009 1.544144 2.140883 24.000000 18 349.977629
0.229957 1.557316 1.784846 24.000000 16 349.977632
0.245178 1.691018 1.758929 25.000000 15 349.977589
0.391450 2.699822 2.281301 17.000000 13 349.977592
0.391382 2.696037 1.870740 15.000000 11 349.977595
0.397360 2.737198 1.533765 17.000000 9 349.977597
0.399542 2.748853 1.210598 19.000000 7 349.977600
0.393839 2.706297 0.893284 8.000000 5 349.977602
0.374220 2.571488 0.584828 9.000000 3 349.977605
0.295800 2.030133 0.276770 66.000000 1 349.977607
0.272957 1.862005 1.756694 24.000000 14 349.977615
0.396698 2.706077 2.075017 19.000000 12 349.977618
0.397815 2.710397 1.694763 17.000000 10 349.977620
0.404177 2.753725 1.374082 20.000000 8 349.977623
0.405865 2.761872 1.060169 22.000000 6 349.977625
0.390579 2.654634 0.737872 9.000000 4 349.977628
0.371665 2.523022 0.447456 9.000000 2 349.977631
0.300291 2.036042 0.176696 72.000000 0 349.977633
0.013452 0.040157 3.299148 96.000000 31 349.977644
0.088935 0.509744 3.289970 97.000000 28 349.977646
0.117793 0.670363 3.295749 86.000000 27 349.977649
0.156573 1.006279 3.300868 92.000000 25 349.977651
0.203272 1.355409 3.288422 91.000000 23 349.977654
0.261275 1.744172 3.297992 14.000000 21 349.977657
0.231054 1.542420 2.363259 20.000000 19 349.977659
0.233008 1.555446 1.959025 22.000000 17 349.977662
0.043680 0.195478 3.293891 98.000000 30 349.977669
0.069747 0.351166 3.290887 96.000000 29 349.977672
0.136174 0.836388 3.297824 91.000000 26 349.977675
0.179045 1.179856 3.299429 91.000000 24 349.977677
0.233012 1.539021 3.280860 12.000000 22 349.977680
0.298194 1.971802 3.332114 17.000000 20 349.977682
0.232947 1.540359 2.136893 24.000000 18 349.977685
0.235391 1.556504 1.784846 24.000000 16 349.977687
0.251079 1.690152 1.758929 25.000000 15 349.977645
0.400872 2.698439 2.281301 17.000000 13 349.977648
0.400175 2.690518 1.867999 16.000000 11 349.977650
0.406260 2.731412 1.531446 18.000000 9 349.977653
0.409135 2.747442 1.210598 20.000000 7 349.977655
0.405405 2.719140 0.897511 10.000000 5 349.977658
0.387540 2.599317 0.590424 8.000000 3 349.977660
0.302885 2.029089 0.276770 69.000000 1 349.977663
0.280010 1.864734 1.760019 24.000000 14 349.977671
0.405542 2.700679 2.072074 19.000000 12 349.977673
0.406633 2.704728 1.692231 17.000000 10 349.977676
0.413112 2.747808 1.371984 21.000000 8 349.977678
0.415503 2.760438 1.060169 22.000000 6 349.977681
0.403465 2.677286 0.743734 10.000000 4 349.977683
0.384903 2.551090 0.451595 8.000000 2 349.977686
0.311127 2.059681 0.177704 20.000000 0 349.977689
0.013592 0.040110 3.299148 96.000000 31 349.977700
0.090713 0.509431 3.289970 97.000000 28 349.977703
0.120133 0.669947 3.295749 86.000000 27 349.977705
0.160085 1.005727 3.300868 90.000000 25 349.977708
0.208002 1.354692 3.288422 91.000000 23 349.977710
0.267725 1.745618 3.302381 14.000000 21 349.977713
0.236010 1.538822 2.359126 21.000000 19 349.977715
0.237950 1.551455 1.955188 21.000000 17 349.977718
0.044362 0.195325 3.293891 98.000000 30 349.977726
0.070972 0.350921 3.290887 96.000000 29 349.977728
0.139300 0.837148 3.302663 94.000000 26 349.977731
0.183162 1.179224 3.299429 90.000000 24 349.977733
0.238382 1.538198 3.280860 12.000000 22 349.977736
0.304277 1.965594 3.323582 15.000000 20 349.977738
0.237861 1.536557 2.132904 24.000000 18 349.977741
0.240304 1.552322 1.781170 24.000000 16 349.977744
0.256978 1.689265 1.758929 25.000000 15 349.977701
0.409703 2.693175 2.278163 17.000000 13 349.977704
0.409565 2.689105 1.867999 16.000000 11 349.977706
0.415792 2.729977 1.531446 18.000000 9 349.977709
0.418024 2.741414 1.208724 19.000000 7 349.977712
0.419962 2.750905 0.907376 18.000000 5 349.977714
0.401059 2.627084 0.596020 9.000000 3 349.977717
0.309213 2.023096 0.276324 74.000000 1 349.977719
0.285950 1.860054 1.756694 24.000000 14 349.977727
0.414966 2.699247 2.072074 20.000000 12 349.977730
0.416071 2.703292 1.692231 17.000000 10 349.977732
0.422011 2.741864 1.369886 22.000000 8 349.977735
0.424417 2.754303 1.058526 22.000000 6 349.977737
0.417255 2.704684 0.750768 10.000000 4 349.977740
0.399097 2.583990 0.456423 8.000000 2 349.977742
0.352670 2.280759 0.186773 6.000000 0 349.977745
0.013732 0.040062 3.299148 96.000000 31 349.977756
0.092491 0.509111 3.289970 97.000000 28 349.977758
0.122470 0.669524 3.295749 86.000000 27 349.977761
0.163594 1.005162 3.300868 90.000000 25 349.977763
0.212730 1.353957 3.288422 91.000000 23 349.977766
0.273817 1.744673 3.302381 14.000000 21 349.977768
0.240943 1.535209 2.354993 21.000000 19 349.977771
0.243364 1.550614 1.955188 21.000000 17 349.977773
0.045044 0.195169 3.293891 98.000000 30 349.977781
0.072197 0.350671 3.290887 96.000000 29 349.977784
0.142221 0.836657 3.302663 94.000000 26 349.977786
0.187278 1.178577 3.299429 91.000000 24 349.977789
0.243750 1.537357 3.280860 12.000000 22 349.977791
0.310728 1.961944 3.319316 15.000000 20 349.977794
0.243223 1.535718 2.132904 24.000000 18 349.977797
0.245721 1.551474 1.781170 24.000000 16 349.977799
0.262873 1.688358 1.758929 25.000000 15 349.977757
0.418503 2.687882 2.275025 17.000000 13 349.977759
0.418305 2.683527 1.865257 16.000000 11 349.977762
0.424637 2.724132 1.529129 18.000000 9 349.977764
0.426876 2.735358 1.206852 20.000000 7 349.977767
0.428822 2.744683 0.905967 18.000000 5 349.977770
0.414019 2.649935 0.600683 9.000000 3 349.977772
0.316273 2.022005 0.276324 55.000000 1 349.977775
0.294182 1.870112 1.766669 23.000000 14 349.977782
0.423758 2.693789 2.069131 19.000000 12 349.977785
0.424834 2.697565 1.689699 17.000000 10 349.977788
0.431579 2.740375 1.369886 22.000000 8 349.977790
0.433294 2.748140 1.056883 22.000000 6 349.977793
0.430482 2.727217 0.756629 13.000000 4 349.977795
0.412752 2.611930 0.460562 8.000000 2 349.977798
0.368436 2.328860 0.188788 6.000000 0 349.977800
0.013854 0.039975 3.294148 93.000000 31 349.977811
0.094268 0.508785 3.289970 97.000000 28 349.977814
0.124807 0.669092 3.295749 85.000000 27 349.977816
0.167102 1.004584 3.300868 90.000000 25 349.977819
0.217454 1.353206 3.288422 91.000000 23 349.977821
0.279905 1.743706 3.302381 15.000000 21 349.977824
0.245855 1.531580 2.350860 21.000000 19 349.977826
0.248267 1.546590 1.951351 21.000000 17 349.977829
0.045725 0.195010 3.293891 97.000000 30 349.977837
0.073420 0.350417 3.290887 96.000000 29 349.977839
0.145141 0.836156 3.302663 94.000000 26 349.977842
0.191390 1.177916 3.299429 90.000000 24 349.977844
0.249115 1.536497 3.280860 12.000000 22 349.977847
0.316741 1.955699 3.310784 14.000000 20 349.977850
0.248101 1.531884 2.128914 24.000000 18 349.977852
0.251136 1.550607 1.781170 24.000000 16 349.977855
0.268765 1.687430 1.758929 25.000000 15 349.977812
0.427271 2.682560 2.271888 17.000000 13 349.977815
0.427670 2.682051 1.865257 16.000000 11 349.977817
0.433446 2.718258 1.526810 18.000000 9 349.977820
0.435690 2.729273 1.204978 21.000000 7 349.977823
0.438400 2.743169 0.905967 18.000000 5 349.977825
0.427917 2.677578 0.606278 9.000000 3 349.977828
0.302487 1.880134 1.776643 23.000000 14 349.977838
0.432516 2.688302 2.066188 19.000000 12 349.977841
0.433562 2.691809 1.687166 18.000000 10 349.977843
0.440420 2.734370 1.367788 21.000000 8 349.977846
0.442132 2.741949 1.055241 22.000000 6 349.977848
0.441549 2.735295 0.758974 24.000000 4 349.977851
0.426607 2.639806 0.464701 9.000000 2 349.977853
0.390925 2.416332 0.192416 5.000000 0 349.977856
0.013994 0.039926 3.294148 93.000000 31 349.977867
0.096043 0.508453 3.289970 97.000000 28 349.977869
0.127141 0.668653 3.295749 85.000000 27 349.977872
0.170607 1.003995 3.300868 90.000000 25 349.977874
0.222493 1.354367 3.293024 90.000000 23 349.977877
0.285990 1.742718 3.302381 15.000000 21 349.977879
0.251199 1.530713 2.350860 22.000000 19 349.977882
0.253664 1.545714 1.951351 22.000000 17 349.977884
0.046405 0.194849 3.293891 97.000000 30 349.977892
0.074643 0.350158 3.290887 96.000000 29 349.977895
0.148058 0.835644 3.302663 94.000000 26 349.977897
0.195501 1.177241 3.299429 90.000000 24 349.977900
0.254833 1.537766 3.285361 12.000000 22 349.977902
0.322714 1.949435 3.302253 14.000000 20 349.977905
0.253446 1.531009 2.128914 24.000000 18 349.977908
0.256547 1.549721 1.781170 23.000000 16 349.977910
0.275226 1.690002 1.762434 24.000000 15 349.977868
0.436006 2.677210 2.268750 17.000000 13 349.977870
0.436356 2.676414 1.862516 16.000000 11 349.977873
0.442219 2.712356 1.524493 17.000000 9 349.977876
0.444468 2.723160 1.203105 21.000000 7 349.977878
0.447973 2.741622 0.905967 18.000000 5 349.977881
0.441222 2.700308 0.610942 10.000000 3 349.977883
0.424442 2.594771 0.328530 7.000000 1 349.977886
0.312685 1.901176 1.796592 23.000000 14 349.977894
0.441898 2.686776 2.066188 20.000000 12 349.977896
0.442956 2.690279 1.687166 18.000000 10 349.977899
0.449225 2.728338 1.365690 22.000000 8 349.977901
0.450932 2.735729 1.053598 22.000000 6 349.977904
0.451885 2.738532 0.760146 24.000000 4 349.977906
0.439855 2.662730 0.468150 9.000000 2 349.977909
0.413214 2.498746 0.195842 6.000000 0 349.977911
0.014133 0.039877 3.294148 96.000000 31 349.977922
0.097817 0.508114 3.289970 91.000000 28 349.977925
0.129475 0.668205 3.295749 86.000000 27 349.977927
0.174111 1.003393 3.300868 89.000000 25 349.977930
0.227220 1.353582 3.293024 91.000000 23 349.977932
0.292072 1.741709 3.302381 14.000000 21 349.977935
0.256076 1.527051 2.346727 22.000000 19 349.977937
0.259058 1.544819 1.951351 22.000000 17 349.977940
0.047085 0.194686 3.293891 98.000000 30 349.977948
0.075979 0.350417 3.295859 95.000000 29 349.977950
0.150974 0.835122 3.302663 92.000000 26 349.977953
0.199898 1.178253 3.304122 90.000000 24 349.977955
0.260199 1.536867 3.285361 12.000000 22 349.977958
0.329082 1.945725 3.297987 13.000000 20 349.977961
0.258789 1.530115 2.128914 24.000000 18 349.977963
0.261389 1.545473 1.777495 24.000000 16 349.977966
0.281124 1.689031 1.762434 24.000000 15 349.977923
0.444710 2.671832 2.265612 17.000000 13 349.977926
0.445696 2.674875 1.862516 16.000000 11 349.977928
0.451684 2.710796 1.524493 17.000000 9 349.977931
0.453208 2.717019 1.201232 22.000000 7 349.977934
0.457540 2.740041 0.905967 18.000000 5 349.977936
0.454690 2.722977 0.615605 15.000000 3 349.977939
0.433497 2.593273 0.328530 7.000000 1 349.977941
0.324889 1.933217 1.826516 21.000000 14 349.977949
0.450604 2.681231 2.063245 20.000000 12 349.977952
0.451629 2.684465 1.684634 18.000000 10 349.977954
0.457993 2.722278 1.363592 22.000000 8 349.977957
0.459695 2.729482 1.051955 23.000000 6 349.977959
0.460634 2.732145 0.758974 24.000000 4 349.977962
0.453267 2.685594 0.471599 9.000000 2 349.977964
0.427760 2.531771 0.197252 7.000000 0 349.977967
0.014272 0.039827 3.294148 96.000000 31 349.977978
0.099590 0.507770 3.289970 91.000000 28 349.977980
0.131806 0.667749 3.295749 86.000000 27 349.977983
0.177873 1.004250 3.305640 90.000000 25 349.977985
0.232273 1.354706 3.297627 91.000000 23 349.977988
0.298554 1.743041 3.306770 14.000000 21 349.977990
0.261405 1.526148 2.346727 23.000000 19 349.977993
0.263908 1.540746 1.947514 22.000000 17 349.977996
0.047835 0.194802 3.298882 98.000000 30 349.978003
0.077202 0.350150 3.295859 95.000000 29 349.978006
0.153889 0.834590 3.302663 92.000000 26 349.978008
0.204009 1.177548 3.304122 91.000000 24 349.978011
0.265830 1.535903 3.285361 12.000000 22 349.978014
0.331323 1.916237 3.251061 10.000000 20 349.978016
0.263882 1.526186 2.124924 24.000000 18 349.978019
0.267052 1.544505 1.777495 24.000000 16 349.978021
0.287616 1.691555 1.765939 25.000000 15 349.977979
0.453381 2.666426 2.262474 16.000000 13 349.977981
0.455030 2.673303 1.862516 16.000000 11 349.977984
0.460400 2.704835 1.522174 18.000000 9 349.977987
0.462690 2.715421 1.201232 22.000000 7 349.977989
0.466295 2.733699 0.904557 19.000000 5 349.977992
0.468802 2.745503 0.620268 20.000000 3 349.977994
0.447195 2.616211 0.330761 8.000000 1 349.977997
0.328178 1.909931 1.806567 16.000000 14 349.978005
0.460428 2.679562 2.063245 19.000000 12 349.978007
0.461465 2.682792 1.684634 18.000000 10 349.978010
0.467198 2.716108 1.361494 22.000000 8 349.978012
0.468894 2.723124 1.050313 23.000000 6 349.978015
0.470645 2.730439 0.758974 24.000000 4 349.978017
0.467318 2.708315 0.475048 10.000000 2 349.978020
0.443391 2.569648 0.198865 7.000000 0 349.978022
0.014436 0.039814 3.299148 96.000000 31 349.978033
0.101451 0.507401 3.289970 97.000000 28 349.978036
0.134253 0.667261 3.295749 83.000000 27 349.978038
0.181553 1.003592 3.305640 90.000000 25 349.978041
0.237237 1.353846 3.297627 91.000000 23 349.978043
0.304941 1.741935 3.306770 14.000000 21 349.978046
0.266996 1.525180 2.346727 23.000000 19 349.978048
0.269553 1.539768 1.947514 21.000000 17 349.978051
0.048515 0.194633 3.298882 98.000000 30 349.978059
0.078424 0.349878 3.295859 95.000000 29 349.978061
0.156801 0.834048 3.302663 92.000000 26 349.978064
0.208119 1.176829 3.304122 91.000000 24 349.978066
0.270811 1.532822 3.280860 12.000000 22 349.978069
0.331663 1.879113 3.191338 8.000000 20 349.978072
0.269208 1.525256 2.124924 24.000000 18 349.978074
0.271584 1.540272 1.773820 24.000000 16 349.978077
0.293814 1.690489 1.765939 25.000000 15 349.978034
0.463151 2.664746 2.262474 16.000000 13 349.978037
0.464109 2.667498 1.859774 16.000000 11 349.978040
0.469551 2.698765 1.519856 18.000000 9 349.978042
0.471371 2.709222 1.199359 22.000000 7 349.978045
0.475011 2.727328 0.903148 19.000000 5 349.978047
0.479226 2.748689 0.621200 20.000000 3 349.978050
0.462318 2.648976 0.333885 9.000000 1 349.978052
0.469080 2.673957 2.060301 19.000000 12 349.978063
0.469614 2.677000 1.682101 18.000000 10 349.978065
0.476203 2.714544 1.361494 22.000000 8 349.978068
0.477105 2.716903 1.048670 23.000000 6 349.978070
0.478855 2.724076 0.757802 24.000000 4 349.978073
0.480588 2.731137 0.478497 17.000000 2 349.978075
0.458425 2.602526 0.200275 8.000000 0 349.978078
0.014568 0.039766 3.299148 96.000000 31 349.978089
0.103133 0.507062 3.289970 97.000000 28 349.978091
0.136465 0.666812 3.295749 85.000000 27 349.978094
0.184880 1.002984 3.305640 90.000000 25 349.978096
0.241725 1.353052 3.297627 90.000000 23 349.978099
0.310715 1.740914 3.306770 14.000000 21 349.978101
0.271558 1.521516 2.342594 23.000000 19 349.978104
0.274094 1.535710 1.943677 21.000000 17 349.978107
0.049194 0.194463 3.298882 98.000000 30 349.978114
0.079644 0.349602 3.295859 95.000000 29 349.978117
0.159711 0.833495 3.302663 92.000000 26 349.978119
0.212225 1.176095 3.304122 91.000000 24 349.978122
0.276160 1.531867 3.280860 12.000000 22 349.978125
0.334522 1.857410 3.157211 7.000000 20 349.978127
0.274530 1.524307 2.124924 24.000000 18 349.978130
0.277227 1.539266 1.773820 23.000000 16 349.978132
0.300040 1.693017 1.769443 25.000000 15 349.978090
0.471305 2.659362 2.259336 17.000000 13 349.978092
0.472952 2.665944 1.859774 16.000000 11 349.978095
0.477724 2.692831 1.517538 20.000000 9 349.978098
0.480825 2.707560 1.199359 22.000000 7 349.978100
0.483689 2.720930 0.901739 20.000000 5 349.978103
0.489679 2.751836 0.622133 22.000000 3 349.978105
0.481168 2.701278 0.338793 10.000000 1 349.978108
0.477699 2.668325 2.057358 20.000000 12 349.978118
0.479422 2.675261 1.682101 19.000000 10 349.978121
0.485348 2.708313 1.359396 23.000000 8 349.978123
0.486226 2.710488 1.047027 24.000000 6 349.978126
0.487977 2.717518 0.756629 25.000000 4 349.978128
0.490594 2.729357 0.478497 17.000000 2 349.978131
0.472809 2.630413 0.201484 9.000000 0 349.978134
0.014714 0.039712 3.299148 97.000000 31 349.978144
0.104991 0.506681 3.289970 97.000000 28 349.978147
0.138908 0.666308 3.295749 86.000000 27 349.978149
0.188555 1.002300 3.305640 89.000000 25 349.978152
0.246683 1.352157 3.297627 90.000000 23 349.978154
0.317094 1.739763 3.306770 15.000000 21 349.978157
0.277133 1.520510 2.342594 23.000000 19 349.978160
0.279721 1.534695 1.943677 21.000000 17 349.978162
0.049906 0.194281 3.298882 98.000000 30 349.978170
0.080925 0.349308 3.295859 96.000000 29 349.978172
0.162765 0.832904 3.302663 92.000000 26 349.978175
0.216847 1.177006 3.308815 91.000000 24 349.978178
0.281506 1.530894 3.280860 12.000000 22 349.978180
0.332521 1.810059 3.080424 7.000000 20 349.978183
0.279305 1.520375 2.120935 24.000000 18 349.978185
0.281986 1.534955 1.770145 23.000000 16 349.978188
0.306244 1.691906 1.769443 25.000000 15 349.978145
0.481049 2.657617 2.259336 17.000000 13 349.978148
0.481974 2.660079 1.857033 16.000000 11 349.978151
0.487591 2.691062 1.517538 19.000000 9 349.978153
0.489918 2.701218 1.197486 22.000000 7 349.978156
0.492802 2.714419 0.900330 20.000000 5 349.978158
0.497526 2.740443 0.620268 22.000000 3 349.978161
0.494156 2.719181 0.340578 11.000000 1 349.978163
0.479660 2.626413 2.458237 18.000000 14 349.978171
0.487010 2.666641 2.057358 19.000000 12 349.978174
0.487983 2.669330 1.679569 19.000000 10 349.978176
0.493983 2.702138 1.357298 23.000000 8 349.978179
0.494834 2.704129 1.045385 24.000000 6 349.978181
0.497460 2.715798 0.756629 25.000000 4 349.978184
0.500119 2.727628 0.478497 17.000000 2 349.978186
0.489662 2.667973 0.203097 10.000000 0 349.978189
0.014853 0.039661 3.299148 96.000000 31 349.978200
0.106920 0.507071 3.294909 97.000000 28 349.978202
0.141233 0.665819 3.295749 86.000000 27 349.978205
0.192052 1.001635 3.305640 90.000000 25 349.978207
0.251401 1.351287 3.297627 90.000000 23 349.978210
0.323165 1.738646 3.306770 15.000000 21 349.978212
0.282439 1.519534 2.342594 23.000000 19 349.978215
0.284491 1.530557 1.939841 21.000000 17 349.978218
0.050584 0.194106 3.298882 98.000000 30 349.978225
0.082144 0.349023 3.295859 95.000000 29 349.978228
0.165672 0.832331 3.302663 92.000000 26 349.978230
0.220954 1.176242 3.308815 91.000000 24 349.978233
0.287249 1.532042 3.285361 12.000000 22 349.978236
0.331635 1.770436 3.016435 7.000000 20 349.978238
0.284610 1.519391 2.120935 24.000000 18 349.978241
0.287342 1.533961 1.770145 23.000000 16 349.978243
0.312148 1.690827 1.769443 24.000000 15 349.978201
0.489616 2.652093 2.256199 16.000000 13 349.978204
0.491257 2.658380 1.857033 16.000000 11 349.978206
0.496176 2.684987 1.515220 19.000000 9 349.978209
0.498501 2.694932 1.195613 22.000000 7 349.978211
0.501400 2.707965 0.898921 21.000000 5 349.978214
0.506195 2.733860 0.619335 23.000000 3 349.978216
0.504552 2.722336 0.341024 17.000000 1 349.978219
0.488825 2.624723 2.458237 17.000000 14 349.978227
0.495575 2.660951 2.054415 19.000000 12 349.978229
0.497297 2.667611 1.679569 19.000000 10 349.978232
0.502580 2.695935 1.355199 23.000000 8 349.978234
0.503404 2.697743 1.043742 24.000000 6 349.978237
0.506044 2.709267 0.755457 26.000000 4 349.978239
0.509637 2.725866 0.478497 19.000000 2 349.978242
0.503567 2.690801 0.204104 12.000000 0 349.978245
0.014991 0.039609 3.299148 97.000000 31 349.978255
0.108689 0.506695 3.294909 97.000000 28 349.978258
0.143556 0.665322 3.295749 85.000000 27 349.978260
0.195547 1.000959 3.305640 90.000000 25 349.978263
0.256481 1.352321 3.302229 85.000000 23 349.978265
0.329232 1.737507 3.306770 15.000000 21 349.978268
0.287217 1.515774 2.338461 22.000000 19 349.978271
0.289831 1.529555 1.939841 21.000000 17 349.978273
0.051261 0.193928 3.298882 98.000000 30 349.978281
0.083362 0.348734 3.295859 95.000000 29 349.978283
0.168576 0.831748 3.302663 94.000000 26 349.978286
0.225059 1.175464 3.308815 90.000000 24 349.978289
0.292595 1.531030 3.285361 11.000000 22 349.978291
0.330965 1.733403 2.956712 8.000000 20 349.978294
0.289347 1.515427 2.116946 24.000000 18 349.978296
0.292695 1.532949 1.770145 23.000000 16 349.978299
0.318048 1.689727 1.769443 24.000000 15 349.978256
0.498151 2.646543 2.253061 16.000000 13 349.978259
0.499759 2.652540 1.854291 16.000000 11 349.978262
0.505546 2.683239 1.515220 19.000000 9 349.978264
0.507905 2.693176 1.195613 22.000000 7 349.978267
0.509960 2.701485 0.897511 21.000000 5 349.978269
0.514823 2.727249 0.618403 23.000000 3 349.978272
0.514052 2.720558 0.341024 17.000000 1 349.978274
0.498681 2.626669 2.461562 18.000000 14 349.978282
0.504861 2.659205 2.054415 20.000000 12 349.978285
0.505801 2.661623 1.677037 18.000000 10 349.978287
0.511140 2.689706 1.353101 24.000000 8 349.978290
0.511936 2.691330 1.042099 25.000000 6 349.978292
0.515498 2.707484 0.755457 25.000000 4 349.978295
0.519149 2.724070 0.478497 19.000000 2 349.978298
0.520446 2.728286 0.205717 15.000000 0 349.978300
0.015129 0.039556 3.299148 97.000000 31 349.978311
0.110457 0.506313 3.294909 97.000000 28 349.978313
0.145878 0.664817 3.295749 85.000000 27 349.978316
0.199040 1.000270 3.305640 90.000000 25 349.978318
0.261200 1.351417 3.302229 85.000000 23 349.978321
0.335295 1.736347 3.306770 15.000000 21 349.978324
0.292507 1.514762 2.338461 22.000000 19 349.978326
0.294561 1.525386 1.936003 21.000000 17 349.978329
0.051938 0.193748 3.298882 97.000000 30 349.978336
0.084579 0.348441 3.295859 96.000000 29 349.978339
0.171478 0.831154 3.302663 94.000000 26 349.978342
0.229161 1.174671 3.308815 90.000000 24 349.978344
0.298354 1.532137 3.289862 11.000000 22 349.978347
0.334025 1.716877 2.931116 9.000000 20 349.978349
0.294635 1.514408 2.116946 24.000000 18 349.978352
0.297397 1.528590 1.766470 23.000000 16 349.978354
0.323944 1.688606 1.769443 24.000000 15 349.978312
0.506652 2.640964 2.249923 16.000000 13 349.978315
0.508227 2.646673 1.851550 16.000000 11 349.978317
0.514909 2.681458 1.515220 19.000000 9 349.978320
0.516428 2.686834 1.193740 22.000000 7 349.978322
0.518480 2.694977 0.896102 22.000000 5 349.978325
0.523412 2.720612 0.617470 23.000000 3 349.978327
0.522604 2.713857 0.340578 19.000000 1 349.978330
0.508556 2.628579 2.464887 17.000000 14 349.978338
0.513372 2.653458 2.051472 19.000000 12 349.978340
0.515089 2.659841 1.677037 18.000000 10 349.978343
0.520526 2.687905 1.353101 25.000000 8 349.978345
0.521327 2.689527 1.042099 25.000000 6 349.978348
0.524020 2.700897 0.754285 25.000000 4 349.978350
0.529598 2.727103 0.479187 22.000000 2 349.978353
0.528060 2.716645 0.205314 15.000000 0 349.978356
0.015267 0.039503 3.299148 96.000000 31 349.978366
0.112224 0.505924 3.294909 97.000000 28 349.978369
0.148420 0.665297 3.300644 85.000000 27 349.978371
0.202531 0.999569 3.305640 89.000000 25 349.978374
0.265915 1.350497 3.302229 90.000000 23 349.978376
0.341354 1.735167 3.306770 13.000000 21 349.978379
0.297249 1.510970 2.334328 22.000000 19 349.978381
0.299884 1.524348 1.936003 21.000000 17 349.978384
0.052614 0.193566 3.298882 98.000000 30 349.978392
0.085795 0.348144 3.295859 96.000000 29 349.978394
0.174637 0.831781 3.307502 94.000000 26 349.978397
0.233259 1.173864 3.308815 90.000000 24 349.978399
0.303700 1.531086 3.289862 11.000000 22 349.978402
0.337481 1.702909 2.909786 10.000000 20 349.978404
0.299334 1.510414 2.112956 25.000000 18 349.978407
0.302731 1.527542 1.766470 23.000000 16 349.978410
0.329836 1.687465 1.769443 24.000000 15 349.978367
0.515868 2.639180 2.249923 16.000000 13 349.978370
0.517462 2.644882 1.851550 16.000000 11 349.978372
0.523415 2.675297 1.512902 19.000000 9 349.978375
0.524912 2.680466 1.191867 23.000000 7 349.978378
0.526962 2.688443 0.894693 22.000000 5 349.978380
0.531961 2.713948 0.616537 25.000000 3 349.978383
0.532074 2.712016 0.340578 19.000000 1 349.978385
0.517728 2.626788 2.464887 17.000000 14 349.978393
0.522631 2.651650 2.051472 19.000000 12 349.978396
0.523536 2.653798 1.674504 18.000000 10 349.978398
0.529027 2.681619 1.351003 24.000000 8 349.978401
0.529797 2.683058 1.040457 25.000000 6 349.978403
0.532502 2.694283 0.753112 26.000000 4 349.978406
0.539115 2.725237 0.479187 22.000000 2 349.978408
0.536569 2.709885 0.205112 15.000000 0 349.978411
0.015405 0.039450 3.299148 96.000000 31 349.978422
0.113989 0.505529 3.294909 97.000000 28 349.978424
0.150741 0.664775 3.300644 85.000000 27 349.978427
0.206018 0.998856 3.305640 90.000000 25 349.978429
0.270628 1.349561 3.302229 90.000000 23 349.978432
0.347409 1.733964 3.306770 13.000000 21 349.978434
0.302522 1.509924 2.334328 21.000000 19 349.978437
