# .PCD v.7 - Point Cloud Data file format
VERSION .7
FIELDS x y z intensity ring timestamp
SIZE 4 4 4 4 2 8
TYPE F F F F U D
COUNT 1 1 1 1 1 1
WIDTH 906
HEIGHT 1
VIEWPOINT 0 0 0 1 0 0 0
POINTS 906
DATA ascii
-0.029160 -1.018920 1.569733 37.000000 19 351.125458
-0.029129 -1.017763 1.295234 63.000000 17 351.125461
-0.019584 -0.195848 3.233992 96.000000 30 351.125468
-0.026762 -0.351669 3.241173 97.000000 29 351.125471
-0.034114 -0.825314 3.215557 92.000000 26 351.125473
-0.035366 -1.158311 3.205574 89.000000 24 351.125476
-0.034022 -1.127035 2.394196 34.000000 22 351.125479
-0.031428 -1.047037 1.783580 38.000000 20 351.125481
-0.029652 -0.987791 1.382878 38.000000 18 351.125484
-0.033200 -1.105862 1.277673 62.000000 16 351.125486
-0.033519 -1.223230 1.282311 56.000000 15 351.125444
-0.039328 -1.435085 1.239559 39.000000 13 351.125446
-0.038678 -1.402432 1.004437 40.000000 11 351.125449
-0.038149 -1.383139 0.810540 44.000000 9 351.125452
-0.037581 -1.353989 0.635576 46.000000 7 351.125454
-0.037111 -1.328674 0.480390 39.000000 5 351.125457
-0.036344 -1.301233 0.338616 26.000000 3 351.125459
-0.036651 -1.304048 0.209838 18.000000 1 351.125462
-0.038606 -1.332397 1.267941 58.000000 14 351.125470
-0.040935 -1.412671 1.112604 40.000000 12 351.125472
-0.040504 -1.389426 0.902114 44.000000 10 351.125475
-0.040106 -1.375702 0.723686 50.000000 8 351.125477
-0.039472 -1.345884 0.557507 46.000000 6 351.125480
-0.039136 -1.326521 0.410796 37.000000 4 351.125482
-0.038926 -1.311625 0.275002 15.000000 2 351.125485
-0.038602 -1.293114 0.145862 32.000000 0 351.125488
-0.008548 -0.040991 3.244150 95.000000 31 351.125498
-0.028373 -0.504993 3.215881 95.000000 28 351.125501
-0.038189 -0.665283 3.227215 89.000000 27 351.125503
-0.037494 -0.992289 3.219748 87.000000 25 351.125506
-0.042901 -1.328848 3.191769 88.000000 23 351.125508
-0.034535 -1.075496 2.038447 36.000000 21 351.125511
-0.032626 -1.015999 1.565600 37.000000 19 351.125514
-0.032579 -1.014451 1.291397 61.000000 17 351.125516
-0.020267 -0.195778 3.233992 96.000000 30 351.125524
-0.027990 -0.351574 3.241173 97.000000 29 351.125526
-0.036995 -0.825189 3.215557 92.000000 26 351.125529
-0.039409 -1.158180 3.205574 88.000000 24 351.125532
-0.037883 -1.124733 2.389695 34.000000 22 351.125534
-0.034996 -1.044314 1.779314 37.000000 20 351.125537
-0.032999 -0.984670 1.378888 38.000000 18 351.125539
-0.037060 -1.105740 1.277673 62.000000 16 351.125542
-0.037789 -1.223106 1.282311 56.000000 15 351.125499
-0.044338 -1.434939 1.239559 39.000000 13 351.125502
-0.043574 -1.402288 1.004437 40.000000 11 351.125505
-0.042839 -1.378569 0.808222 44.000000 9 351.125507
-0.042163 -1.349216 0.633703 46.000000 7 351.125510
-0.041748 -1.328537 0.480390 39.000000 5 351.125512
-0.040886 -1.301098 0.338616 26.000000 3 351.125515
-0.041045 -1.298934 0.209392 18.000000 1 351.125517
-0.043257 -1.332254 1.267941 60.000000 14 351.125525
-0.045735 -1.408479 1.109660 39.000000 12 351.125528
-0.045213 -1.384967 0.899582 42.000000 10 351.125530
-0.044760 -1.371017 0.721588 52.000000 8 351.125533
-0.044015 -1.341018 0.555864 46.000000 6 351.125535
-0.043766 -1.326377 0.410796 37.000000 4 351.125538
-0.043340 -1.306532 0.274312 15.000000 2 351.125540
-0.042949 -1.287978 0.145660 32.000000 0 351.125543
-0.008691 -0.040961 3.244150 95.000000 31 351.125554
-0.030135 -0.504891 3.215881 95.000000 28 351.125556
-0.040448 -0.664129 3.222320 87.000000 27 351.125559
-0.040958 -0.992152 3.219748 90.000000 25 351.125561
-0.047469 -1.326738 3.187166 88.000000 23 351.125564
-0.038204 -1.072975 2.034058 36.000000 21 351.125566
-0.036173 -1.015879 1.565600 37.000000 19 351.125569
-0.036120 -1.014331 1.291397 61.000000 17 351.125572
-0.020951 -0.195706 3.233992 96.000000 30 351.125579
-0.029217 -0.351474 3.241173 97.000000 29 351.125582
-0.039875 -0.825055 3.215557 92.000000 26 351.125584
-0.043452 -1.158035 3.205574 89.000000 24 351.125587
-0.041728 -1.122417 2.385194 35.000000 22 351.125590
-0.038544 -1.041580 1.775048 37.000000 20 351.125592
-0.036324 -0.981537 1.374899 38.000000 18 351.125595
-0.040919 -1.105604 1.277673 62.000000 16 351.125597
-0.042058 -1.222966 1.282311 56.000000 15 351.125555
-0.049212 -1.430885 1.236421 39.000000 13 351.125558
-0.048324 -1.397949 1.001695 40.000000 11 351.125560
-0.047651 -1.378411 0.808222 44.000000 9 351.125563
-0.046872 -1.349061 0.633703 44.000000 7 351.125565
-0.046386 -1.328383 0.480390 38.000000 5 351.125568
-0.045427 -1.300947 0.338616 26.000000 3 351.125570
-0.045579 -1.298783 0.209392 16.000000 1 351.125573
-0.047773 -1.328363 1.264617 60.000000 14 351.125581
-0.050651 -1.408311 1.109660 40.000000 12 351.125583
-0.050047 -1.384801 0.899582 44.000000 10 351.125586
-0.049546 -1.370853 0.721588 52.000000 8 351.125588
-0.048696 -1.340856 0.555864 48.000000 6 351.125591
-0.048219 -1.321359 0.409623 36.000000 4 351.125593
-0.047718 -1.301424 0.273622 15.000000 2 351.125596
-0.047445 -1.287820 0.145660 31.000000 0 351.125599
-0.008834 -0.040930 3.244150 91.000000 31 351.125609
-0.031897 -0.504782 3.215881 95.000000 28 351.125612
-0.042766 -0.663984 3.222320 87.000000 27 351.125614
-0.044354 -0.990511 3.214977 89.000000 25 351.125617
-0.052100 -1.326564 3.187166 90.000000 23 351.125619
-0.041855 -1.070441 2.029670 36.000000 21 351.125622
-0.039608 -1.012935 1.561467 37.000000 19 351.125625
-0.039660 -1.014199 1.291397 63.000000 17 351.125627
-0.021599 -0.195636 3.233992 96.000000 30 351.125635
-0.030382 -0.351375 3.241173 97.000000 29 351.125637
-0.042611 -0.824919 3.215557 95.000000 26 351.125640
-0.047292 -1.157885 3.205574 89.000000 24 351.125643
-0.045557 -1.120089 2.380694 34.000000 22 351.125645
-0.042074 -1.038833 1.770782 37.000000 20 351.125648
-0.039750 -0.981404 1.374899 38.000000 18 351.125650
-0.044585 -1.105462 1.277673 62.000000 16 351.125653
-0.046327 -1.222812 1.282311 56.000000 15 351.125610
-0.054207 -1.430704 1.236421 39.000000 13 351.125613
-0.053044 -1.393593 0.998954 40.000000 11 351.125616
-0.052294 -1.373809 0.805904 44.000000 9 351.125618
-0.051169 -1.344265 0.631830 46.000000 7 351.125621
-0.050607 -1.323428 0.478980 38.000000 5 351.125623
-0.049968 -1.300781 0.338616 26.000000 3 351.125626
-0.049920 -1.293640 0.208946 16.000000 1 351.125628
-0.052409 -1.328188 1.264617 60.000000 14 351.125636
-0.055407 -1.404087 1.106717 40.000000 12 351.125639
-0.054469 -1.380320 0.897049 44.000000 10 351.125641
-0.053912 -1.366146 0.719490 50.000000 8 351.125644
-0.052955 -1.335968 0.554222 46.000000 6 351.125646
-0.052600 -1.321191 0.409623 36.000000 4 351.125649
-0.052034 -1.301259 0.273622 15.000000 2 351.125652
-0.051515 -1.282664 0.145459 31.000000 0 351.125654
-0.008970 -0.040901 3.244150 91.000000 31 351.125665
-0.033623 -0.505449 3.220820 95.000000 28 351.125667
-0.044968 -0.663839 3.222320 87.000000 27 351.125670
-0.047638 -0.990359 3.214977 87.000000 25 351.125672
-0.056499 -1.326384 3.187166 90.000000 23 351.125675
-0.045303 -1.067903 2.025281 37.000000 21 351.125678
-0.042848 -1.009986 1.557334 37.000000 19 351.125680
-0.043023 -1.014061 1.291397 63.000000 17 351.125683
-0.022282 -0.195559 3.233992 96.000000 30 351.125690
-0.031608 -0.351267 3.241173 97.000000 29 351.125693
-0.045490 -0.824765 3.215557 95.000000 26 351.125696
-0.051257 -1.155989 3.200881 88.000000 24 351.125698
-0.049079 -1.115581 2.371692 34.000000 22 351.125701
-0.045405 -1.036082 1.766516 38.000000 20 351.125703
-0.042872 -0.978255 1.370909 38.000000 18 351.125706
-0.048444 -1.105299 1.277673 62.000000 16 351.125708
-0.050235 -1.219089 1.278807 56.000000 15 351.125666
-0.058791 -1.426627 1.233283 39.000000 13 351.125669
-0.057665 -1.393409 0.998954 40.000000 11 351.125671
-0.056849 -1.373628 0.805904 44.000000 9 351.125674
-0.055861 -1.344079 0.631830 46.000000 7 351.125676
-0.055226 -1.323243 0.478980 39.000000 5 351.125679
-0.054077 -1.295700 0.337684 26.000000 3 351.125681
-0.054210 -1.293467 0.208946 18.000000 1 351.125684
-0.056813 -1.328007 1.264617 60.000000 14 351.125692
-0.060063 -1.403895 1.106717 40.000000 12 351.125694
-0.059287 -1.380121 0.897049 45.000000 10 351.125697
-0.058681 -1.365950 0.719490 50.000000 8 351.125699
-0.057618 -1.335775 0.554222 46.000000 6 351.125702
-0.057001 -1.316144 0.408451 36.000000 4 351.125704
-0.056361 -1.296121 0.272932 15.000000 2 351.125707
-0.055992 -1.282476 0.145459 32.000000 0 351.125710
-0.009120 -0.040868 3.244150 94.000000 31 351.125721
-0.035476 -0.505322 3.220820 93.000000 28 351.125724
-0.047401 -0.663669 3.222320 87.000000 27 351.125726
-0.051268 -0.990177 3.214977 87.000000 25 351.125729
-0.061360 -1.326168 3.187166 90.000000 23 351.125731
-0.049107 -1.065336 2.020892 37.000000 21 351.125734
-0.046420 -1.007011 1.553201 38.000000 19 351.125736
-0.046740 -1.013897 1.291397 63.000000 17 351.125739
-0.022999 -0.195476 3.233992 96.000000 30 351.125747
-0.032947 -0.351680 3.246144 97.000000 29 351.125749
-0.048513 -0.824592 3.215557 94.000000 26 351.125752
-0.055494 -1.155793 3.200881 86.000000 24 351.125754
-0.053064 -1.113218 2.367191 34.000000 22 351.125757
-0.049078 -1.033303 1.762250 38.000000 20 351.125759
-0.046458 -0.978092 1.370909 38.000000 18 351.125762
-0.052495 -1.105114 1.277673 64.000000 16 351.125765
-0.054703 -1.218896 1.278807 56.000000 15 351.125722
-0.064019 -1.426402 1.233283 39.000000 13 351.125725
-0.062584 -1.389012 0.996212 40.000000 11 351.125727
-0.061684 -1.368985 0.803586 44.000000 9 351.125730
-0.060787 -1.343865 0.631830 44.000000 7 351.125733
-0.059858 -1.318240 0.477571 38.000000 5 351.125735
-0.058825 -1.295493 0.337684 25.000000 3 351.125738
-0.058950 -1.293260 0.208946 18.000000 1 351.125740
-0.061680 -1.327790 1.264617 60.000000 14 351.125748
-0.065020 -1.399628 1.103774 40.000000 12 351.125751
-0.064345 -1.379894 0.897049 44.000000 10 351.125753
-0.063475 -1.361192 0.717392 52.000000 8 351.125756
-0.062293 -1.330838 0.552579 48.000000 6 351.125758
-0.061825 -1.315926 0.408451 36.000000 4 351.125761
-0.061111 -1.295906 0.272932 14.000000 2 351.125763
-0.060692 -1.282262 0.145459 31.000000 0 351.125766
-0.009249 -0.040794 3.239150 94.000000 31 351.125777
-0.037239 -0.505195 3.220820 94.000000 28 351.125779
-0.049717 -0.663500 3.222320 87.000000 27 351.125782
-0.054724 -0.989992 3.214977 87.000000 25 351.125784
-0.065989 -1.325945 3.187166 90.000000 23 351.125787
-0.052825 -1.065158 2.020892 37.000000 21 351.125789
-0.049795 -1.004033 1.549068 38.000000 19 351.125792
-0.050279 -1.013728 1.291397 63.000000 17 351.125794
-0.023681 -0.195395 3.233992 96.000000 30 351.125802
-0.034174 -0.351563 3.246144 97.000000 29 351.125805
-0.051391 -0.824418 3.215557 92.000000 26 351.125807
-0.059528 -1.155593 3.200881 88.000000 24 351.125810
-0.056838 -1.110851 2.362690 35.000000 22 351.125812
-0.052685 -1.033126 1.762250 38.000000 20 351.125815
-0.049718 -0.974914 1.366920 38.000000 18 351.125818
-0.056352 -1.104925 1.277673 62.000000 16 351.125820
-0.058957 -1.218698 1.278807 56.000000 15 351.125778
-0.068810 -1.422282 1.230145 39.000000 13 351.125780
-0.067432 -1.388785 0.996212 40.000000 11 351.125783
-0.066462 -1.368761 0.803586 44.000000 9 351.125785
-0.065252 -1.339014 0.629957 44.000000 7 351.125788
-0.064459 -1.318023 0.477571 38.000000 5 351.125791
-0.063107 -1.290373 0.336751 25.000000 3 351.125793
-0.063464 -1.293046 0.208946 18.000000 1 351.125796
-0.066315 -1.327567 1.264617 62.000000 14 351.125803
-0.069906 -1.399393 1.103774 40.000000 12 351.125806
-0.068945 -1.375356 0.894517 45.000000 10 351.125809
-0.068226 -1.360962 0.717392 52.000000 8 351.125811
-0.066938 -1.330612 0.552579 48.000000 6 351.125814
-0.066173 -1.310848 0.407279 36.000000 4 351.125816
-0.065383 -1.290739 0.272242 14.000000 2 351.125819
-0.065167 -1.282043 0.145459 31.000000 0 351.125821
-0.009391 -0.040762 3.239150 94.000000 31 351.125832
-0.038942 -0.504288 3.215881 95.000000 28 351.125835
-0.052033 -0.663322 3.222320 84.000000 27 351.125837
-0.058179 -0.989795 3.214977 89.000000 25 351.125840
-0.070617 -1.325707 3.187166 90.000000 23 351.125842
-0.056416 -1.062575 2.016504 37.000000 21 351.125845
-0.053300 -1.003853 1.549068 38.000000 19 351.125847
-0.053817 -1.013546 1.291397 63.000000 17 351.125850
-0.024363 -0.195311 3.233992 96.000000 30 351.125858
-0.035401 -0.351442 3.246144 97.000000 29 351.125860
-0.054186 -0.822979 3.210718 92.000000 26 351.125863
-0.063561 -1.155378 3.200881 88.000000 24 351.125865
-0.060597 -1.108471 2.358189 35.000000 22 351.125868
-0.056149 -1.030332 1.757984 38.000000 20 351.125871
-0.053121 -0.974734 1.366920 38.000000 18 351.125873
-0.060209 -1.104721 1.277673 62.000000 16 351.125876
-0.063026 -1.214923 1.275302 56.000000 15 351.125833
-0.073572 -1.418145 1.227008 39.000000 13 351.125836
-0.072062 -1.384365 0.993471 40.000000 11 351.125838
-0.071009 -1.364097 0.801268 44.000000 9 351.125841
-0.069926 -1.338778 0.629957 44.000000 7 351.125844
-0.068809 -1.312999 0.476162 38.000000 5 351.125846
-0.067611 -1.290145 0.336751 25.000000 3 351.125849
-0.067716 -1.287844 0.208500 17.000000 1 351.125851
-0.070749 -1.323598 1.261292 60.000000 14 351.125859
-0.074574 -1.395104 1.100831 40.000000 12 351.125862
-0.073746 -1.375107 0.894517 45.000000 10 351.125864
-0.072977 -1.360715 0.717392 52.000000 8 351.125867
-0.071582 -1.330371 0.552579 46.000000 6 351.125869
-0.070486 -1.305755 0.406106 36.000000 4 351.125872
-0.069889 -1.290503 0.272242 14.000000 2 351.125874
-0.069371 -1.276819 0.145257 31.000000 0 351.125877
-0.009533 -0.040728 3.239150 94.000000 31 351.125888
-0.040702 -0.504149 3.215881 96.000000 28 351.125890
-0.054348 -0.663137 3.222320 84.000000 27 351.125893
-0.061634 -0.989586 3.214977 89.000000 25 351.125895
-0.075133 -1.323502 3.182564 90.000000 23 351.125898
-0.059989 -1.059980 2.012115 37.000000 21 351.125900
-0.056644 -1.000851 1.544935 38.000000 19 351.125903
-0.057355 -1.013352 1.291397 61.000000 17 351.125905
-0.025044 -0.195225 3.233992 96.000000 30 351.125913
-0.036571 -0.350785 3.241173 97.000000 29 351.125916
-0.057058 -0.822784 3.210718 92.000000 26 351.125918
-0.067493 -1.153426 3.196188 86.000000 24 351.125921
-0.064339 -1.106079 2.353689 35.000000 22 351.125923
-0.059594 -1.027526 1.753718 38.000000 20 351.125926
-0.056348 -0.971534 1.362930 38.000000 18 351.125929
-0.064064 -1.104504 1.277673 62.000000 16 351.125931
-0.067266 -1.214696 1.275302 58.000000 15 351.125889
-0.078522 -1.417880 1.227008 39.000000 13 351.125891
-0.076894 -1.384105 0.993471 40.000000 11 351.125894
-0.075770 -1.363841 0.801268 44.000000 9 351.125897
-0.074340 -1.333897 0.628084 44.000000 7 351.125899
-0.073392 -1.312751 0.476162 38.000000 5 351.125902
-0.071840 -1.284997 0.335819 25.000000 3 351.125904
-0.072211 -1.287599 0.208500 18.000000 1 351.125907
-0.075369 -1.323343 1.261292 60.000000 14 351.125915
-0.079214 -1.390800 1.097888 40.000000 12 351.125917
-0.078300 -1.370537 0.891984 45.000000 10 351.125920
-0.077467 -1.355921 0.715294 54.000000 8 351.125922
-0.076225 -1.330113 0.552579 48.000000 6 351.125925
-0.075044 -1.305501 0.406106 35.000000 4 351.125927
-0.074108 -1.285307 0.271553 14.000000 2 351.125930
-0.073827 -1.276569 0.145257 31.000000 0 351.125932
-0.009676 -0.040695 3.239150 95.000000 31 351.125943
-0.042462 -0.504004 3.215881 95.000000 28 351.125946
-0.056662 -0.662943 3.222320 87.000000 27 351.125948
-0.065088 -0.989365 3.214977 89.000000 25 351.125951
-0.079753 -1.323232 3.182564 90.000000 23 351.125953
-0.063545 -1.057373 2.007726 37.000000 21 351.125956
-0.059969 -0.997838 1.540802 38.000000 19 351.125958
-0.060891 -1.013145 1.291397 61.000000 17 351.125961
-0.025726 -0.195136 3.233992 96.000000 30 351.125969
-0.037795 -0.350655 3.241173 97.000000 29 351.125971
-0.059930 -0.822580 3.210718 92.000000 26 351.125974
-0.071519 -1.153183 3.196188 88.000000 24 351.125976
-0.067932 -1.101501 2.344687 35.000000 22 351.125979
-0.063180 -1.027312 1.753718 38.000000 20 351.125982
-0.059739 -0.971331 1.362930 38.000000 18 351.125984
-0.067711 -1.100890 1.273998 60.000000 16 351.125987
-0.071506 -1.214454 1.275302 58.000000 15 351.125944
-0.083242 -1.413711 1.223870 39.000000 13 351.125947
-0.081478 -1.379654 0.990729 40.000000 11 351.125949
-0.080269 -1.359145 0.798950 44.000000 9 351.125952
-0.078996 -1.333629 0.628084 42.000000 7 351.125955
-0.077689 -1.307698 0.474753 38.000000 5 351.125957
-0.076325 -1.284738 0.335819 24.000000 3 351.125960
-0.076409 -1.282368 0.208054 18.000000 1 351.125962
-0.079988 -1.323072 1.261292 58.000000 14 351.125970
-0.084068 -1.390515 1.097888 40.000000 12 351.125973
-0.083083 -1.370255 0.891984 44.000000 10 351.125975
-0.082200 -1.355642 0.715294 54.000000 8 351.125978
-0.080581 -1.325125 0.550936 48.000000 6 351.125980
-0.079304 -1.300380 0.404934 35.000000 4 351.125983
-0.078292 -1.280098 0.270863 14.000000 2 351.125985
-0.077977 -1.271317 0.145056 31.000000 0 351.125988
-0.009818 -0.040661 3.239150 95.000000 31 351.125999
-0.044152 -0.503078 3.210942 95.000000 28 351.126001
-0.058976 -0.662741 3.222320 87.000000 27 351.126004
-0.068437 -0.987642 3.210205 89.000000 25 351.126006
-0.084371 -1.322945 3.182564 90.000000 23 351.126009
-0.067083 -1.054753 2.003338 37.000000 21 351.126011
-0.063451 -0.997623 1.540802 38.000000 19 351.126014
-0.064428 -1.012927 1.291397 63.000000 17 351.126017
-0.026407 -0.195045 3.233992 96.000000 30 351.126024
-0.039019 -0.350521 3.241173 97.000000 29 351.126027
-0.062801 -0.822366 3.210718 92.000000 26 351.126029
-0.075544 -1.152927 3.196188 88.000000 24 351.126032
-0.071634 -1.099084 2.340186 35.000000 22 351.126035
-0.066597 -1.024482 1.749452 38.000000 20 351.126037
-0.063129 -0.971117 1.362930 38.000000 18 351.126040
-0.071554 -1.100647 1.273998 62.000000 16 351.126042
-0.075745 -1.214197 1.275302 58.000000 15 351.126000
-0.087934 -1.409526 1.220732 39.000000 13 351.126002
-0.086032 -1.375188 0.987988 40.000000 11 351.126005
-0.085013 -1.358857 0.798950 45.000000 9 351.126008
-0.083361 -1.328719 0.626211 44.000000 7 351.126010
-0.082253 -1.307418 0.474753 38.000000 5 351.126013
-0.080501 -1.279561 0.334886 24.000000 3 351.126015
-0.080885 -1.282094 0.208054 17.000000 1 351.126018
-0.084606 -1.322784 1.261292 60.000000 14 351.126026
-0.088663 -1.386179 1.094944 40.000000 12 351.126028
-0.087590 -1.365654 0.889452 45.000000 10 351.126031
-0.086641 -1.350818 0.713196 52.000000 8 351.126033
-0.085206 -1.324835 0.550936 48.000000 6 351.126036
-0.083843 -1.300095 0.404934 35.000000 4 351.126038
-0.082440 -1.274875 0.270173 14.000000 2 351.126041
-0.082414 -1.271037 0.145056 31.000000 0 351.126043
-0.009959 -0.040626 3.239150 94.000000 31 351.126054
-0.045908 -0.502921 3.210942 95.000000 28 351.126057
-0.061289 -0.662531 3.222320 87.000000 27 351.126059
-0.071884 -0.987397 3.210205 87.000000 25 351.126062
-0.088857 -1.320693 3.177961 86.000000 23 351.126064
-0.070604 -1.052122 1.998949 37.000000 21 351.126067
-0.066745 -0.994588 1.536669 38.000000 19 351.126069
-0.067963 -1.012696 1.291397 63.000000 17 351.126072
-0.027087 -0.194952 3.233992 96.000000 30 351.126080
-0.040242 -0.350383 3.241173 96.000000 29 351.126082
-0.065671 -0.822142 3.210718 92.000000 26 351.126085
-0.079568 -1.152656 3.196188 86.000000 24 351.126087
-0.075321 -1.096654 2.335685 35.000000 22 351.126090
-0.069994 -1.021641 1.745186 38.000000 20 351.126093
-0.066313 -0.967884 1.358941 38.000000 18 351.126095
-0.075395 -1.100391 1.273998 64.000000 16 351.126098
-0.079983 -1.213925 1.275302 58.000000 15 351.126055
-0.092853 -1.409211 1.220732 39.000000 13 351.126058
-0.090832 -1.374879 0.987988 42.000000 11 351.126061
-0.089464 -1.354131 0.796632 45.000000 9 351.126063
-0.087998 -1.328420 0.626211 42.000000 7 351.126066
-0.086816 -1.307123 0.474753 38.000000 5 351.126068
-0.084967 -1.279273 0.334886 24.000000 3 351.126071
-0.085359 -1.281804 0.208054 17.000000 1 351.126073
-0.089222 -1.322481 1.261292 60.000000 14 351.126081
-0.093229 -1.381828 1.092001 40.000000 12 351.126084
-0.092065 -1.361039 0.886919 44.000000 10 351.126086
-0.091355 -1.350507 0.713196 54.000000 8 351.126089
-0.089511 -1.319818 0.549294 48.000000 6 351.126091
-0.088051 -1.294945 0.403762 35.000000 4 351.126094
-0.086890 -1.274579 0.270173 14.000000 2 351.126096
-0.086851 -1.270742 0.145056 31.000000 0 351.126099
-0.010101 -0.040591 3.239150 94.000000 31 351.126110
-0.047663 -0.502758 3.210942 95.000000 28 351.126112
-0.063601 -0.662313 3.222320 89.000000 27 351.126115
-0.075331 -0.987140 3.210205 87.000000 25 351.126117
-0.093467 -1.320375 3.177961 86.000000 23 351.126120
-0.074108 -1.049480 1.994560 37.000000 21 351.126122
-0.070216 -0.994348 1.536669 38.000000 19 351.126125
-0.071272 -1.009254 1.287560 63.000000 17 351.126128
-0.027768 -0.194856 3.233992 96.000000 30 351.126135
-0.041465 -0.350240 3.241173 96.000000 29 351.126138
-0.068540 -0.821908 3.210718 92.000000 26 351.126140
-0.083591 -1.152371 3.196188 86.000000 24 351.126143
-0.078992 -1.094213 2.331184 35.000000 22 351.126146
-0.073372 -1.018790 1.740921 38.000000 20 351.126148
-0.069691 -0.967646 1.358941 38.000000 18 351.126151
-0.079236 -1.100121 1.273998 62.000000 16 351.126153
-0.083973 -1.210081 1.271798 56.000000 15 351.126111
-0.097502 -1.404994 1.217594 39.000000 13 351.126113
-0.095341 -1.370382 0.985246 42.000000 11 351.126116
-0.094190 -1.353811 0.796632 45.000000 9 351.126119
-0.092635 -1.328104 0.626211 42.000000 7 351.126121
-0.091379 -1.306812 0.474753 38.000000 5 351.126124
-0.089432 -1.278968 0.334886 24.000000 3 351.126126
-0.089485 -1.276530 0.207607 17.000000 1 351.126129
-0.093838 -1.322162 1.261292 58.000000 14 351.126137
-0.098052 -1.381494 1.092001 40.000000 12 351.126139
-0.096510 -1.356409 0.884387 45.000000 10 351.126142
-0.095747 -1.345653 0.711097 54.000000 8 351.126144
-0.094117 -1.319498 0.549294 46.000000 6 351.126147
-0.092571 -1.294629 0.403762 35.000000 4 351.126149
-0.090984 -1.269329 0.269483 14.000000 2 351.126152
-0.091286 -1.270431 0.145056 31.000000 0 351.126155
-0.010243 -0.040556 3.239150 94.000000 31 351.126165
-0.049418 -0.502588 3.210942 95.000000 28 351.126168
-0.065913 -0.662087 3.222320 89.000000 27 351.126170
-0.078776 -0.986871 3.210205 87.000000 25 351.126173
-0.098075 -1.320041 3.177961 90.000000 23 351.126175
-0.077771 -1.049215 1.994560 36.000000 21 351.126178
-0.073479 -0.991291 1.532536 38.000000 19 351.126181
-0.074794 -1.008999 1.287560 63.000000 17 351.126183
-0.028448 -0.194758 3.233992 96.000000 30 351.126191
-0.042687 -0.350093 3.241173 97.000000 29 351.126193
-0.071409 -0.821663 3.210718 92.000000 26 351.126196
-0.087482 -1.150352 3.191496 86.000000 24 351.126199
-0.082647 -1.091759 2.326684 35.000000 22 351.126201
-0.076732 -1.015927 1.736655 38.000000 20 351.126204
-0.072841 -0.964392 1.354951 39.000000 18 351.126206
-0.082820 -1.096457 1.270323 62.000000 16 351.126209
-0.088196 -1.209780 1.271798 58.000000 15 351.126166
-0.102123 -1.400763 1.214457 39.000000 13 351.126169
-0.100124 -1.370041 0.985246 42.000000 11 351.126172
-0.098915 -1.353474 0.796632 45.000000 9 351.126174
-0.096931 -1.323149 0.624338 42.000000 7 351.126177
-0.095588 -1.301701 0.473344 38.000000 5 351.126179
-0.093536 -1.273749 0.333953 24.000000 3 351.126182
-0.093940 -1.276210 0.207607 17.000000 1 351.126184
-0.098453 -1.321826 1.261292 58.000000 14 351.126192
-0.102574 -1.377113 1.089058 40.000000 12 351.126195
-0.101244 -1.356064 0.884387 45.000000 10 351.126197
-0.100443 -1.345311 0.711097 54.000000 8 351.126200
-0.098370 -1.314452 0.547651 46.000000 6 351.126202
-0.097089 -1.294299 0.403762 35.000000 4 351.126205
-0.095414 -1.269003 0.269483 14.000000 2 351.126207
-0.095345 -1.265122 0.144854 31.000000 0 351.126210
-0.010384 -0.040520 3.239150 94.000000 31 351.126221
-0.051172 -0.502413 3.210942 95.000000 28 351.126223
-0.068224 -0.661853 3.222320 89.000000 27 351.126226
-0.082220 -0.986590 3.210205 89.000000 25 351.126228
-0.102683 -1.319690 3.177961 91.000000 23 351.126231
-0.081247 -1.046548 1.990171 36.000000 21 351.126233
-0.076721 -0.988223 1.528403 38.000000 19 351.126236
-0.078316 -1.008732 1.287560 63.000000 17 351.126239
-0.029127 -0.194657 3.233992 96.000000 30 351.126246
-0.043909 -0.349942 3.241173 97.000000 29 351.126249
-0.074277 -0.821409 3.210718 92.000000 26 351.126251
-0.091497 -1.150040 3.191496 86.000000 24 351.126254
-0.086285 -1.089293 2.322183 35.000000 22 351.126257
-0.080277 -1.015653 1.736655 38.000000 20 351.126259
-0.075970 -0.961127 1.350962 39.000000 18 351.126262
-0.086647 -1.096161 1.270323 62.000000 16 351.126264
-0.092419 -1.209465 1.271798 56.000000 15 351.126222
-0.107012 -1.400398 1.214457 39.000000 13 351.126225
-0.104586 -1.365514 0.982505 42.000000 11 351.126227
-0.103301 -1.348703 0.794314 47.000000 9 351.126230
-0.101549 -1.322803 0.624338 42.000000 7 351.126232
-0.100132 -1.301359 0.473344 38.000000 5 351.126235
-0.097981 -1.273415 0.333953 24.000000 3 351.126237
-0.098012 -1.270909 0.207161 17.000000 1 351.126240
-0.103066 -1.321474 1.261292 58.000000 14 351.126248
-0.107380 -1.376746 1.089058 40.000000 12 351.126250
-0.105641 -1.351404 0.881855 44.000000 10 351.126253
-0.104785 -1.340427 0.708999 54.000000 8 351.126255
-0.102958 -1.314101 0.547651 46.000000 6 351.126258
-0.101226 -1.289106 0.402589 35.000000 4 351.126260
-0.099843 -1.268663 0.269483 13.000000 2 351.126263
-0.099760 -1.264782 0.144854 31.000000 0 351.126266
-0.010526 -0.040483 3.239150 94.000000 31 351.126276
-0.052926 -0.502231 3.210942 95.000000 28 351.126279
-0.070534 -0.661611 3.222320 89.000000 27 351.126281
-0.085664 -0.986297 3.210205 87.000000 25 351.126284
-0.107289 -1.319324 3.177961 90.000000 23 351.126286
-0.084706 -1.043870 1.985783 37.000000 21 351.126289
-0.080170 -0.987949 1.528403 37.000000 19 351.126292
-0.081836 -1.008453 1.287560 63.000000 17 351.126294
-0.029807 -0.194554 3.233992 96.000000 30 351.126302
-0.045131 -0.349787 3.241173 97.000000 29 351.126304
-0.077143 -0.821145 3.210718 92.000000 26 351.126307
-0.095511 -1.149713 3.191496 88.000000 24 351.126310
-0.089907 -1.086815 2.317682 36.000000 22 351.126312
-0.083608 -1.012767 1.732389 38.000000 20 351.126315
-0.079324 -0.960856 1.350962 39.000000 18 351.126317
-0.090473 -1.095852 1.270323 62.000000 16 351.126320
-0.096640 -1.209135 1.271798 58.000000 15 351.126277
-0.111590 -1.396135 1.211319 39.000000 13 351.126280
-0.109352 -1.365141 0.982505 44.000000 11 351.126283
-0.108008 -1.348334 0.794314 45.000000 9 351.126285
-0.105795 -1.317819 0.622465 42.000000 7 351.126288
-0.104674 -1.301002 0.473344 38.000000 5 351.126290
-0.102426 -1.273065 0.333953 23.000000 3 351.126293
-0.102447 -1.270559 0.207161 17.000000 1 351.126295
-0.107678 -1.321106 1.261292 58.000000 14 351.126303
-0.111857 -1.372334 1.086115 40.000000 12 351.126306
-0.110006 -1.346730 0.879322 45.000000 10 351.126308
-0.109463 -1.340053 0.708999 52.000000 8 351.126311
-0.107544 -1.313733 0.547651 46.000000 6 351.126313
-0.105725 -1.288745 0.402589 35.000000 4 351.126316
-0.104271 -1.268306 0.269483 13.000000 2 351.126319
-0.103764 -1.259447 0.144653 31.000000 0 351.126321
-0.010682 -0.040487 3.244150 94.000000 31 351.126332
-0.054678 -0.502043 3.210942 96.000000 28 351.126334
-0.072843 -0.661361 3.222320 89.000000 27 351.126337
-0.089106 -0.985992 3.210205 87.000000 25 351.126339
-0.111728 -1.316995 3.173359 90.000000 23 351.126342
-0.088349 -1.043568 1.985783 37.000000 21 351.126345
-0.083380 -0.984859 1.524270 38.000000 19 351.126347
-0.085356 -1.008161 1.287560 63.000000 17 351.126350
-0.030486 -0.194449 3.233992 96.000000 30 351.126357
-0.046351 -0.349627 3.241173 97.000000 29 351.126360
-0.080009 -0.820871 3.210718 94.000000 26 351.126363
-0.099523 -1.149373 3.191496 88.000000 24 351.126365
-0.093513 -1.084324 2.313181 36.000000 22 351.126368
-0.086919 -1.009871 1.728123 38.000000 20 351.126370
-0.082419 -0.957570 1.346972 39.000000 18 351.126373
-0.094297 -1.095529 1.270323 62.000000 16 351.126375
-0.100860 -1.208790 1.271798 58.000000 15 351.126333
-0.116462 -1.395737 1.211319 39.000000 13 351.126336
-0.114116 -1.364751 0.982505 42.000000 11 351.126338
-0.112345 -1.343534 0.791996 45.000000 9 351.126341
-0.110395 -1.317442 0.622465 40.000000 7 351.126343
-0.108813 -1.295848 0.471934 38.000000 5 351.126346
-0.106458 -1.267805 0.333021 23.000000 3 351.126348
-0.106464 -1.265231 0.206715 17.000000 1 351.126351
-0.112289 -1.320722 1.261292 56.000000 14 351.126359
-0.116646 -1.371936 1.086115 40.000000 12 351.126361
-0.114707 -1.346338 0.879322 45.000000 10 351.126364
-0.113755 -1.335141 0.706901 52.000000 8 351.126366
-0.111728 -1.308644 0.546008 46.000000 6 351.126369
-0.109809 -1.283525 0.401417 35.000000 4 351.126371
-0.108275 -1.263000 0.268793 13.000000 2 351.126374
-0.108160 -1.259077 0.144653 31.000000 0 351.126377
-0.010816 -0.040452 3.244150 95.000000 31 351.126387
-0.056343 -0.501859 3.210942 96.000000 28 351.126390
-0.075035 -0.661115 3.222320 89.000000 27 351.126392
-0.092236 -0.984204 3.205433 87.000000 25 351.126395
-0.116095 -1.316617 3.173359 89.000000 23 351.126397
-0.091599 -1.040883 1.981394 37.000000 21 351.126400
-0.086399 -0.981774 1.520137 38.000000 19 351.126402
-0.088699 -1.007872 1.287560 63.000000 17 351.126405
-0.031130 -0.194347 3.233992 96.000000 30 351.126413
-0.047510 -0.349472 3.241173 97.000000 29 351.126415
-0.082731 -0.820601 3.210718 94.000000 26 351.126418
-0.103180 -1.147318 3.186803 86.000000 24 351.126420
-0.096914 -1.081839 2.308680 36.000000 22 351.126423
-0.090035 -1.006979 1.723857 38.000000 20 351.126425
-0.085326 -0.954290 1.342983 39.000000 18 351.126428
-0.097930 -1.095211 1.270323 62.000000 16 351.126431
-0.104868 -1.208449 1.271798 58.000000 15 351.126388
-0.120753 -1.391465 1.208181 39.000000 13 351.126391
-0.118279 -1.360199 0.979764 42.000000 11 351.126393
-0.116416 -1.338740 0.789678 45.000000 9 351.126396
-0.114360 -1.312450 0.620592 40.000000 7 351.126399
-0.113109 -1.295480 0.471934 38.000000 5 351.126401
-0.110662 -1.267445 0.333021 22.000000 3 351.126404
-0.110225 -1.259910 0.206269 17.000000 1 351.126406
-0.116668 -1.320343 1.261292 56.000000 14 351.126414
-0.121195 -1.371541 1.086115 40.000000 12 351.126417
-0.118790 -1.341655 0.876790 45.000000 10 351.126419
-0.118182 -1.334756 0.706901 54.000000 8 351.126422
-0.116067 -1.308267 0.546008 48.000000 6 351.126424
-0.114064 -1.283154 0.401417 35.000000 4 351.126427
-0.112462 -1.262635 0.268793 13.000000 2 351.126429
-0.111890 -1.253735 0.144451 31.000000 0 351.126432
-0.010957 -0.040414 3.244150 95.000000 31 351.126443
-0.058094 -0.501660 3.210942 95.000000 28 351.126445
-0.077343 -0.660850 3.222320 87.000000 27 351.126448
-0.095671 -0.983876 3.205433 89.000000 25 351.126450
-0.120511 -1.314258 3.168756 89.000000 23 351.126453
-0.095014 -1.038171 1.977006 37.000000 21 351.126455
-0.089826 -0.981467 1.520137 37.000000 19 351.126458
-0.092216 -1.007556 1.287560 63.000000 17 351.126460
-0.031809 -0.194237 3.233992 96.000000 30 351.126468
-0.048730 -0.349304 3.241173 97.000000 29 351.126471
-0.085595 -0.820307 3.210718 94.000000 26 351.126473
-0.107184 -1.146950 3.186803 86.000000 24 351.126476
-0.100488 -1.079326 2.304179 36.000000 22 351.126478
-0.093308 -1.004062 1.719591 38.000000 20 351.126481
-0.088377 -0.950985 1.338993 39.000000 18 351.126484
-0.101752 -1.094862 1.270323 62.000000 16 351.126486
-0.109085 -1.208076 1.271798 58.000000 15 351.126444
-0.125610 -1.391035 1.208181 39.000000 13 351.126446
-0.123026 -1.359778 0.979764 44.000000 11 351.126449
-0.121088 -1.338326 0.789678 47.000000 9 351.126451
-0.118941 -1.312043 0.620592 42.000000 7 351.126454
-0.117631 -1.295078 0.471934 38.000000 5 351.126457
-0.115085 -1.267051 0.333021 22.000000 3 351.126459
-0.114622 -1.259518 0.206269 15.000000 1 351.126462
-0.120935 -1.316209 1.257967 54.000000 14 351.126469
-0.125612 -1.367085 1.083172 40.000000 12 351.126472
-0.123473 -1.341233 0.876790 47.000000 10 351.126475
-0.122424 -1.329816 0.704803 52.000000 8 351.126477
-0.120199 -1.303151 0.544366 48.000000 6 351.126480
-0.118095 -1.277908 0.400245 35.000000 4 351.126482
-0.116413 -1.257303 0.268104 13.000000 2 351.126485
-0.116266 -1.253337 0.144451 30.000000 0 351.126487
-0.011098 -0.040375 3.244150 90.000000 31 351.126498
-0.059845 -0.501454 3.210942 95.000000 28 351.126501
-0.079649 -0.660576 3.222320 89.000000 27 351.126503
-0.099104 -0.983536 3.205433 87.000000 25 351.126506
-0.125098 -1.313830 3.168756 89.000000 23 351.126508
-0.098410 -1.035448 1.972617 37.000000 21 351.126511
-0.092985 -0.978346 1.516004 37.000000 19 351.126513
-0.095733 -1.007228 1.287560 63.000000 17 351.126516
-0.032486 -0.194125 3.233992 96.000000 30 351.126524
-0.049872 -0.348603 3.236202 97.000000 29 351.126526
-0.088322 -0.818753 3.205879 92.000000 26 351.126529
-0.111187 -1.146569 3.186803 88.000000 24 351.126531
-0.104045 -1.076801 2.299679 35.000000 22 351.126534
-0.096812 -1.003730 1.719591 38.000000 20 351.126537
-0.091696 -0.950671 1.338993 39.000000 18 351.126539
-0.105573 -1.094500 1.270323 60.000000 16 351.126542
-0.113302 -1.207688 1.271798 60.000000 15 351.126499
-0.130101 -1.386712 1.205043 39.000000 13 351.126502
-0.127381 -1.355177 0.977022 42.000000 11 351.126504
-0.125344 -1.333485 0.787360 47.000000 9 351.126507
-0.123520 -1.311620 0.620592 42.000000 7 351.126510
-0.121700 -1.289883 0.470525 38.000000 5 351.126512
-0.119046 -1.261751 0.332088 22.000000 3 351.126515
-0.118550 -1.254152 0.205822 15.000000 1 351.126517
-0.125529 -1.315779 1.257967 54.000000 14 351.126525
-0.130384 -1.366638 1.083172 40.000000 12 351.126528
-0.127744 -1.336502 0.874257 47.000000 10 351.126530
-0.126634 -1.324863 0.702705 52.000000 8 351.126533
-0.124747 -1.302724 0.544366 48.000000 6 351.126535
-0.122555 -1.277488 0.400245 34.000000 4 351.126538
-0.120801 -1.256889 0.268104 13.000000 2 351.126540
-0.120161 -1.247951 0.144250 30.000000 0 351.126543
-0.011239 -0.040336 3.244150 91.000000 31 351.126554
-0.061595 -0.501242 3.210942 96.000000 28 351.126556
-0.081954 -0.660293 3.222320 90.000000 27 351.126559
-0.102537 -0.983184 3.205433 89.000000 25 351.126561
-0.129684 -1.313385 3.168756 90.000000 23 351.126564
-0.101789 -1.032714 1.968228 37.000000 21 351.126566
-0.096399 -0.978015 1.516004 37.000000 19 351.126569
-0.098934 -1.003698 1.283723 63.000000 17 351.126571
-0.033164 -0.194010 3.233992 96.000000 30 351.126579
-0.051089 -0.348427 3.236202 97.000000 29 351.126582
-0.091180 -0.818439 3.205879 92.000000 26 351.126584
-0.115188 -1.146174 3.186803 88.000000 24 351.126587
-0.107587 -1.074265 2.295178 35.000000 22 351.126589
-0.100056 -1.000791 1.715325 38.000000 20 351.126592
-0.094714 -0.947346 1.335004 39.000000 18 351.126595
-0.109393 -1.094125 1.270323 60.000000 16 351.126597
-0.117517 -1.207285 1.271798 56.000000 15 351.126555
-0.134941 -1.386250 1.205043 39.000000 13 351.126557
-0.132111 -1.354724 0.977022 42.000000 11 351.126560
-0.129998 -1.333039 0.787360 47.000000 9 351.126563
-0.127647 -1.306567 0.618719 42.000000 7 351.126565
-0.126202 -1.289450 0.470525 38.000000 5 351.126568
-0.123449 -1.261328 0.332088 22.000000 3 351.126570
-0.122441 -1.248774 0.205376 17.000000 1 351.126573
-0.130121 -1.315333 1.257967 52.000000 14 351.126581
-0.134755 -1.362152 1.080229 40.000000 12 351.126583
-0.132408 -1.336048 0.874257 47.000000 10 351.126586
-0.131258 -1.324413 0.702705 52.000000 8 351.126588
-0.128827 -1.297581 0.542723 46.000000 6 351.126591
-0.126533 -1.272215 0.399073 34.000000 4 351.126593
-0.124696 -1.251532 0.267414 13.000000 2 351.126596
-0.124517 -1.247524 0.144250 31.000000 0 351.126598
-0.011380 -0.040297 3.244150 95.000000 31 351.126609
-0.063344 -0.501024 3.210942 94.000000 28 351.126612
-0.084129 -0.658993 3.217425 89.000000 27 351.126614
-0.105808 -0.981335 3.200662 87.000000 25 351.126617
-0.134267 -1.312924 3.168756 91.000000 23 351.126619
-0.105393 -1.032353 1.968228 37.000000 21 351.126622
-0.099527 -0.974873 1.511871 37.000000 19 351.126624
-0.102437 -1.003346 1.283723 63.000000 17 351.126627
-0.033841 -0.193893 3.233992 96.000000 30 351.126635
-0.052305 -0.348246 3.236202 97.000000 29 351.126637
-0.094036 -0.818116 3.205879 92.000000 26 351.126640
-0.119010 -1.144049 3.182110 88.000000 24 351.126642
-0.111111 -1.071716 2.290677 35.000000 22 351.126645
-0.103549 -1.000436 1.715325 38.000000 20 351.126648
-0.098021 -0.947010 1.335004 39.000000 18 351.126650
-0.113212 -1.093737 1.270323 64.000000 16 351.126653
-0.121730 -1.206867 1.271798 56.000000 15 351.126610
-0.139388 -1.381897 1.201905 39.000000 13 351.126613
-0.136418 -1.350095 0.974281 42.000000 11 351.126615
-0.134651 -1.332577 0.787360 47.000000 9 351.126618
-0.132207 -1.306113 0.618719 42.000000 7 351.126621
-0.130218 -1.284229 0.469116 38.000000 5 351.126623
-0.127852 -1.260889 0.332088 21.000000 3 351.126626
-0.126799 -1.248339 0.205376 17.000000 1 351.126628
-0.134711 -1.314870 1.257967 50.000000 14 351.126636
-0.139509 -1.361674 1.080229 42.000000 12 351.126639
-0.136631 -1.331289 0.871725 47.000000 10 351.126641
-0.135417 -1.319432 0.700607 52.000000 8 351.126644
-0.133356 -1.297123 0.542723 48.000000 6 351.126646
-0.130973 -1.271766 0.399073 34.000000 4 351.126649
-0.129064 -1.251089 0.267414 13.000000 2 351.126651
-0.128871 -1.247081 0.144250 31.000000 0 351.126654
-0.011505 -0.040216 3.239150 95.000000 31 351.126665
-0.065093 -0.500800 3.210942 94.000000 28 351.126667
-0.086429 -0.658696 3.217425 89.000000 27 351.126670
-0.109233 -0.980960 3.200662 87.000000 25 351.126672
-0.138644 -1.310505 3.164154 91.000000 23 351.126675
-0.108744 -1.029596 1.963840 37.000000 21 351.126677
-0.102929 -0.974520 1.511871 38.000000 19 351.126680
-0.105938 -1.002983 1.283723 63.000000 17 351.126683
-0.034517 -0.193774 3.233992 96.000000 30 351.126690
-0.053520 -0.348062 3.236202 97.000000 29 351.126693
-0.096891 -0.817783 3.205879 92.000000 26 351.126695
-0.123003 -1.143626 3.182110 86.000000 24 351.126698
-0.114619 -1.069157 2.286176 36.000000 22 351.126701
-0.106762 -0.997475 1.711059 38.000000 20 351.126703
-0.101005 -0.943665 1.331014 39.000000 18 351.126706
-0.117029 -1.093335 1.270323 64.000000 16 351.126708
-0.125942 -1.206435 1.271798 56.000000 15 351.126666
-0.144211 -1.381402 1.201905 39.000000 13 351.126668
-0.141130 -1.349610 0.974281 40.000000 11 351.126671
-0.138841 -1.327693 0.785042 47.000000 9 351.126674
-0.136282 -1.301033 0.616846 40.000000 7 351.126676
-0.134700 -1.283767 0.469116 38.000000 5 351.126679
-0.132252 -1.260435 0.332088 21.000000 3 351.126681
-0.130635 -1.242936 0.204930 17.000000 1 351.126684
-0.138907 -1.310679 1.254642 52.000000 14 351.126692
-0.143836 -1.357159 1.077286 40.000000 12 351.126694
-0.141277 -1.330804 0.871725 47.000000 10 351.126697
-0.140021 -1.318951 0.700607 50.000000 8 351.126699
-0.137883 -1.296650 0.542723 49.000000 6 351.126702
-0.134897 -1.266468 0.397900 34.000000 4 351.126704
-0.133431 -1.250631 0.267414 12.000000 2 351.126707
-0.133223 -1.246624 0.144250 31.000000 0 351.126709
-0.011645 -0.040176 3.239150 95.000000 31 351.126720
-0.066841 -0.500569 3.210942 95.000000 28 351.126723
-0.088728 -0.658390 3.217425 81.000000 27 351.126725
-0.112656 -0.980573 3.200662 87.000000 25 351.126728
-0.143218 -1.310013 3.164154 90.000000 23 351.126730
-0.112078 -1.026828 1.959451 37.000000 21 351.126733
-0.106025 -0.971357 1.507738 38.000000 19 351.126735
-0.109439 -1.002607 1.283723 63.000000 17 351.126738
-0.035194 -0.193652 3.233992 96.000000 30 351.126746
-0.054735 -0.347873 3.236202 97.000000 29 351.126748
-0.099745 -0.817440 3.205879 92.000000 26 351.126751
-0.126994 -1.143190 3.182110 86.000000 24 351.126753
-0.118111 -1.066585 2.281675 36.000000 22 351.126756
-0.110244 -0.997096 1.711059 38.000000 20 351.126759
-0.104298 -0.943306 1.331014 39.000000 18 351.126761
-0.120845 -1.092920 1.270323 62.000000 16 351.126764
-0.129770 -1.202442 1.268293 56.000000 15 351.126721
-0.148614 -1.377020 1.198768 39.000000 13 351.126724
-0.145840 -1.349109 0.974281 40.000000 11 351.126727
-0.143474 -1.327200 0.785042 47.000000 9 351.126729
-0.140823 -1.300550 0.616846 40.000000 7 351.126732
-0.138663 -1.278519 0.467707 38.000000 5 351.126734
-0.136651 -1.259966 0.332088 21.000000 3 351.126737
-0.134973 -1.242473 0.204930 16.000000 1 351.126739
-0.143481 -1.310186 1.254642 50.000000 14 351.126747
-0.148572 -1.356649 1.077286 40.000000 12 351.126750
-0.145922 -1.330302 0.871725 47.000000 10 351.126752
-0.144130 -1.313943 0.698509 52.000000 8 351.126755
-0.142408 -1.296161 0.542723 48.000000 6 351.126757
-0.139317 -1.265989 0.397900 34.000000 4 351.126760
-0.137253 -1.245235 0.266724 12.000000 2 351.126762
-0.137574 -1.246151 0.144250 31.000000 0 351.126765
-0.011785 -0.040135 3.239150 95.000000 31 351.126776
-0.068481 -0.499563 3.206002 96.000000 28 351.126778
-0.091025 -0.658076 3.217425 83.000000 27 351.126781
-0.116079 -0.980174 3.200662 89.000000 25 351.126783
-0.147790 -1.309505 3.164154 88.000000 23 351.126786
-0.115393 -1.024050 1.955062 37.000000 21 351.126788
-0.109100 -0.968185 1.503605 38.000000 19 351.126791
-0.112938 -1.002219 1.283723 63.000000 17 351.126794
-0.035815 -0.193244 3.229000 96.000000 30 351.126801
-0.055949 -0.347680 3.236202 97.000000 29 351.126804
-0.102598 -0.817086 3.205879 92.000000 26 351.126806
-0.130984 -1.142740 3.182110 86.000000 24 351.126809
-0.121833 -1.066167 2.281675 36.000000 22 351.126812
-0.113428 -0.994114 1.706793 38.000000 20 351.126814
-0.107249 -0.939942 1.327025 39.000000 18 351.126817
-0.124659 -1.092491 1.270323 64.000000 16 351.126819
-0.133966 -1.201982 1.268293 56.000000 15 351.126777
-0.153420 -1.376493 1.198768 39.000000 13 351.126779
-0.150085 -1.344436 0.971539 40.000000 11 351.126782
-0.147615 -1.322288 0.782724 45.000000 9 351.126785
-0.145362 -1.300050 0.616846 40.000000 7 351.126787
-0.143125 -1.278027 0.467707 38.000000 5 351.126790
-0.141048 -1.259481 0.332088 21.000000 3 351.126792
-0.138754 -1.237045 0.204484 16.000000 1 351.126795
-0.148053 -1.309677 1.254642 50.000000 14 351.126803
-0.152853 -1.352105 1.074342 42.000000 12 351.126805
-0.150079 -1.325501 0.869192 47.000000 10 351.126808
-0.148715 -1.313432 0.698509 52.000000 8 351.126810
-0.146399 -1.290963 0.541080 48.000000 6 351.126813
-0.143735 -1.265495 0.397900 34.000000 4 351.126815
-0.141599 -1.244749 0.266724 12.000000 2 351.126818
-0.141923 -1.245664 0.144250 31.000000 0 351.126821
-0.011925 -0.040094 3.239150 94.000000 31 351.126831
-0.070225 -0.499321 3.206002 96.000000 28 351.126834
-0.093322 -0.657755 3.217425 87.000000 27 351.126836
-0.119499 -0.979762 3.200662 85.000000 25 351.126839
-0.152360 -1.308981 3.164154 88.000000 23 351.126841
-0.118690 -1.021262 1.950674 37.000000 21 351.126844
-0.112479 -0.967798 1.503605 38.000000 19 351.126847
-0.116065 -0.998634 1.279886 63.000000 17 351.126849
-0.036489 -0.193118 3.229000 96.000000 30 351.126857
-0.057162 -0.347482 3.236202 97.000000 29 351.126859
-0.105450 -0.816723 3.205879 94.000000 26 351.126862
-0.134972 -1.142276 3.182110 88.000000 24 351.126865
-0.125299 -1.063572 2.277174 36.000000 22 351.126867
-0.116897 -0.993712 1.706793 38.000000 20 351.126870
-0.110177 -0.936569 1.323035 39.000000 18 351.126872
-0.128076 -1.088682 1.266647 64.000000 16 351.126875
-0.138161 -1.201507 1.268293 58.000000 15 351.126832
-0.157779 -1.372082 1.195630 39.000000 13 351.126835
-0.154777 -1.343904 0.971539 40.000000 11 351.126838
-0.152230 -1.321765 0.782724 45.000000 9 351.126840
-0.149368 -1.294930 0.614973 40.000000 7 351.126843
-0.147035 -1.272754 0.466298 37.000000 5 351.126845
-0.145444 -1.258981 0.332088 20.000000 3 351.126848
-0.143071 -1.236553 0.204484 16.000000 1 351.126850
-0.152624 -1.309152 1.254642 50.000000 14 351.126858
-0.157571 -1.351563 1.074342 42.000000 12 351.126861
-0.154705 -1.324969 0.869192 47.000000 10 351.126863
-0.153299 -1.312905 0.698509 52.000000 8 351.126866
-0.150905 -1.290444 0.541080 44.000000 6 351.126868
-0.147586 -1.260158 0.396728 33.000000 4 351.126871
-0.145366 -1.239328 0.266034 12.000000 2 351.126873
-0.146270 -1.245161 0.144250 30.000000 0 351.126876
-0.012065 -0.040052 3.239150 94.000000 31 351.126887
-0.071967 -0.499073 3.206002 95.000000 28 351.126889
-0.095617 -0.657425 3.217425 87.000000 27 351.126892
-0.122919 -0.979339 3.200662 85.000000 25 351.126894
-0.156928 -1.308441 3.164154 90.000000 23 351.126897
-0.121970 -1.018462 1.946285 37.000000 21 351.126899
-0.115522 -0.964605 1.499472 38.000000 19 351.126902
-0.119551 -0.998222 1.279886 65.000000 17 351.126905
-0.037163 -0.192989 3.229000 96.000000 30 351.126912
-0.058375 -0.347280 3.236202 97.000000 29 351.126915
-0.108300 -0.816350 3.205879 94.000000 26 351.126917
-0.138958 -1.141798 3.182110 88.000000 24 351.126920
-0.129011 -1.063128 2.277174 37.000000 22 351.126923
-0.120051 -0.990709 1.702527 38.000000 20 351.126925
-0.113445 -0.936178 1.323035 39.000000 18 351.126928
-0.131875 -1.088228 1.266647 64.000000 16 351.126930
-0.142355 -1.201017 1.268293 60.000000 15 351.126888
-0.162568 -1.371523 1.195630 39.000000 13 351.126891
-0.159467 -1.343356 0.971539 42.000000 11 351.126893
-0.156320 -1.316826 0.780406 45.000000 9 351.126896
-0.153887 -1.294400 0.614973 42.000000 7 351.126898
-0.151477 -1.272233 0.466298 37.000000 5 351.126901
-0.149838 -1.258466 0.332088 20.000000 3 351.126903
-0.146797 -1.231101 0.204038 16.000000 1 351.126906
-0.157193 -1.308611 1.254642 50.000000 14 351.126914
-0.162288 -1.351005 1.074342 42.000000 12 351.126916
-0.159329 -1.324421 0.869192 45.000000 10 351.126919
-0.157339 -1.307855 0.696411 54.000000 8 351.126921
-0.154844 -1.285221 0.539438 46.000000 6 351.126924
-0.151984 -1.259635 0.396728 33.000000 4 351.126926
-0.149691 -1.238813 0.266034 12.000000 2 351.126929
-0.150016 -1.239683 0.144048 30.000000 0 351.126932
-0.012205 -0.040009 3.239150 95.000000 31 351.126942
-0.073709 -0.498819 3.206002 96.000000 28 351.126945
-0.097761 -0.656080 3.212530 87.000000 27 351.126947
-0.126336 -0.978904 3.200662 89.000000 25 351.126950
-0.161494 -1.307886 3.164154 86.000000 23 351.126952
-0.125231 -1.015653 1.941896 37.000000 21 351.126955
-0.118544 -0.961404 1.495340 38.000000 19 351.126958
-0.123034 -0.997799 1.279886 63.000000 17 351.126960
-0.037837 -0.192858 3.229000 96.000000 30 351.126968
-0.059586 -0.347075 3.236202 97.000000 29 351.126970
-0.111149 -0.815967 3.205879 94.000000 26 351.126973
-0.142943 -1.141306 3.182110 88.000000 24 351.126976
-0.132451 -1.060511 2.272674 37.000000 22 351.126978
-0.123186 -0.987696 1.698261 38.000000 20 351.126981
-0.116340 -0.932786 1.319046 39.000000 18 351.126983
-0.135673 -1.087762 1.266647 60.000000 16 351.126986
-0.146546 -1.200513 1.268293 60.000000 15 351.126943
-0.166883 -1.367082 1.192492 39.000000 13 351.126946
-0.163648 -1.338640 0.968798 42.000000 11 351.126949
-0.160916 -1.316272 0.780406 45.000000 9 351.126951
-0.158404 -1.293855 0.614973 42.000000 7 351.126954
-0.155333 -1.266935 0.464888 37.000000 5 351.126956
-0.153632 -1.253059 0.331156 20.000000 3 351.126959
-0.151094 -1.230581 0.204038 16.000000 1 351.126961
-0.161760 -1.308055 1.254642 50.000000 14 351.126969
-0.166507 -1.346419 1.071399 42.000000 12 351.126972
-0.163422 -1.319578 0.866660 47.000000 10 351.126974
-0.161903 -1.307298 0.696411 54.000000 8 351.126977
-0.158748 -1.279986 0.537795 46.000000 6 351.126979
-0.155781 -1.254274 0.395556 33.000000 4 351.126982
-0.153403 -1.233369 0.265344 12.000000 2 351.126985
-0.154342 -1.239151 0.144048 30.000000 0 351.126987
-0.012344 -0.039966 3.239150 95.000000 31 351.126998
-0.075450 -0.498558 3.206002 96.000000 28 351.127000
-0.100050 -0.655735 3.212530 89.000000 27 351.127003
-0.129753 -0.978457 3.200662 87.000000 25 351.127005
-0.166059 -1.307314 3.164154 86.000000 23 351.127008
-0.128775 -1.015209 1.941896 37.000000 21 351.127011
-0.121899 -0.960984 1.495340 38.000000 19 351.127013
-0.126517 -0.997364 1.279886 63.000000 17 351.127016
-0.038510 -0.192725 3.229000 96.000000 30 351.127023
-0.060798 -0.346864 3.236202 97.000000 29 351.127026
-0.113997 -0.815574 3.205879 94.000000 26 351.127029
-0.146706 -1.139088 3.177417 88.000000 24 351.127031
-0.135875 -1.057882 2.268173 37.000000 22 351.127034
-0.126633 -0.987260 1.698261 38.000000 20 351.127036
-0.119595 -0.932374 1.319046 39.000000 18 351.127039
-0.139469 -1.087281 1.266647 60.000000 16 351.127041
