# .PCD v.7 - Point Cloud Data file format
VERSION .7
FIELDS x y z intensity ring timestamp
SIZE 4 4 4 4 2 8
TYPE F F F F U D
COUNT 1 1 1 1 1 1
WIDTH 907
HEIGHT 1
VIEWPOINT 0 0 0 1 0 0 0
POINTS 907
DATA ascii
-1.700119 -0.561276 0.711920 46.000000 6 351.544882
-1.657235 -0.546798 0.511615 43.000000 4 351.544885
-1.631850 -0.538106 0.331567 36.000000 2 351.544887
-1.603534 -0.528459 0.161783 35.000000 0 351.544890
-0.041753 -0.005966 3.279149 72.000000 31 351.544901
-0.479904 -0.144295 3.186245 96.000000 28 351.544903
-0.626682 -0.187601 3.168473 90.000000 27 351.544906
-0.917092 -0.294204 3.124314 90.000000 25 351.544908
-1.161609 -0.379694 2.938630 59.000000 23 351.544911
-1.596563 -0.522162 3.144389 39.000000 21 351.544913
-1.939724 -0.634388 3.069993 38.000000 19 351.544916
-1.979372 -0.647352 2.569099 23.000000 17 351.544918
-0.191789 -0.047954 3.248966 97.000000 30 351.544926
-0.338481 -0.093225 3.226259 97.000000 29 351.544929
-0.771487 -0.241522 3.147808 96.000000 26 351.544931
-1.018423 -0.330930 2.966243 69.000000 24 351.544934
-1.438785 -0.468064 3.190844 45.000000 22 351.544936
-1.769813 -0.576085 3.114551 39.000000 20 351.544939
-2.043096 -0.665036 2.918835 20.000000 18 351.544942
-1.932095 -0.628902 2.280993 28.000000 16 351.544944
-1.894459 -0.622142 2.039293 32.000000 15 351.544902
-1.837369 -0.603391 1.641194 36.000000 13 351.544904
-1.789891 -0.587453 1.319705 36.000000 11 351.544907
-1.748226 -0.573776 1.049297 38.000000 9 351.544909
-1.714327 -0.562319 0.817261 40.000000 7 351.544912
-1.677891 -0.550043 0.608626 42.000000 5 351.544915
-1.647740 -0.540159 0.420687 39.000000 3 351.544917
-1.613594 -0.528654 0.245089 29.000000 1 351.544920
-1.874075 -0.612188 1.836491 35.000000 14 351.544927
-1.808312 -0.590703 1.468726 37.000000 12 351.544930
-1.772202 -0.578566 1.180681 39.000000 10 351.544933
-1.744087 -0.569385 0.935589 40.000000 8 351.544935
-1.706558 -0.556803 0.713562 46.000000 6 351.544938
-1.668376 -0.544023 0.513960 40.000000 4 351.544940
-1.638427 -0.533941 0.332256 36.000000 2 351.544943
-1.610119 -0.524405 0.161984 34.000000 0 351.544945
-0.041730 -0.005818 3.274149 61.000000 31 351.544956
-0.480404 -0.142619 3.186245 96.000000 28 351.544959
-0.627333 -0.185412 3.168473 90.000000 27 351.544961
-0.918113 -0.291000 3.124314 92.000000 25 351.544964
-1.168504 -0.377438 2.952438 46.000000 23 351.544966
-1.598376 -0.516586 3.144389 38.000000 21 351.544969
-1.941927 -0.627613 3.069993 38.000000 19 351.544971
-1.993822 -0.644382 2.584447 23.000000 17 351.544974
-0.191674 -0.047217 3.243975 97.000000 30 351.544982
-0.338804 -0.092043 3.226259 97.000000 29 351.544984
-0.772325 -0.238828 3.147808 96.000000 26 351.544987
-1.019572 -0.327373 2.966243 69.000000 24 351.544989
-1.440410 -0.463039 3.190844 45.000000 22 351.544992
-1.769331 -0.569106 3.110285 39.000000 20 351.544995
-2.054013 -0.660669 2.930803 18.000000 18 351.544997
-1.943961 -0.625269 2.292018 28.000000 16 351.545000
-1.903403 -0.617727 2.046302 32.000000 15 351.544957
-1.846870 -0.599377 1.647470 36.000000 13 351.544960
-1.799886 -0.583782 1.325188 36.000000 11 351.544962
-1.758646 -0.570404 1.053933 38.000000 9 351.544965
-1.720689 -0.557761 0.819134 40.000000 7 351.544968
-1.684364 -0.545661 0.610036 40.000000 5 351.544970
-1.658962 -0.537432 0.422552 39.000000 3 351.544973
-1.620167 -0.524552 0.245535 29.000000 1 351.544975
-1.883308 -0.607937 1.843140 35.000000 14 351.544983
-1.818056 -0.586871 1.474612 37.000000 12 351.544986
-1.782417 -0.575023 1.185746 38.000000 10 351.544988
-1.750384 -0.564687 0.937687 40.000000 8 351.544991
-1.717480 -0.553741 0.716848 46.000000 6 351.544993
-1.674892 -0.539687 0.515132 40.000000 4 351.544996
-1.644995 -0.529737 0.332946 36.000000 2 351.544998
-1.616695 -0.520312 0.162186 34.000000 0 351.545001
-0.041750 -0.005672 3.274149 61.000000 31 351.545012
-0.480899 -0.140941 3.186245 97.000000 28 351.545014
-0.627977 -0.183221 3.168473 90.000000 27 351.545017
-0.919123 -0.287794 3.124314 90.000000 25 351.545019
-1.180982 -0.376921 2.980053 35.000000 23 351.545022
-1.600169 -0.511003 3.144389 38.000000 21 351.545024
-1.944106 -0.620831 3.069993 38.000000 19 351.545027
-2.005221 -0.640344 2.595958 23.000000 17 351.545029
-0.191837 -0.046548 3.243975 96.000000 30 351.545037
-0.339124 -0.090860 3.226259 97.000000 29 351.545040
-0.773154 -0.236131 3.147808 96.000000 26 351.545042
-1.022354 -0.324334 2.970936 67.000000 24 351.545045
-1.442018 -0.458008 3.190844 46.000000 22 351.545047
-1.771306 -0.562926 3.110285 39.000000 20 351.545050
-2.064924 -0.656233 2.942772 17.000000 18 351.545053
-1.952593 -0.620533 2.299369 28.000000 16 351.545055
-1.915736 -0.614346 2.056816 31.000000 15 351.545013
-1.856364 -0.595304 1.653745 36.000000 13 351.545015
-1.809877 -0.580048 1.330671 36.000000 11 351.545018
-1.769064 -0.566965 1.058569 39.000000 9 351.545021
-1.731456 -0.554579 0.822880 40.000000 7 351.545023
-1.695397 -0.542703 0.612854 40.000000 5 351.545026
-1.665506 -0.533135 0.423485 40.000000 3 351.545028
-1.626732 -0.520411 0.245981 31.000000 1 351.545031
-1.896092 -0.604764 1.853115 35.000000 14 351.545039
-1.827795 -0.582978 1.480499 37.000000 12 351.545041
-1.788521 -0.570107 1.188278 38.000000 10 351.545044
-1.760992 -0.561330 0.941883 39.000000 8 351.545046
-1.723902 -0.549176 0.718490 44.000000 6 351.545049
-1.686028 -0.536786 0.517477 42.000000 4 351.545051
-1.656272 -0.526994 0.334326 36.000000 2 351.545054
-1.628024 -0.517694 0.162589 34.000000 0 351.545056
-0.041769 -0.005526 3.274149 70.000000 31 351.545067
-0.481388 -0.139261 3.186245 95.000000 28 351.545070
-0.628613 -0.181028 3.168473 89.000000 27 351.545072
-0.920122 -0.284584 3.124314 90.000000 25 351.545075
-1.225144 -0.386308 3.085911 27.000000 23 351.545077
-1.604228 -0.506135 3.148778 39.000000 21 351.545080
-1.946261 -0.614041 3.069993 38.000000 19 351.545082
-2.019674 -0.637199 2.611306 22.000000 17 351.545085
-0.191998 -0.045878 3.243975 97.000000 30 351.545093
-0.339439 -0.089675 3.226259 97.000000 29 351.545095
-0.773974 -0.233430 3.147808 96.000000 26 351.545098
-1.023480 -0.320763 2.970936 64.000000 24 351.545100
-1.441530 -0.452320 3.186343 46.000000 22 351.545103
-1.773261 -0.556740 3.110285 39.000000 20 351.545106
-2.075828 -0.651730 2.954740 16.000000 18 351.545108
-1.964451 -0.616759 2.310394 27.000000 16 351.545111
-1.924668 -0.609809 2.063825 30.000000 15 351.545068
-1.865853 -0.591172 1.660021 36.000000 13 351.545071
-1.819863 -0.576251 1.336154 36.000000 11 351.545073
-1.779480 -0.563462 1.063205 38.000000 9 351.545076
-1.737801 -0.549931 0.824753 39.000000 7 351.545079
-1.701855 -0.538229 0.614263 40.000000 5 351.545081
-1.676724 -0.530281 0.425350 39.000000 3 351.545084
-1.633287 -0.516230 0.246428 31.000000 1 351.545086
-1.905315 -0.600386 1.859764 35.000000 14 351.545094
-1.841384 -0.580238 1.489328 37.000000 12 351.545097
-1.798725 -0.566451 1.193343 38.000000 10 351.545099
-1.771599 -0.557906 0.946079 40.000000 8 351.545102
-1.734818 -0.545990 0.721776 44.000000 6 351.545104
-1.697165 -0.533814 0.519821 50.000000 4 351.545107
-1.662826 -0.522695 0.335016 36.000000 2 351.545109
-1.634587 -0.513505 0.162791 34.000000 0 351.545112
-0.041788 -0.005381 3.274149 70.000000 31 351.545123
-0.481872 -0.137580 3.186245 95.000000 28 351.545125
-0.629241 -0.178833 3.168473 89.000000 27 351.545128
-0.921110 -0.281370 3.124314 90.000000 25 351.545130
-1.267522 -0.394810 3.187166 23.000000 23 351.545133
-1.605985 -0.500532 3.148778 39.000000 21 351.545135
-1.948393 -0.607243 3.069993 38.000000 19 351.545138
-2.031068 -0.633007 2.622817 21.000000 17 351.545141
-0.192157 -0.045207 3.243975 97.000000 30 351.545148
-0.340267 -0.088623 3.231230 97.000000 29 351.545151
-0.774784 -0.230727 3.147808 96.000000 26 351.545153
-1.026242 -0.317699 2.975628 63.000000 24 351.545156
-1.443100 -0.447285 3.186343 46.000000 22 351.545159
-1.775193 -0.550546 3.110285 39.000000 20 351.545161
-2.086727 -0.647158 2.966709 16.000000 18 351.545164
-1.976306 -0.612911 2.321420 28.000000 16 351.545166
-1.936995 -0.606283 2.074339 30.000000 15 351.545124
-1.875336 -0.586981 1.666296 35.000000 13 351.545126
-1.829845 -0.572392 1.341637 36.000000 11 351.545129
-1.794120 -0.561214 1.070159 38.000000 9 351.545132
-1.748559 -0.546628 0.828499 39.000000 7 351.545134
-1.708302 -0.533715 0.615672 40.000000 5 351.545137
-1.683254 -0.525890 0.426283 39.000000 3 351.545139
-1.644586 -0.513494 0.247320 32.000000 1 351.545142
-1.914530 -0.595951 1.866414 34.000000 14 351.545150
-1.851117 -0.576210 1.495214 37.000000 12 351.545152
-1.808924 -0.562730 1.198408 38.000000 10 351.545155
-1.782203 -0.554415 0.950275 39.000000 8 351.545157
-1.741223 -0.541333 0.723418 44.000000 6 351.545160
-1.708302 -0.530771 0.522166 52.000000 4 351.545162
-1.674099 -0.519824 0.336395 36.000000 2 351.545165
-1.641141 -0.509277 0.162992 35.000000 0 351.545167
-0.041807 -0.005235 3.274149 70.000000 31 351.545178
-0.482349 -0.135897 3.186245 96.000000 28 351.545181
-0.629861 -0.176635 3.168473 89.000000 27 351.545183
-0.922087 -0.278153 3.124314 90.000000 25 351.545186
-1.283830 -0.394979 3.223986 19.000000 23 351.545188
-1.607722 -0.494923 3.148778 39.000000 21 351.545191
-1.950500 -0.600438 3.069993 38.000000 19 351.545193
-2.045521 -0.629686 2.638164 22.000000 17 351.545196
-0.192597 -0.044600 3.248966 97.000000 30 351.545204
-0.340574 -0.087435 3.231230 97.000000 29 351.545206
-0.775584 -0.228021 3.147808 95.000000 26 351.545209
-1.028995 -0.314619 2.980321 53.000000 24 351.545211
-1.444653 -0.442245 3.186343 46.000000 22 351.545214
-1.777104 -0.544346 3.110285 39.000000 20 351.545217
-2.097618 -0.642518 2.978677 16.000000 18 351.545219
-1.984916 -0.607994 2.328770 27.000000 16 351.545222
-1.945914 -0.601625 2.081348 30.000000 15 351.545179
-1.884812 -0.582731 1.672572 35.000000 13 351.545182
-1.835827 -0.567236 1.344379 36.000000 11 351.545185
-1.804534 -0.557564 1.074795 39.000000 9 351.545187
-1.754886 -0.541888 0.830372 39.000000 7 351.545190
-1.719323 -0.530578 0.618491 40.000000 5 351.545192
-1.689773 -0.521459 0.427215 39.000000 3 351.545195
-1.651127 -0.509218 0.247766 32.000000 1 351.545197
-1.923738 -0.591460 1.873064 34.000000 14 351.545205
-1.860844 -0.572120 1.501101 37.000000 12 351.545208
-1.819120 -0.558945 1.203473 38.000000 10 351.545210
-1.788466 -0.549523 0.952373 39.000000 8 351.545213
-1.747616 -0.536638 0.725061 42.000000 6 351.545215
-1.714791 -0.526231 0.523338 52.000000 4 351.545218
-1.680638 -0.515429 0.337085 36.000000 2 351.545220
-1.652462 -0.506473 0.163395 34.000000 0 351.545223
-0.041869 -0.005090 3.279149 70.000000 31 351.545234
-0.482072 -0.134005 3.181306 97.000000 28 351.545236
-0.630474 -0.174435 3.168473 89.000000 27 351.545239
-0.923052 -0.274933 3.124314 90.000000 25 351.545241
-1.285201 -0.390495 3.223986 16.000000 23 351.545244
-1.609440 -0.489308 3.148778 39.000000 21 351.545246
-1.949892 -0.592808 3.065860 38.000000 19 351.545249
-2.059976 -0.626272 2.653512 22.000000 17 351.545252
-0.192751 -0.043927 3.248966 98.000000 30 351.545259
-0.340877 -0.086246 3.231230 97.000000 29 351.545262
-0.776376 -0.225313 3.147808 95.000000 26 351.545264
-1.033391 -0.312023 2.989707 44.000000 24 351.545267
-1.446188 -0.437199 3.186343 45.000000 22 351.545270
-1.778993 -0.538140 3.110285 39.000000 20 351.545272
-2.111388 -0.638683 2.994635 17.000000 18 351.545275
-1.996761 -0.604007 2.339795 27.000000 16 351.545277
-1.958235 -0.597953 2.091861 30.000000 15 351.545235
-1.894280 -0.578422 1.678848 35.000000 13 351.545237
-1.845795 -0.563265 1.349862 36.000000 11 351.545240
-1.814944 -0.553848 1.079431 39.000000 9 351.545243
-1.765636 -0.538464 0.834118 39.000000 7 351.545245
-1.725753 -0.525972 0.619900 40.000000 5 351.545248
-1.696282 -0.516990 0.428148 39.000000 3 351.545250
-1.657659 -0.504902 0.248212 32.000000 1 351.545253
-1.936511 -0.587996 1.883039 34.000000 14 351.545261
-1.870565 -0.567970 1.506987 37.000000 12 351.545263
-1.829311 -0.555095 1.208538 38.000000 10 351.545266
-1.799059 -0.545913 0.956570 40.000000 8 351.545268
-1.758517 -0.533275 0.728346 42.000000 6 351.545271
-1.725921 -0.523062 0.525683 52.000000 4 351.545273
-1.691906 -0.512431 0.338465 37.000000 2 351.545276
-1.659002 -0.502149 0.163597 34.000000 0 351.545279
-0.041886 -0.004944 3.279149 70.000000 31 351.545289
-0.482536 -0.132322 3.181306 97.000000 28 351.545292
-0.631079 -0.172233 3.168473 87.000000 27 351.545294
-0.924006 -0.271709 3.124314 89.000000 25 351.545297
-1.280943 -0.384323 3.210179 15.000000 23 351.545299
-1.611138 -0.483687 3.148778 39.000000 21 351.545302
-1.951949 -0.585998 3.065860 38.000000 19 351.545305
-2.071361 -0.621843 2.665023 21.000000 17 351.545307
-0.192903 -0.043254 3.248966 98.000000 30 351.545315
-0.341176 -0.085055 3.231230 97.000000 29 351.545317
-0.777157 -0.222601 3.147808 96.000000 26 351.545320
-1.037781 -0.309400 2.999092 39.000000 24 351.545323
-1.447705 -0.432149 3.186343 46.000000 22 351.545325
-1.780861 -0.531927 3.110285 39.000000 20 351.545328
-2.122268 -0.633896 3.006604 17.000000 18 351.545330
-2.008602 -0.599944 2.350821 27.000000 16 351.545333
-1.970553 -0.594203 2.102375 29.000000 15 351.545290
-1.907469 -0.575178 1.688261 35.000000 13 351.545293
-1.855757 -0.559231 1.355344 36.000000 11 351.545296
-1.825350 -0.550065 1.084067 39.000000 9 351.545298
-1.771944 -0.533634 0.835991 39.000000 7 351.545301
-1.736766 -0.522710 0.622718 40.000000 5 351.545303
-1.702780 -0.512481 0.429081 39.000000 3 351.545306
-1.668949 -0.501982 0.249105 32.000000 1 351.545308
-1.945705 -0.583378 1.889688 34.000000 14 351.545316
-1.880280 -0.563759 1.512873 37.000000 12 351.545319
-1.839497 -0.551181 1.213603 38.000000 10 351.545321
-1.809649 -0.542235 0.960766 40.000000 8 351.545324
-1.764892 -0.528489 0.729989 42.000000 6 351.545326
-1.732392 -0.518427 0.526855 50.000000 4 351.545329
-1.698429 -0.507941 0.339155 37.000000 2 351.545331
-1.665531 -0.497786 0.163798 34.000000 0 351.545334
-0.041903 -0.004798 3.279149 70.000000 31 351.545345
-0.482995 -0.130636 3.181306 97.000000 28 351.545347
-0.631676 -0.170030 3.168473 90.000000 27 351.545350
-0.923514 -0.268066 3.119542 90.000000 25 351.545352
-1.284150 -0.380404 3.214781 15.000000 23 351.545355
-1.612817 -0.478060 3.148778 39.000000 21 351.545357
-1.953983 -0.579181 3.065860 38.000000 19 351.545360
-2.085814 -0.618253 2.680371 20.000000 17 351.545363
-0.193053 -0.042581 3.248966 98.000000 30 351.545370
-0.340952 -0.083738 3.226259 97.000000 29 351.545373
-0.777930 -0.219887 3.147808 96.000000 26 351.545375
-1.043821 -0.307237 3.013170 38.000000 24 351.545378
-1.449205 -0.427093 3.186343 47.000000 22 351.545381
-1.782707 -0.525707 3.110285 39.000000 20 351.545383
-2.133140 -0.629042 3.018572 16.000000 18 351.545386
-2.020439 -0.595805 2.361846 26.000000 16 351.545388
-1.982869 -0.590373 2.112889 30.000000 15 351.545346
-1.916927 -0.570738 1.694536 34.000000 13 351.545349
-1.865713 -0.555135 1.360827 36.000000 11 351.545351
-1.831505 -0.544954 1.086385 39.000000 9 351.545354
-1.782683 -0.530089 0.839737 39.000000 7 351.545356
-1.747777 -0.519377 0.625537 40.000000 5 351.545359
-1.713976 -0.509333 0.430946 39.000000 3 351.545361
-1.675465 -0.497571 0.249551 32.000000 1 351.545364
-1.958472 -0.579762 1.899663 34.000000 14 351.545372
-1.889988 -0.559487 1.518760 37.000000 12 351.545374
-1.845544 -0.545980 1.216135 38.000000 10 351.545377
-1.820235 -0.538490 0.964962 40.000000 8 351.545379
-1.775783 -0.525002 0.733274 40.000000 6 351.545382
-1.743514 -0.515131 0.529200 50.000000 4 351.545384
-1.709691 -0.504814 0.340534 37.000000 2 351.545387
-1.672050 -0.493383 0.164000 34.000000 0 351.545390
-0.041963 -0.004652 3.284148 70.000000 31 351.545400
-0.483448 -0.128950 3.181306 97.000000 28 351.545403
-0.632266 -0.167824 3.168473 90.000000 27 351.545405
-0.924444 -0.264841 3.119542 90.000000 25 351.545408
-1.283594 -0.375371 3.210179 20.000000 23 351.545410
-1.614476 -0.472428 3.148778 39.000000 21 351.545413
-1.955993 -0.572356 3.065860 38.000000 19 351.545416
-2.100267 -0.614570 2.695719 19.000000 17 351.545418
-0.193200 -0.041906 3.248966 97.000000 30 351.545426
-0.341242 -0.082547 3.226259 97.000000 29 351.545428
-0.778693 -0.217170 3.147808 95.000000 26 351.545431
-1.049859 -0.305036 3.027249 38.000000 24 351.545434
-1.450687 -0.422031 3.186343 47.000000 22 351.545436
-1.784531 -0.519481 3.110285 39.000000 20 351.545439
-2.141111 -0.623277 3.026551 15.000000 18 351.545441
-2.032272 -0.591592 2.372872 26.000000 16 351.545444
-1.991761 -0.585460 2.119898 29.000000 15 351.545401
-1.930113 -0.567336 1.703950 34.000000 13 351.545404
-1.875663 -0.550976 1.366310 36.000000 11 351.545407
-1.841897 -0.541055 1.091021 38.000000 9 351.545409
-1.793419 -0.526474 0.843483 39.000000 7 351.545412
-1.758786 -0.515974 0.628355 40.000000 5 351.545414
-1.720457 -0.504730 0.431878 39.000000 3 351.545417
-1.681971 -0.493120 0.249997 32.000000 1 351.545419
-1.967653 -0.575017 1.906312 34.000000 14 351.545427
-1.903569 -0.556287 1.527589 37.000000 12 351.545430
-1.855715 -0.541951 1.221200 38.000000 10 351.545432
-1.830816 -0.534677 0.969158 40.000000 8 351.545435
-1.786672 -0.521447 0.736560 44.000000 6 351.545437
-1.754634 -0.511764 0.531544 50.000000 4 351.545440
-1.720951 -0.501614 0.341914 37.000000 2 351.545443
-1.683356 -0.490337 0.164403 34.000000 0 351.545445
-0.041979 -0.004506 3.284148 70.000000 31 351.545456
-0.483144 -0.127064 3.176367 96.000000 28 351.545458
-0.632848 -0.165616 3.168473 89.000000 27 351.545461
-0.925363 -0.261612 3.119542 90.000000 25 351.545463
-1.284897 -0.370888 3.210179 27.000000 23 351.545466
-1.616115 -0.466789 3.148778 39.000000 21 351.545469
-1.957979 -0.565525 3.065860 38.000000 19 351.545471
-2.111639 -0.609903 2.707230 19.000000 17 351.545474
-0.193062 -0.041173 3.243975 97.000000 30 351.545481
-0.341528 -0.081355 3.226259 97.000000 29 351.545484
-0.778233 -0.214117 3.142969 95.000000 26 351.545487
-1.055893 -0.302797 3.041327 39.000000 24 351.545489
-1.452151 -0.416965 3.186343 46.000000 22 351.545492
-1.786334 -0.513249 3.110285 39.000000 20 351.545494
-2.149067 -0.617464 3.034530 15.000000 18 351.545497
-2.047358 -0.588239 2.387573 25.000000 16 351.545499
-2.004067 -0.581485 2.130411 29.000000 15 351.545457
-1.939559 -0.562765 1.710225 35.000000 13 351.545460
-1.889623 -0.547919 1.374535 36.000000 11 351.545462
-1.852284 -0.537089 1.095657 38.000000 9 351.545465
-1.799698 -0.521501 0.845356 39.000000 7 351.545467
-1.769793 -0.512501 0.631174 40.000000 5 351.545470
-1.731645 -0.501454 0.433744 39.000000 3 351.545472
-1.693249 -0.490015 0.250890 32.000000 1 351.545475
-1.980412 -0.571250 1.916287 34.000000 14 351.545483
-1.913266 -0.551880 1.533475 37.000000 12 351.545485
-1.870023 -0.539053 1.228797 38.000000 10 351.545488
-1.841393 -0.530797 0.973354 40.000000 8 351.545490
-1.797557 -0.517821 0.739845 42.000000 6 351.545493
-1.761081 -0.506981 0.532717 49.000000 4 351.545495
-1.732210 -0.498342 0.343293 37.000000 2 351.545498
-1.689858 -0.485839 0.164604 35.000000 0 351.545501
-0.041995 -0.004359 3.284148 69.000000 31 351.545511
-0.483584 -0.125377 3.176367 96.000000 28 351.545514
-0.633422 -0.163405 3.168473 89.000000 27 351.545516
-0.926271 -0.258380 3.119542 90.000000 25 351.545519
-1.286184 -0.366400 3.210179 36.000000 23 351.545521
-1.617735 -0.461145 3.148778 38.000000 21 351.545524
-1.959941 -0.558687 3.065860 38.000000 19 351.545526
-2.126088 -0.606044 2.722577 18.000000 17 351.545529
-0.193198 -0.040533 3.243975 97.000000 30 351.545537
-0.341796 -0.080222 3.226259 97.000000 29 351.545539
-0.778939 -0.211535 3.142969 96.000000 26 351.545542
-1.061873 -0.300704 3.055406 57.000000 24 351.545544
-1.453598 -0.411893 3.186343 46.000000 22 351.545547
-1.788114 -0.507010 3.110285 39.000000 20 351.545549
-2.154109 -0.610780 3.038520 15.000000 18 351.545552
-2.059082 -0.584222 2.398598 25.000000 16 351.545555
-2.016370 -0.577431 2.140925 29.000000 15 351.545512
-1.952738 -0.559206 1.719639 34.000000 13 351.545515
-1.899565 -0.543620 1.380018 36.000000 11 351.545517
-1.862666 -0.533058 1.100294 38.000000 9 351.545520
-1.810332 -0.518081 0.849102 39.000000 7 351.545523
-1.780707 -0.509267 0.633992 40.000000 5 351.545525
-1.738108 -0.496756 0.434676 39.000000 3 351.545528
-1.699738 -0.485469 0.251336 32.000000 1 351.545530
-1.993169 -0.567401 1.926261 33.000000 14 351.545538
-1.926844 -0.548518 1.542305 37.000000 12 351.545541
-1.880094 -0.535209 1.233862 38.000000 10 351.545543
-1.851874 -0.527173 0.977550 40.000000 8 351.545546
-1.803806 -0.513150 0.741488 40.000000 6 351.545548
-1.772103 -0.503797 0.535061 49.000000 4 351.545551
-1.743380 -0.495302 0.344673 37.000000 2 351.545553
-1.696266 -0.481597 0.164806 35.000000 0 351.545556
-0.042009 -0.004220 3.284148 69.000000 31 351.545567
-0.483998 -0.123773 3.176367 96.000000 28 351.545569
-0.633961 -0.161304 3.168473 90.000000 27 351.545572
-0.927122 -0.255307 3.119542 92.000000 25 351.545574
-1.287392 -0.362133 3.210179 41.000000 23 351.545577
-1.619255 -0.455778 3.148778 38.000000 21 351.545579
-1.961783 -0.552185 3.065860 38.000000 19 351.545582
-2.137344 -0.601596 2.734088 18.000000 17 351.545584
-0.193338 -0.039858 3.243975 98.000000 30 351.545592
-0.342074 -0.079029 3.226259 97.000000 29 351.545595
-0.779672 -0.208815 3.142969 95.000000 26 351.545597
-1.067902 -0.298389 3.069484 76.000000 24 351.545600
-1.454955 -0.407071 3.186343 47.000000 22 351.545602
-1.789786 -0.501078 3.110285 39.000000 20 351.545605
-2.153220 -0.602821 3.034530 20.000000 18 351.545608
-2.070903 -0.579773 2.409624 24.000000 16 351.545610
-2.025137 -0.572682 2.147934 28.000000 15 351.545568
-1.962074 -0.554847 1.725914 34.000000 13 351.545570
-1.909405 -0.539593 1.385501 36.000000 11 351.545573
-1.872950 -0.529288 1.104930 38.000000 9 351.545575
-1.821052 -0.514279 0.852848 39.000000 7 351.545578
-1.791708 -0.505654 0.636810 40.000000 5 351.545581
-1.749201 -0.493658 0.436542 39.000000 3 351.545583
-1.710925 -0.482533 0.252228 31.000000 1 351.545586
-2.002229 -0.562809 1.932911 33.000000 14 351.545593
-1.936434 -0.544312 1.548191 37.000000 12 351.545596
-1.890252 -0.530975 1.238927 38.000000 10 351.545599
-1.862441 -0.523161 0.981746 40.000000 8 351.545601
-1.814680 -0.509403 0.744773 40.000000 6 351.545604
-1.778531 -0.498921 0.536234 49.000000 4 351.545606
-1.749867 -0.490550 0.345363 37.000000 2 351.545609
-1.707559 -0.478368 0.165209 34.000000 0 351.545611
-0.042023 -0.004073 3.284148 70.000000 31 351.545622
-0.485180 -0.122272 3.181306 97.000000 28 351.545625
-0.634520 -0.159090 3.168473 92.000000 27 351.545627
-0.928008 -0.252070 3.119542 92.000000 25 351.545630
-1.288648 -0.357637 3.210179 49.000000 23 351.545632
-1.620836 -0.450123 3.148778 39.000000 21 351.545635
-1.963698 -0.545333 3.065860 38.000000 19 351.545637
-2.151787 -0.597563 2.749436 18.000000 17 351.545640
-0.193476 -0.039183 3.243975 97.000000 30 351.545648
-0.342348 -0.077834 3.226259 97.000000 29 351.545650
-0.780397 -0.206092 3.142969 95.000000 26 351.545653
-1.070601 -0.295118 3.074177 92.000000 24 351.545655
-1.456367 -0.401990 3.186343 47.000000 22 351.545658
-1.791524 -0.494827 3.110285 39.000000 20 351.545661
-2.155311 -0.595302 3.034530 30.000000 18 351.545663
-2.085985 -0.576151 2.424324 24.000000 16 351.545666
-2.037429 -0.568485 2.158448 28.000000 15 351.545623
-1.975248 -0.551133 1.735328 34.000000 13 351.545626
-1.923360 -0.536293 1.393725 36.000000 11 351.545628
-1.883321 -0.525127 1.109566 38.000000 9 351.545631
-1.831768 -0.510408 0.856594 39.000000 7 351.545634
-1.798084 -0.500684 0.638219 40.000000 5 351.545636
-1.760378 -0.490185 0.438407 39.000000 3 351.545639
-1.717396 -0.477893 0.252674 32.000000 1 351.545641
-2.014977 -0.558811 1.942886 33.000000 14 351.545649
-1.950008 -0.540790 1.557021 37.000000 12 351.545652
-1.900403 -0.526677 1.243992 38.000000 10 351.545654
-1.873004 -0.519080 0.985942 40.000000 8 351.545657
-1.825549 -0.505586 0.748059 42.000000 6 351.545659
-1.789631 -0.495302 0.538578 47.000000 4 351.545662
-1.761115 -0.487079 0.346743 37.000000 2 351.545664
-1.714033 -0.473736 0.165410 34.000000 0 351.545667
-0.041994 -0.003926 3.279149 70.000000 31 351.545678
-0.485604 -0.120577 3.181306 96.000000 28 351.545680
-0.635071 -0.156874 3.168473 89.000000 27 351.545683
-0.928882 -0.248829 3.119542 90.000000 25 351.545685
-1.289888 -0.353137 3.210179 52.000000 23 351.545688
-1.622398 -0.444462 3.148778 39.000000 21 351.545690
-1.965590 -0.538475 3.065860 38.000000 19 351.545693
-2.163135 -0.592589 2.760947 17.000000 17 351.545695
-0.193611 -0.038507 3.243975 97.000000 30 351.545703
-0.342618 -0.076639 3.226259 97.000000 29 351.545706
-0.781111 -0.203367 3.142969 95.000000 26 351.545708
-1.074955 -0.292284 3.083562 95.000000 24 351.545711
-1.457762 -0.396904 3.186343 46.000000 22 351.545713
-1.793240 -0.488571 3.110285 39.000000 20 351.545716
-2.154468 -0.586982 3.030541 35.000000 18 351.545719
-2.097796 -0.571540 2.435350 24.000000 16 351.545721
-2.049716 -0.564209 2.168962 28.000000 15 351.545679
-1.984666 -0.546301 1.741603 34.000000 13 351.545681
-1.933283 -0.531794 1.399208 35.000000 11 351.545684
-1.893686 -0.520900 1.114202 38.000000 9 351.545687
-1.842478 -0.506468 0.860340 39.000000 7 351.545689
-1.809072 -0.496946 0.641038 40.000000 5 351.545692
-1.771552 -0.486639 0.440272 39.000000 3 351.545694
-1.728659 -0.474532 0.253567 32.000000 1 351.545697
-2.024120 -0.553744 1.949535 33.000000 14 351.545705
-1.959681 -0.536113 1.562907 37.000000 12 351.545707
-1.914706 -0.523450 1.251589 38.000000 10 351.545710
-1.883560 -0.514933 0.990138 40.000000 8 351.545712
-1.836414 -0.501700 0.751344 40.000000 6 351.545715
-1.796038 -0.490332 0.539751 47.000000 4 351.545717
-1.767582 -0.482232 0.347432 37.000000 2 351.545720
-1.725316 -0.470378 0.165813 34.000000 0 351.545722
-0.042007 -0.003780 3.279149 70.000000 31 351.545733
-0.486022 -0.118882 3.181306 96.000000 28 351.545736
-0.635615 -0.154656 3.168473 89.000000 27 351.545738
-0.929745 -0.245585 3.119542 90.000000 25 351.545741
-1.291113 -0.348632 3.210179 50.000000 23 351.545743
-1.623939 -0.438797 3.148778 39.000000 21 351.545746
-1.967458 -0.531611 3.065860 38.000000 19 351.545748
-2.174475 -0.587544 2.772458 17.000000 17 351.545751
-0.193745 -0.037831 3.243975 97.000000 30 351.545759
-0.342883 -0.075442 3.226259 97.000000 29 351.545761
-0.781816 -0.200639 3.142969 96.000000 26 351.545764
-1.075969 -0.288530 3.083562 95.000000 24 351.545766
-1.459138 -0.391813 3.186343 45.000000 22 351.545769
-1.794935 -0.482308 3.110285 39.000000 20 351.545772
-2.156504 -0.579458 3.030541 38.000000 18 351.545774
-2.112875 -0.567732 2.450050 23.000000 16 351.545777
-2.061998 -0.559854 2.179475 28.000000 15 351.545734
-1.997831 -0.542430 1.751016 33.000000 13 351.545737
-1.943199 -0.527232 1.404691 35.000000 11 351.545739
-1.904044 -0.516606 1.118838 38.000000 9 351.545742
-1.853184 -0.502460 0.864087 39.000000 7 351.545745
-1.815426 -0.491882 0.642447 40.000000 5 351.545747
-1.777981 -0.481737 0.441205 39.000000 3 351.545750
-1.739919 -0.471098 0.254459 32.000000 1 351.545752
-2.036857 -0.549594 1.959510 32.000000 14 351.545760
-1.973248 -0.532428 1.571737 37.000000 12 351.545763
-1.924846 -0.519008 1.256654 38.000000 10 351.545765
-1.894110 -0.510718 0.994335 40.000000 8 351.545768
-1.847274 -0.497744 0.754629 40.000000 6 351.545770
-1.807125 -0.486588 0.542095 49.000000 4 351.545773
-1.778818 -0.478633 0.348812 37.000000 2 351.545775
-1.736597 -0.466947 0.166217 35.000000 0 351.545778
-0.041977 -0.003633 3.274149 70.000000 31 351.545789
-0.486434 -0.117184 3.181306 97.000000 28 351.545791
-0.636151 -0.152437 3.168473 90.000000 27 351.545794
-0.930597 -0.242338 3.119542 90.000000 25 351.545796
-1.292322 -0.344123 3.210179 49.000000 23 351.545799
-1.625461 -0.433125 3.148778 39.000000 21 351.545801
-1.969301 -0.524740 3.065860 38.000000 19 351.545804
-2.185807 -0.582426 2.783968 17.000000 17 351.545807
-0.193876 -0.037155 3.243975 98.000000 30 351.545814
-0.343144 -0.074245 3.226259 97.000000 29 351.545817
-0.782512 -0.197909 3.142969 95.000000 26 351.545819
-1.078638 -0.285214 3.088255 95.000000 24 351.545822
-1.458392 -0.386159 3.181842 46.000000 22 351.545825
-1.796607 -0.476040 3.110285 39.000000 20 351.545827
-2.155600 -0.571155 3.026551 38.000000 18 351.545830
-2.127952 -0.563827 2.464751 23.000000 16 351.545832
-2.074275 -0.555420 2.189989 27.000000 15 351.545790
-2.010994 -0.538473 1.760430 33.000000 13 351.545792
-1.953106 -0.522608 1.410174 35.000000 11 351.545795
-1.914395 -0.512247 1.123474 38.000000 9 351.545798
-1.863884 -0.498383 0.867833 39.000000 7 351.545800
-1.826402 -0.488019 0.645265 40.000000 5 351.545803
-1.789143 -0.478064 0.443070 39.000000 3 351.545805
-1.746364 -0.466307 0.254906 30.000000 1 351.545808
-2.045980 -0.544401 1.966160 32.000000 14 351.545816
-1.982906 -0.527616 1.577623 37.000000 12 351.545818
-1.934979 -0.514502 1.261719 38.000000 10 351.545821
-1.904653 -0.506436 0.998531 39.000000 8 351.545823
-1.853564 -0.492505 0.756272 40.000000 6 351.545826
-1.813511 -0.481524 0.543268 47.000000 4 351.545828
-1.785265 -0.473691 0.349502 37.000000 2 351.545831
-1.747874 -0.463443 0.166620 34.000000 0 351.545833
-0.041989 -0.003487 3.274149 58.000000 31 351.545844
-0.486840 -0.115486 3.181306 97.000000 28 351.545847
-0.636679 -0.150215 3.168473 92.000000 27 351.545849
-0.931437 -0.239088 3.119542 90.000000 25 351.545852
-1.291626 -0.339114 3.205576 49.000000 23 351.545854
-1.626963 -0.427449 3.148778 39.000000 21 351.545857
-1.971121 -0.517863 3.065860 38.000000 19 351.545859
-2.197128 -0.577236 2.795479 17.000000 17 351.545862
-0.193998 -0.036512 3.243975 96.000000 30 351.545870
-0.343389 -0.073107 3.226259 97.000000 29 351.545872
-0.784384 -0.195617 3.147808 95.000000 26 351.545875
-1.079577 -0.281635 3.088255 95.000000 24 351.545877
-1.459731 -0.381066 3.181842 48.000000 22 351.545880
-1.798258 -0.469765 3.110285 39.000000 20 351.545883
-2.157581 -0.563627 3.026551 38.000000 18 351.545885
-2.139650 -0.559339 2.475777 22.000000 16 351.545888
-2.086545 -0.550907 2.200502 27.000000 15 351.545845
-2.020389 -0.533438 1.766705 33.000000 13 351.545848
-1.963005 -0.517921 1.415657 35.000000 11 351.545851
-1.924739 -0.507822 1.128110 37.000000 9 351.545853
-1.874491 -0.494565 0.871579 39.000000 7 351.545856
-1.837287 -0.484406 0.648084 40.000000 5 351.545858
-1.800302 -0.474319 0.444935 40.000000 3 351.545861
-1.757613 -0.462744 0.255798 30.000000 1 351.545863
-2.058705 -0.540099 1.976134 32.000000 14 351.545871
-1.992555 -0.522742 1.583509 36.000000 12 351.545874
-1.945015 -0.510270 1.266783 38.000000 10 351.545876
-1.915102 -0.502420 1.002727 39.000000 8 351.545879
-1.864323 -0.488751 0.759557 39.000000 6 351.545881
-1.824501 -0.477971 0.545612 47.000000 4 351.545884
-1.796407 -0.470276 0.350881 37.000000 2 351.545886
-1.759068 -0.460173 0.167023 34.000000 0 351.545889
-0.042000 -0.003348 3.274149 59.000000 31 351.545900
-0.487220 -0.113871 3.181306 97.000000 28 351.545902
-0.637174 -0.148103 3.168473 90.000000 27 351.545905
-0.932225 -0.235998 3.119542 90.000000 25 351.545907
-1.292744 -0.334829 3.205576 49.000000 23 351.545910
-1.628371 -0.422051 3.148778 39.000000 21 351.545912
-1.972827 -0.511323 3.065860 38.000000 19 351.545915
-2.211444 -0.573164 2.810827 16.000000 17 351.545918
-0.194124 -0.035834 3.243975 96.000000 30 351.545925
-0.343642 -0.071907 3.226259 97.000000 29 351.545928
-0.785062 -0.192878 3.147808 96.000000 26 351.545930
-1.080554 -0.277865 3.088255 93.000000 24 351.545933
-1.461052 -0.375969 3.181842 49.000000 22 351.545936
-1.799887 -0.463485 3.110285 39.000000 20 351.545938
-2.159535 -0.556092 3.026551 39.000000 18 351.545941
-2.154817 -0.554875 2.490477 22.000000 16 351.545943
-2.102165 -0.547581 2.214520 26.000000 15 351.545901
-2.033448 -0.529679 1.776119 34.000000 13 351.545903
-1.976851 -0.514568 1.423881 35.000000 11 351.545906
-1.934987 -0.503668 1.132746 37.000000 9 351.545909
-1.885180 -0.490353 0.875325 39.000000 7 351.545911
-1.843610 -0.479196 0.649493 40.000000 5 351.545914
-1.811455 -0.470501 0.446800 39.000000 3 351.545916
-1.764038 -0.457857 0.256244 32.000000 1 351.545919
-2.067808 -0.534779 1.982784 32.000000 14 351.545927
-2.006108 -0.518820 1.592339 36.000000 12 351.545929
-1.955220 -0.505296 1.271848 38.000000 10 351.545932
-1.925719 -0.497669 1.006923 40.000000 8 351.545934
-1.875247 -0.484276 0.762843 39.000000 6 351.545937
-1.830947 -0.472495 0.546785 45.000000 4 351.545939
-1.802914 -0.464925 0.351571 37.000000 2 351.545942
-1.765502 -0.455278 0.167224 34.000000 0 351.545945
-0.042012 -0.003194 3.274149 70.000000 31 351.545955
-0.487635 -0.112084 3.181306 95.000000 28 351.545958
-0.637712 -0.145767 3.168473 90.000000 27 351.545960
-0.933083 -0.232579 3.119542 90.000000 25 351.545963
-1.293962 -0.330089 3.205576 48.000000 23 351.545965
-1.629907 -0.416080 3.148778 39.000000 21 351.545968
-1.974688 -0.504089 3.065860 38.000000 19 351.545971
-2.222849 -0.567434 2.822338 16.000000 17 351.545973
-0.194254 -0.035122 3.243975 97.000000 30 351.545981
-0.343903 -0.070647 3.226259 97.000000 29 351.545983
-0.785764 -0.189999 3.147808 96.000000 26 351.545986
-1.081565 -0.273903 3.088255 93.000000 24 351.545989
-1.462356 -0.370866 3.181842 48.000000 22 351.545991
-1.801494 -0.457200 3.110285 39.000000 20 351.545994
-2.161463 -0.548551 3.026551 38.000000 18 351.545996
-2.169885 -0.550685 2.505178 22.000000 16 351.545999
-2.114521 -0.542531 2.225034 26.000000 15 351.545956
-2.042917 -0.524157 1.782394 33.000000 13 351.545959
-1.986825 -0.509396 1.429364 35.000000 11 351.545962
-1.945403 -0.498773 1.137382 37.000000 9 351.545964
-1.895946 -0.485741 0.879071 39.000000 7 351.545967
-1.854649 -0.474816 0.652311 40.000000 5 351.545969
-1.817845 -0.465394 0.447733 39.000000 3 351.545972
-1.775275 -0.454165 0.257137 32.000000 1 351.545974
-2.080518 -0.530325 1.992758 31.000000 14 351.545982
-2.015740 -0.513811 1.598225 36.000000 12 351.545985
-1.965328 -0.500596 1.276913 37.000000 10 351.545987
-1.936241 -0.493184 1.011119 39.000000 8 351.545990
-1.881503 -0.478892 0.764485 39.000000 6 351.545992
-1.842007 -0.468497 0.549129 47.000000 4 351.545995
-1.809326 -0.459849 0.352261 37.000000 2 351.545997
-1.776843 -0.451263 0.167627 34.000000 0 351.546000
-0.042067 -0.003046 3.279149 70.000000 31 351.546011
-0.488023 -0.110381 3.181306 95.000000 28 351.546013
-0.638217 -0.143540 3.168473 89.000000 27 351.546016
-0.933890 -0.229321 3.119542 90.000000 25 351.546018
-1.295106 -0.325570 3.205576 48.000000 23 351.546021
-1.629026 -0.409804 3.144389 39.000000 21 351.546023
-1.976436 -0.497193 3.065860 38.000000 19 351.546026
-2.234143 -0.562018 2.833849 16.000000 17 351.546029
-0.194661 -0.034493 3.248966 97.000000 30 351.546036
-0.344148 -0.069447 3.226259 97.000000 29 351.546039
-0.786423 -0.187255 3.147808 96.000000 26 351.546041
-1.080840 -0.269708 3.083562 93.000000 24 351.546044
-1.463641 -0.365759 3.181842 48.000000 22 351.546047
-1.803079 -0.450909 3.110285 39.000000 20 351.546049
-2.163365 -0.541003 3.026551 38.000000 18 351.546052
-2.184950 -0.546398 2.519879 22.000000 16 351.546054
-2.126774 -0.537770 2.235548 26.000000 15 351.546012
-2.056057 -0.519886 1.791808 31.000000 13 351.546015
-1.996699 -0.504506 1.434847 35.000000 11 351.546017
-1.955722 -0.494150 1.142018 37.000000 9 351.546020
-1.906619 -0.481389 0.882817 39.000000 7 351.546022
-1.865598 -0.470686 0.655130 40.000000 5 351.546025
-1.828985 -0.461449 0.449598 40.000000 3 351.546027
-1.781678 -0.449183 0.257583 32.000000 1 351.546030
-2.093222 -0.525789 2.002733 31.000000 14 351.546038
-2.029282 -0.509726 1.607054 36.000000 12 351.546040
-1.975426 -0.495832 1.281978 36.000000 10 351.546043
-1.951156 -0.489737 1.017413 39.000000 8 351.546045
-1.892324 -0.474619 0.767771 40.000000 6 351.546048
-1.853061 -0.464428 0.551474 47.000000 4 351.546050
-1.820528 -0.455937 0.353641 37.000000 2 351.546053
-1.788100 -0.447484 0.168030 34.000000 0 351.546056
-0.042077 -0.002899 3.279149 70.000000 31 351.546066
-0.488405 -0.108677 3.181306 96.000000 28 351.546069
-0.638714 -0.141311 3.168473 83.000000 27 351.546071
-0.934684 -0.226060 3.119542 90.000000 25 351.546074
-1.296235 -0.321047 3.205576 49.000000 23 351.546076
-1.630447 -0.404115 3.144389 39.000000 21 351.546079
-1.978159 -0.490291 3.065860 38.000000 19 351.546082
-2.248538 -0.557301 2.849196 15.000000 17 351.546084
-0.194780 -0.033813 3.248966 97.000000 30 351.546092
-0.344388 -0.068245 3.226259 97.000000 29 351.546094
-0.787071 -0.184509 3.147808 95.000000 26 351.546097
-1.081775 -0.265934 3.083562 93.000000 24 351.546100
-1.464909 -0.360648 3.181842 48.000000 22 351.546102
-1.804642 -0.444612 3.110285 39.000000 20 351.546105
-2.165240 -0.533448 3.026551 38.000000 18 351.546107
-2.200011 -0.542011 2.534579 21.000000 16 351.546110
-2.142480 -0.533791 2.249566 26.000000 15 351.546067
-2.065414 -0.514588 1.798083 31.000000 13 351.546070
-2.006563 -0.499554 1.440330 35.000000 11 351.546073
-1.966033 -0.489461 1.146654 37.000000 9 351.546075
-1.917286 -0.476970 0.886563 39.000000 7 351.546078
-1.871885 -0.465328 0.656539 40.000000 5 351.546080
-1.840119 -0.457431 0.451464 40.000000 3 351.546083
-1.792902 -0.445362 0.258475 32.000000 1 351.546085
-2.105920 -0.521170 2.012707 31.000000 14 351.546093
-2.038896 -0.504581 1.612941 36.000000 12 351.546096
-1.985516 -0.491003 1.287043 36.000000 10 351.546098
-1.961666 -0.485103 1.021609 39.000000 8 351.546101
-1.903138 -0.470277 0.771056 40.000000 6 351.546103
-1.864108 -0.460287 0.553818 47.000000 4 351.546106
-1.826916 -0.450765 0.354331 37.000000 2 351.546109
-1.794502 -0.442435 0.168232 34.000000 0 351.546111
-0.042087 -0.002752 3.279149 70.000000 31 351.546122
-0.488782 -0.106972 3.181306 97.000000 28 351.546124
-0.639204 -0.139081 3.168473 83.000000 27 351.546127
-0.935468 -0.222796 3.119542 90.000000 25 351.546129
-1.297348 -0.316520 3.205576 50.000000 23 351.546132
-1.631848 -0.398421 3.144389 39.000000 21 351.546135
-1.979859 -0.483383 3.065860 38.000000 19 351.546137
-2.259813 -0.551730 2.860707 14.000000 17 351.546140
-0.194897 -0.033133 3.248966 98.000000 30 351.546147
-0.344624 -0.067042 3.226259 97.000000 29 351.546150
-0.787711 -0.181760 3.147808 95.000000 26 351.546153
-1.082697 -0.262156 3.083562 93.000000 24 351.546155
-1.466159 -0.355532 3.181842 49.000000 22 351.546158
-1.806183 -0.438310 3.110285 39.000000 20 351.546160
-2.167089 -0.525886 3.026551 39.000000 18 351.546163
-2.215068 -0.537526 2.549280 21.000000 16 351.546165
-2.154721 -0.528859 2.260080 25.000000 15 351.546123
-2.078540 -0.510159 1.807497 33.000000 13 351.546126
-2.020478 -0.495534 1.448554 34.000000 11 351.546128
-1.976335 -0.484706 1.151290 37.000000 9 351.546131
-1.927945 -0.472481 0.890309 39.000000 7 351.546133
-1.882818 -0.461073 0.659357 39.000000 5 351.546136
-1.846475 -0.452174 0.452396 39.000000 3 351.546138
-1.804120 -0.441468 0.259368 32.000000 1 351.546141
-2.118611 -0.516469 2.022682 31.000000 14 351.546149
-2.052426 -0.500333 1.621770 36.000000 12 351.546151
-1.995595 -0.486110 1.292108 36.000000 10 351.546154
-1.972166 -0.480400 1.025805 39.000000 8 351.546156
-1.913945 -0.465864 0.774342 40.000000 6 351.546159
-1.875150 -0.456075 0.556163 47.000000 4 351.546161
-1.838103 -0.446724 0.355710 37.000000 2 351.546164
-1.805745 -0.438527 0.168635 34.000000 0 351.546167
-0.042096 -0.002605 3.279149 72.000000 31 351.546178
-0.489152 -0.105265 3.181306 97.000000 28 351.546181
-0.639685 -0.136849 3.168473 90.000000 27 351.546183
-0.936240 -0.219529 3.119542 89.000000 25 351.546186
-1.298445 -0.311990 3.205576 50.000000 23 351.546188
-1.633228 -0.392722 3.144389 39.000000 21 351.546191
-1.981534 -0.476469 3.065860 38.000000 19 351.546193
-2.274194 -0.546836 2.876055 14.000000 17 351.546196
-0.195011 -0.032453 3.248966 97.000000 30 351.546204
-0.344856 -0.065839 3.226259 97.000000 29 351.546206
-0.788340 -0.179010 3.147808 96.000000 26 351.546209
-1.085284 -0.258775 3.088255 93.000000 24 351.546211
-1.469510 -0.350918 3.186343 49.000000 22 351.546214
-1.807702 -0.432002 3.110285 39.000000 20 351.546216
-2.168911 -0.518318 3.026551 39.000000 18 351.546219
-2.230120 -0.532943 2.563981 21.000000 16 351.546222
-2.166953 -0.523849 2.270593 25.000000 15 351.546179
-2.091659 -0.505645 1.816910 33.000000 13 351.546182
-2.030324 -0.490442 1.454037 34.000000 11 351.546184
-1.986628 -0.479885 1.155926 37.000000 9 351.546187
-1.938595 -0.467924 0.894055 39.000000 7 351.546190
-1.893743 -0.456748 0.662176 39.000000 5 351.546192
-1.857593 -0.448029 0.454261 39.000000 3 351.546195
-1.815333 -0.437501 0.260260 32.000000 1 351.546197
-2.131294 -0.511686 2.032657 31.000000 14 351.546205
-2.065951 -0.495996 1.630600 36.000000 12 351.546208
-2.009856 -0.482158 1.299705 36.000000 10 351.546210
-1.982658 -0.475631 1.030001 39.000000 8 351.546213
-1.924744 -0.461382 0.777627 40.000000 6 351.546215
-1.886184 -0.451791 0.558508 47.000000 4 351.546218
-1.849283 -0.442611 0.357090 38.000000 2 351.546220
-1.816983 -0.434545 0.169038 34.000000 0 351.546223
-0.042105 -0.002458 3.279149 72.000000 31 351.546234
-0.489516 -0.103557 3.181306 97.000000 28 351.546236
-0.640159 -0.134615 3.168473 89.000000 27 351.546239
-0.937000 -0.216260 3.119542 90.000000 25 351.546241
-1.301427 -0.307905 3.210179 52.000000 23 351.546244
-1.634589 -0.387019 3.144389 39.000000 21 351.546246
-1.985924 -0.470198 3.069993 38.000000 19 351.546249
-2.285448 -0.541110 2.887566 13.000000 17 351.546251
-0.195123 -0.031772 3.248966 97.000000 30 351.546259
-0.345609 -0.064732 3.231230 97.000000 29 351.546262
-0.788960 -0.176257 3.147808 96.000000 26 351.546264
-1.086181 -0.254985 3.088255 93.000000 24 351.546267
-1.470726 -0.345787 3.186343 47.000000 22 351.546269
-1.809199 -0.425690 3.110285 39.000000 20 351.546272
-2.170707 -0.510744 3.026551 39.000000 18 351.546275
-2.245166 -0.528261 2.578681 20.000000 16 351.546277
-2.182645 -0.519585 2.284611 25.000000 15 351.546235
-2.104773 -0.501045 1.826323 32.000000 13 351.546237
-2.044227 -0.486255 1.462262 34.000000 11 351.546240
-2.001221 -0.476022 1.162880 36.000000 9 351.546242
-1.949237 -0.463298 0.897801 39.000000 7 351.546245
-1.904660 -0.452352 0.664994 39.000000 5 351.546248
-1.868704 -0.443812 0.456127 39.000000 3 351.546250
-1.826540 -0.433462 0.261152 32.000000 1 351.546253
-2.143970 -0.506821 2.042631 30.000000 14 351.546260
-2.079471 -0.491571 1.639429 36.000000 12 351.546263
-2.019919 -0.477122 1.304770 37.000000 10 351.546266
-1.993140 -0.470794 1.034198 39.000000 8 351.546268
-1.935536 -0.456831 0.780912 40.000000 6 351.546271
-1.897211 -0.447436 0.560852 47.000000 4 351.546273
-1.860457 -0.438425 0.358469 38.000000 2 351.546276
-1.828214 -0.430490 0.169441 34.000000 0 351.546278
-0.042114 -0.002311 3.279149 70.000000 31 351.546289
-0.489875 -0.101847 3.181306 97.000000 28 351.546292
-0.640625 -0.132380 3.168473 89.000000 27 351.546294
-0.937750 -0.212987 3.119542 90.000000 25 351.546297
-1.302494 -0.303361 3.210179 46.000000 23 351.546299
-1.635930 -0.381311 3.144389 39.000000 21 351.546302
-1.987553 -0.463263 3.069993 38.000000 19 351.546304
-2.299812 -0.536040 2.902914 12.000000 17 351.546307
-0.195233 -0.031090 3.248966 97.000000 30 351.546315
-0.345832 -0.063525 3.231230 97.000000 29 351.546317
-0.789571 -0.173502 3.147808 96.000000 26 351.546320
-1.087064 -0.251192 3.088255 95.000000 24 351.546322
-1.471924 -0.340651 3.186343 47.000000 22 351.546325
-1.810674 -0.419372 3.110285 39.000000 20 351.546328
-2.169540 -0.502484 3.022562 39.000000 18 351.546330
-2.260208 -0.523480 2.593382 20.000000 16 351.546333
-2.194862 -0.514404 2.295125 25.000000 15 351.546290
-2.117879 -0.496359 1.835736 32.000000 13 351.546293
-2.058126 -0.481977 1.470486 34.000000 11 351.546295
-2.011497 -0.471054 1.167516 36.000000 9 351.546298
-1.959870 -0.458604 0.901547 39.000000 7 351.546301
-1.915570 -0.447885 0.667813 39.000000 5 351.546303
-1.879809 -0.439524 0.457992 39.000000 3 351.546306
-1.837741 -0.429349 0.262045 33.000000 1 351.546308
-2.156637 -0.501873 2.052606 30.000000 14 351.546316
-2.089047 -0.486142 1.645316 36.000000 12 351.546319
-2.034170 -0.472997 1.312367 36.000000 10 351.546321
-2.003612 -0.465889 1.038394 39.000000 8 351.546324
-1.950918 -0.453278 0.785840 40.000000 6 351.546326
-1.908231 -0.443009 0.563197 47.000000 4 351.546329
-1.871624 -0.434166 0.359849 38.000000 2 351.546331
-1.834573 -0.425234 0.169643 34.000000 0 351.546334
-0.042121 -0.002164 3.279149 70.000000 31 351.546345
-0.490227 -0.100137 3.181306 97.000000 28 351.546347
-0.641083 -0.130143 3.168473 90.000000 27 351.546350
-0.938487 -0.209713 3.119542 92.000000 25 351.546352
-1.303545 -0.298812 3.210179 46.000000 23 351.546355
-1.637251 -0.375598 3.144389 39.000000 21 351.546357
-1.989158 -0.456322 3.069993 38.000000 19 351.546360
-2.311043 -0.530159 2.914424 9.000000 17 351.546362
-0.195340 -0.030409 3.248966 97.000000 30 351.546370
-0.346052 -0.062318 3.231230 97.000000 29 351.546373
-0.790172 -0.170744 3.147808 96.000000 26 351.546375
-1.087934 -0.247396 3.088255 93.000000 24 351.546378
-1.470980 -0.335027 3.181842 46.000000 22 351.546380
-1.812127 -0.413049 3.110285 39.000000 20 351.546383
-2.171281 -0.494908 3.022562 39.000000 18 351.546386
-2.275243 -0.518601 2.608083 19.000000 16 351.546388
-2.207070 -0.509144 2.305639 24.000000 15 351.546346
-2.130979 -0.491589 1.845150 32.000000 13 351.546348
-2.072020 -0.477607 1.478710 34.000000 11 351.546351
-2.021763 -0.466020 1.172152 36.000000 9 351.546354
-1.970495 -0.453841 0.905293 39.000000 7 351.546356
-1.926472 -0.443347 0.670631 39.000000 5 351.546359
-1.886119 -0.434061 0.458924 39.000000 3 351.546361
-1.844082 -0.424048 0.262491 32.000000 1 351.546364
-2.169297 -0.496843 2.062580 29.000000 14 351.546372
-2.102552 -0.481554 1.654145 35.000000 12 351.546374
-2.048416 -0.468779 1.319964 36.000000 10 351.546377
-2.014075 -0.460917 1.042590 39.000000 8 351.546379
-1.961696 -0.448570 0.789126 40.000000 6 351.546382
-1.919243 -0.438510 0.565542 48.000000 4 351.546384
-1.882784 -0.429835 0.361229 38.000000 2 351.546387
-1.845788 -0.421050 0.170046 34.000000 0 351.546389
-0.042129 -0.002017 3.279149 70.000000 31 351.546400
-0.490574 -0.098425 3.181306 97.000000 28 351.546403
-0.641534 -0.127904 3.168473 90.000000 27 351.546405
-0.939214 -0.206436 3.119542 90.000000 25 351.546408
-1.304580 -0.294260 3.210179 53.000000 23 351.546410
-1.638552 -0.369881 3.144389 37.000000 21 351.546413
-1.990738 -0.449376 3.069993 38.000000 19 351.546415
-2.325388 -0.524912 2.929772 9.000000 17 351.546418
-0.195440 -0.029761 3.248966 97.000000 30 351.546426
-0.346257 -0.061170 3.231230 97.000000 29 351.546428
-0.790734 -0.168123 3.147808 96.000000 26 351.546431
-1.088749 -0.243787 3.088255 93.000000 24 351.546433
-1.472141 -0.329890 3.181842 48.000000 22 351.546436
-1.813557 -0.406721 3.110285 39.000000 20 351.546439
-2.172996 -0.487326 3.022562 39.000000 18 351.546441
-2.290181 -0.514023 2.622783 19.000000 16 351.546444
-2.222744 -0.504595 2.319657 24.000000 15 351.546401
-2.144070 -0.486733 1.854563 32.000000 13 351.546404
-2.081830 -0.472221 1.484193 33.000000 11 351.546406
-2.036339 -0.461900 1.179106 36.000000 9 351.546409
-1.981031 -0.449355 0.909039 39.000000 7 351.546412
-1.937289 -0.439077 0.673449 39.000000 5 351.546414
-1.897204 -0.429644 0.460790 40.000000 3 351.546417
-1.855265 -0.419806 0.263384 32.000000 1 351.546419
-2.185589 -0.492552 2.075880 29.000000 14 351.546427
-2.116049 -0.476878 1.662974 35.000000 12 351.546430
-2.058371 -0.463879 1.325029 36.000000 10 351.546432
-2.024447 -0.456231 1.046786 38.000000 8 351.546435
-1.972387 -0.444138 0.792411 40.000000 6 351.546437
-1.930170 -0.434277 0.567886 48.000000 4 351.546440
-1.893863 -0.425761 0.362608 38.000000 2 351.546442
-1.852048 -0.416021 0.170247 34.000000 0 351.546445
-0.042179 -0.001875 3.284148 70.000000 31 351.546456
-0.490898 -0.096797 3.181306 96.000000 28 351.546458
-0.641954 -0.125776 3.168473 90.000000 27 351.546461
-0.939893 -0.203320 3.119542 90.000000 25 351.546463
-1.303641 -0.289509 3.205576 52.000000 23 351.546466
-1.639770 -0.364445 3.144389 37.000000 21 351.546468
-1.992218 -0.442772 3.069993 38.000000 19 351.546471
