# .PCD v.7 - Point Cloud Data file format
VERSION .7
FIELDS x y z intensity ring timestamp
SIZE 4 4 4 4 2 8
TYPE F F F F U D
COUNT 1 1 1 1 1 1
WIDTH 942
HEIGHT 1
VIEWPOINT 0 0 0 1 0 0 0
POINTS 942
DATA ascii
0.029880 0.029521 3.259149 95.000000 31 351.084852
0.312980 0.418868 3.324545 90.000000 28 351.084855
0.416000 0.555337 3.359387 82.000000 27 351.084857
0.615401 0.855971 3.415389 86.000000 25 351.084860
0.836932 1.177713 3.463318 12.000000 23 351.084862
0.767468 1.080358 2.494868 20.000000 21 351.084865
0.803819 1.131524 2.111149 23.000000 19 351.084868
0.886726 1.248223 1.909145 23.000000 17 351.084870
0.126944 0.154186 3.283908 96.000000 30 351.084878
0.222254 0.283407 3.310773 95.000000 29 351.084880
0.513583 0.703843 3.389769 91.000000 26 351.084883
0.729047 1.022126 3.468369 14.000000 24 351.084886
0.789439 1.108002 2.295492 26.000000 20 351.084891
0.816543 1.146037 1.937418 28.000000 18 351.084893
1.061009 1.489141 2.060483 18.000000 16 351.084896
1.284765 1.813210 2.263584 16.000000 15 351.084853
1.448913 2.044869 2.102448 19.000000 13 351.084856
1.469021 2.072480 1.750116 20.000000 11 351.084859
1.491869 2.104710 1.436407 21.000000 9 351.084861
1.507500 2.125975 1.141295 24.000000 7 351.084864
1.526761 2.152341 0.865100 21.000000 5 351.084866
0.900933 1.270087 0.387113 37.000000 3 351.084869
0.896183 1.262922 0.231703 50.000000 1 351.084871
1.438781 2.023827 2.291995 17.000000 14 351.084879
1.460591 2.054501 1.919029 24.000000 12 351.084882
1.477738 2.077852 1.583337 20.000000 10 351.084884
1.510477 2.123881 1.292258 25.000000 8 351.084887
1.522455 2.139932 1.002675 25.000000 6 351.084889
0.868161 1.219822 0.451827 81.000000 4 351.084892
0.916166 1.286795 0.312252 35.000000 2 351.084894
1.095411 1.537985 0.169844 12.000000 0 351.084897
0.029983 0.029416 3.259149 95.000000 31 351.084908
0.314440 0.417773 3.324545 89.000000 28 351.084910
0.417936 0.553882 3.359387 82.000000 27 351.084913
0.618385 0.853818 3.415389 88.000000 25 351.084915
0.842175 1.176373 3.467920 12.000000 23 351.084918
0.771234 1.077672 2.494868 20.000000 21 351.084920
0.807764 1.128711 2.111149 22.000000 19 351.084923
0.891077 1.245120 1.909145 23.000000 17 351.084926
0.127481 0.153742 3.283908 97.000000 30 351.084933
0.223242 0.282629 3.310773 95.000000 29 351.084936
0.516037 0.702046 3.389769 91.000000 26 351.084938
0.732610 1.019575 3.468369 14.000000 24 351.084941
0.793302 1.105240 2.295492 25.000000 20 351.084946
0.820538 1.143180 1.937418 29.000000 18 351.084949
1.052362 1.466150 2.034757 19.000000 16 351.084951
1.295231 1.814519 2.270593 16.000000 15 351.084909
1.456042 2.039798 2.102448 18.000000 13 351.084912
1.476246 2.067339 1.750116 20.000000 11 351.084914
1.501782 2.103094 1.438725 22.000000 9 351.084917
1.514912 2.120699 1.141295 25.000000 7 351.084919
1.537054 2.150902 0.866509 23.000000 5 351.084922
0.905361 1.266934 0.387113 37.000000 3 351.084924
0.900586 1.259786 0.231703 50.000000 1 351.084927
1.445837 2.018792 2.291995 16.000000 14 351.084935
1.467754 2.049389 1.919029 24.000000 12 351.084937
1.487493 2.076185 1.585869 20.000000 10 351.084940
1.517881 2.118596 1.292258 24.000000 8 351.084942
1.529915 2.134605 1.002675 25.000000 6 351.084945
0.872414 1.216784 0.451827 81.000000 4 351.084947
0.920652 1.283590 0.312252 35.000000 2 351.084950
1.097861 1.530092 0.169643 13.000000 0 351.084953
0.030085 0.029311 3.259149 95.000000 31 351.084963
0.315896 0.416673 3.324545 97.000000 28 351.084966
0.419867 0.552419 3.359387 81.000000 27 351.084968
0.621362 0.851654 3.415389 88.000000 25 351.084971
0.846276 1.173426 3.467920 12.000000 23 351.084973
0.776392 1.076917 2.499256 19.000000 21 351.084976
0.811699 1.125885 2.111149 22.000000 19 351.084979
0.895418 1.242002 1.909145 23.000000 17 351.084981
0.128017 0.153296 3.283908 97.000000 30 351.084989
0.224227 0.281848 3.310773 95.000000 29 351.084991
0.518485 0.700240 3.389769 91.000000 26 351.084994
0.737177 1.018409 3.473062 14.000000 24 351.084997
0.983745 1.360020 3.532907 15.000000 22 351.084999
0.797156 1.102464 2.295492 24.000000 20 351.085002
0.826290 1.142751 1.941408 29.000000 18 351.085004
1.132959 1.566861 2.174413 21.000000 16 351.085007
1.299474 1.807092 2.267089 16.000000 15 351.084964
1.463154 2.034703 2.102448 18.000000 13 351.084967
1.483454 2.062174 1.750116 20.000000 11 351.084970
1.509114 2.097840 1.438725 22.000000 9 351.084972
1.525013 2.119161 1.143168 25.000000 7 351.084975
1.544553 2.145523 0.866509 23.000000 5 351.084977
0.912648 1.267753 0.388045 37.000000 3 351.084980
0.904978 1.256635 0.231703 50.000000 1 351.084982
1.450690 2.010705 2.288670 15.000000 14 351.084990
1.474898 2.044254 1.919029 24.000000 12 351.084993
1.494731 2.070981 1.585869 20.000000 10 351.084995
1.527923 2.116965 1.294356 25.000000 8 351.084998
1.540121 2.133080 1.004318 26.000000 6 351.085000
0.879502 1.217672 0.452999 81.000000 4 351.085003
0.928027 1.284382 0.312942 35.000000 2 351.085006
1.100268 1.522202 0.169441 12.000000 0 351.085008
0.030187 0.029206 3.259149 95.000000 31 351.085019
0.317821 0.416185 3.329484 97.000000 28 351.085021
0.421793 0.550950 3.359387 81.000000 27 351.085024
0.625216 0.850684 3.420161 85.000000 25 351.085026
0.851516 1.172046 3.472523 12.000000 23 351.085029
0.780147 1.074200 2.499256 19.000000 21 351.085032
0.813971 1.120768 2.107016 21.000000 19 351.085034
0.899748 1.238869 1.909145 23.000000 17 351.085037
0.128551 0.152849 3.283908 97.000000 30 351.085044
0.225544 0.281480 3.315744 95.000000 29 351.085047
0.520926 0.698426 3.389769 93.000000 26 351.085050
0.740727 1.015830 3.473062 15.000000 24 351.085052
0.991051 1.360098 3.541909 15.000000 22 351.085055
0.800999 1.099675 2.295492 22.000000 20 351.085057
0.830273 1.139860 1.941408 29.000000 18 351.085060
1.164370 1.598520 2.222190 19.000000 16 351.085062
1.305774 1.802545 2.267089 16.000000 15 351.085020
1.470247 2.029584 2.102448 19.000000 13 351.085023
1.490643 2.056983 1.750116 20.000000 11 351.085025
1.516427 2.092559 1.438725 22.000000 9 351.085028
1.532401 2.113825 1.143168 24.000000 7 351.085030
1.554849 2.144002 0.867918 22.000000 5 351.085033
0.917068 1.264559 0.388045 37.000000 3 351.085035
0.909359 1.253469 0.231703 50.000000 1 351.085038
1.455504 2.002608 2.285345 15.000000 14 351.085046
1.484402 2.042362 1.921973 24.000000 12 351.085048
1.504486 2.069238 1.588402 21.000000 10 351.085051
1.535304 2.111618 1.294356 25.000000 8 351.085053
1.547558 2.127691 1.004318 26.000000 6 351.085056
0.883747 1.214594 0.452999 81.000000 4 351.085058
0.932505 1.281135 0.312942 35.000000 2 351.085061
1.111457 1.526429 0.169844 12.000000 0 351.085064
0.030289 0.029101 3.259149 95.000000 31 351.085074
0.319272 0.415073 3.329484 97.000000 28 351.085077
0.424335 0.550281 3.364282 84.000000 27 351.085079
0.628181 0.848496 3.420161 86.000000 25 351.085082
0.855602 1.169066 3.472523 11.000000 23 351.085084
0.783892 1.071471 2.499256 19.000000 21 351.085087
0.817878 1.117920 2.107016 21.000000 19 351.085089
0.904067 1.235721 1.909145 23.000000 17 351.085092
0.129084 0.152399 3.283908 97.000000 30 351.085100
0.226525 0.280691 3.315744 95.000000 29 351.085102
0.523361 0.696604 3.389769 91.000000 26 351.085105
0.744268 1.013238 3.473062 14.000000 24 351.085107
0.995792 1.356630 3.541909 15.000000 22 351.085110
0.804833 1.096872 2.295492 22.000000 20 351.085112
0.834247 1.136955 1.941408 27.000000 18 351.085115
1.173954 1.599913 2.229541 20.000000 16 351.085118
1.312058 1.797976 2.267089 16.000000 15 351.085075
1.479618 2.027584 2.105585 19.000000 13 351.085078
1.500280 2.055144 1.752857 20.000000 11 351.085080
1.523722 2.087253 1.438725 22.000000 9 351.085083
1.539771 2.108463 1.143168 24.000000 7 351.085086
1.562323 2.138561 0.867918 22.000000 5 351.085088
0.924374 1.265317 0.388978 37.000000 3 351.085091
0.913729 1.250287 0.231703 50.000000 1 351.085093
1.460280 1.994502 2.282020 14.000000 14 351.085101
1.491522 2.037169 1.921973 24.000000 12 351.085104
1.511700 2.063973 1.588402 21.000000 10 351.085106
1.542665 2.106246 1.294356 24.000000 8 351.085109
1.554975 2.122276 1.004318 25.000000 6 351.085111
0.890855 1.215422 0.454171 79.000000 4 351.085114
0.936971 1.277872 0.312942 35.000000 2 351.085116
1.119733 1.526569 0.170046 12.000000 0 351.085119
0.030390 0.028995 3.259149 95.000000 31 351.085130
0.320718 0.413956 3.329484 96.000000 28 351.085132
0.426254 0.548796 3.364282 84.000000 27 351.085135
0.631139 0.846298 3.420161 85.000000 25 351.085137
0.859677 1.166072 3.472523 11.000000 23 351.085140
0.787627 1.068728 2.499256 19.000000 21 351.085142
0.821775 1.115058 2.107016 22.000000 19 351.085145
0.906473 1.229977 1.905308 23.000000 17 351.085147
0.129615 0.151947 3.283908 96.000000 30 351.085155
0.227504 0.279898 3.315744 95.000000 29 351.085158
0.526548 0.695775 3.394608 91.000000 26 351.085160
0.747801 1.010634 3.473062 14.000000 24 351.085163
1.003111 1.356648 3.550910 15.000000 22 351.085165
0.808657 1.094056 2.295492 22.000000 20 351.085168
0.838211 1.134036 1.941408 27.000000 18 351.085171
1.177516 1.593079 2.225865 20.000000 16 351.085173
1.316214 1.790511 2.263584 16.000000 15 351.085131
1.486686 2.022407 2.105585 20.000000 13 351.085133
1.507444 2.049895 1.752857 20.000000 11 351.085136
1.533624 2.085490 1.441043 22.000000 9 351.085138
1.547121 2.103076 1.143168 24.000000 7 351.085141
1.569779 2.133095 0.867918 23.000000 5 351.085144
0.928785 1.262082 0.388978 36.000000 3 351.085146
0.921040 1.251100 0.232149 50.000000 1 351.085149
1.467233 1.989392 2.282020 14.000000 14 351.085156
1.498624 2.031950 1.921973 24.000000 12 351.085159
1.521455 2.062153 1.590934 21.000000 10 351.085162
1.552703 2.104501 1.296454 24.000000 8 351.085164
1.565178 2.120635 1.005960 26.000000 6 351.085167
0.895092 1.212305 0.454171 79.000000 4 351.085169
0.944368 1.278577 0.313631 35.000000 2 351.085172
1.139899 1.542741 0.171053 9.000000 0 351.085174
0.030491 0.028888 3.259149 95.000000 31 351.085185
0.322161 0.412834 3.329484 97.000000 28 351.085188
0.428167 0.547305 3.364282 84.000000 27 351.085190
0.634090 0.844090 3.420161 85.000000 25 351.085193
0.863742 1.163064 3.472523 11.000000 23 351.085195
0.791353 1.065972 2.499256 20.000000 21 351.085198
0.825662 1.112182 2.107016 24.000000 19 351.085200
0.910761 1.226805 1.905308 24.000000 17 351.085203
0.130145 0.151494 3.283908 96.000000 30 351.085211
0.228479 0.279103 3.315744 95.000000 29 351.085213
0.528974 0.693933 3.394608 91.000000 26 351.085216
0.751324 1.008017 3.473062 14.000000 24 351.085218
1.008077 1.352962 3.550910 15.000000 22 351.085221
0.811103 1.088993 2.291226 22.000000 20 351.085224
0.842362 1.130956 1.941408 27.000000 18 351.085226
1.183347 1.588752 2.225865 21.000000 16 351.085229
1.322456 1.785906 2.263584 16.000000 15 351.085186
1.493737 2.017205 2.105585 20.000000 13 351.085189
1.514591 2.044621 1.752857 20.000000 11 351.085191
1.540894 2.080124 1.441043 21.000000 9 351.085194
1.557213 2.101387 1.145041 24.000000 7 351.085197
1.577215 2.127602 0.867918 23.000000 5 351.085199
0.933405 1.258670 0.388978 36.000000 3 351.085202
0.925619 1.247716 0.232149 50.000000 1 351.085204
1.472287 1.981004 2.278695 13.000000 14 351.085212
1.506061 2.026443 1.921973 24.000000 12 351.085215
1.529003 2.056563 1.590934 21.000000 10 351.085217
1.560406 2.098795 1.296454 24.000000 8 351.085220
1.572940 2.114884 1.005960 26.000000 6 351.085222
0.899530 1.209016 0.454171 81.000000 4 351.085225
0.949048 1.275107 0.313631 35.000000 2 351.085227
0.030597 0.028776 3.259149 95.000000 31 351.085241
0.323672 0.411651 3.329484 97.000000 28 351.085243
0.430170 0.545732 3.364282 84.000000 27 351.085246
0.637179 0.841760 3.420161 86.000000 25 351.085248
0.869170 1.161455 3.477125 11.000000 23 351.085251
0.796690 1.064983 2.503645 20.000000 21 351.085253
0.829733 1.109149 2.107016 28.000000 19 351.085256
0.915251 1.223459 1.905308 24.000000 17 351.085258
0.130699 0.151016 3.283908 96.000000 30 351.085266
0.229501 0.278263 3.315744 95.000000 29 351.085269
0.531514 0.691990 3.394608 93.000000 26 351.085271
0.755014 1.005257 3.473062 14.000000 24 351.085274
1.008872 1.344210 3.537408 16.000000 22 351.085276
0.814900 1.086155 2.291226 23.000000 20 351.085279
0.846304 1.128009 1.941408 26.000000 18 351.085282
1.188886 1.584612 2.225865 22.000000 16 351.085284
1.326860 1.778189 2.260080 17.000000 15 351.085242
1.501120 2.011716 2.105585 19.000000 13 351.085244
1.522074 2.039055 1.752857 20.000000 11 351.085247
1.548508 2.074463 1.441043 21.000000 9 351.085250
1.564904 2.095665 1.145041 24.000000 7 351.085252
1.585002 2.121807 0.867918 23.000000 5 351.085255
0.940732 1.259339 0.389911 36.000000 3 351.085257
0.929969 1.244477 0.232149 50.000000 1 351.085260
1.476955 1.972863 2.275371 13.000000 14 351.085268
1.515548 2.024410 1.924916 24.000000 12 351.085270
1.536173 2.051213 1.590934 21.000000 10 351.085273
1.570443 2.096968 1.298552 24.000000 8 351.085275
1.580313 2.109380 1.005960 26.000000 6 351.085278
0.903744 1.205869 0.454171 81.000000 4 351.085280
0.953493 1.271787 0.313631 35.000000 2 351.085283
1.630521 2.174024 0.203298 17.000000 0 351.085285
0.030697 0.028669 3.259149 96.000000 31 351.085296
0.325107 0.410518 3.329484 97.000000 28 351.085299
0.432072 0.544227 3.364282 84.000000 27 351.085301
0.640114 0.839531 3.420161 86.000000 25 351.085304
0.873219 1.158414 3.477125 11.000000 23 351.085306
0.800402 1.062195 2.503645 19.000000 21 351.085309
0.833600 1.106246 2.107016 27.000000 19 351.085311
0.921446 1.222817 1.909145 24.000000 17 351.085314
0.131226 0.150559 3.283908 97.000000 30 351.085322
0.230471 0.277460 3.315744 95.000000 29 351.085324
0.533926 0.690130 3.394608 93.000000 26 351.085327
0.758518 1.002615 3.473062 14.000000 24 351.085329
1.005678 1.330257 3.510403 16.000000 22 351.085332
0.818686 1.083304 2.291226 22.000000 20 351.085335
0.850237 1.125048 1.941408 25.000000 18 351.085337
1.194410 1.580452 2.225865 23.000000 16 351.085340
1.333059 1.773546 2.260080 17.000000 15 351.085297
1.510472 2.009576 2.108723 19.000000 13 351.085300
1.531696 2.037072 1.755598 20.000000 11 351.085302
1.558402 2.072586 1.443362 22.000000 9 351.085305
1.572210 2.090190 1.145041 24.000000 7 351.085308
1.592399 2.116262 0.867918 23.000000 5 351.085310
0.945123 1.256048 0.389911 36.000000 3 351.085313
0.934307 1.241223 0.232149 50.000000 1 351.085315
1.483833 1.967696 2.275371 13.000000 14 351.085323
1.522605 2.019107 1.924916 23.000000 12 351.085326
1.543323 2.045838 1.590934 21.000000 10 351.085328
1.577753 2.091474 1.298552 24.000000 8 351.085331
1.587666 2.103851 1.005960 25.000000 6 351.085333
0.907948 1.202707 0.454171 79.000000 4 351.085336
0.957927 1.268450 0.313631 35.000000 2 351.085338
1.644123 2.176292 0.203701 16.000000 0 351.085341
0.030797 0.028562 3.259149 96.000000 31 351.085352
0.326538 0.409381 3.329484 97.000000 28 351.085354
0.434606 0.543510 3.369177 84.000000 27 351.085357
0.643950 0.838476 3.424933 88.000000 25 351.085359
0.878439 1.156915 3.481728 10.000000 23 351.085362
0.804105 1.059395 2.503645 19.000000 21 351.085364
0.839158 1.105571 2.111149 26.000000 19 351.085367
0.927647 1.222147 1.912982 23.000000 17 351.085370
0.131943 0.150316 3.288899 97.000000 30 351.085377
0.231438 0.276654 3.315744 95.000000 29 351.085380
0.536332 0.688262 3.394608 93.000000 26 351.085382
0.762013 0.999961 3.473062 13.000000 24 351.085385
0.989205 1.299017 3.438390 14.000000 22 351.085388
0.822462 1.080439 2.291226 22.000000 20 351.085390
0.854159 1.122073 1.941408 25.000000 18 351.085393
1.199919 1.576273 2.225865 23.000000 16 351.085395
1.337089 1.766039 2.256575 17.000000 15 351.085353
1.517478 2.004291 2.108723 19.000000 13 351.085355
1.538797 2.031713 1.755598 20.000000 11 351.085358
1.565627 2.067133 1.443362 21.000000 9 351.085361
1.582296 2.088384 1.146914 24.000000 7 351.085363
1.599777 2.110691 0.867918 23.000000 5 351.085366
0.949501 1.252741 0.389911 36.000000 3 351.085368
0.938634 1.237954 0.232149 50.000000 1 351.085371
1.488433 1.959531 2.272046 13.000000 14 351.085379
1.529644 2.013780 1.924916 24.000000 12 351.085381
1.550455 2.040439 1.590934 22.000000 10 351.085384
1.585044 2.085954 1.298552 24.000000 8 351.085386
1.595001 2.098297 1.005960 25.000000 6 351.085389
0.912141 1.199530 0.454171 77.000000 4 351.085391
0.962349 1.265099 0.313631 35.000000 2 351.085394
1.651709 2.170539 0.203701 16.000000 0 351.085396
0.030897 0.028454 3.259149 96.000000 31 351.085407
0.327965 0.408239 3.329484 97.000000 28 351.085410
0.436500 0.541990 3.369177 84.000000 27 351.085412
0.646873 0.836223 3.424933 88.000000 25 351.085415
0.882472 1.153841 3.481728 10.000000 23 351.085417
0.809253 1.058485 2.508034 20.000000 21 351.085420
0.843012 1.102635 2.111149 25.000000 19 351.085422
0.931907 1.218901 1.912982 23.000000 17 351.085425
0.132466 0.149855 3.288899 97.000000 30 351.085433
0.232402 0.275845 3.315744 95.000000 29 351.085435
0.538731 0.686386 3.394608 93.000000 26 351.085438
0.765499 0.997295 3.473062 13.000000 24 351.085440
0.977829 1.274821 3.384380 13.000000 22 351.085443
0.826229 1.077562 2.291226 22.000000 20 351.085446
0.858070 1.119084 1.941408 25.000000 18 351.085448
1.205414 1.572075 2.225865 23.000000 16 351.085451
1.341083 1.758525 2.253070 17.000000 15 351.085408
1.526825 2.002078 2.111861 19.000000 13 351.085411
1.548416 2.029654 1.758340 20.000000 11 351.085414
1.572833 2.061655 1.443362 21.000000 9 351.085416
1.589576 2.082848 1.146914 24.000000 7 351.085419
1.610046 2.108906 0.869328 23.000000 5 351.085421
0.953868 1.249419 0.389911 36.000000 3 351.085424
0.945972 1.238628 0.232595 50.000000 1 351.085426
1.495264 1.954323 2.272046 13.000000 14 351.085434
1.539120 2.011638 1.927859 24.000000 12 351.085437
1.557568 2.035014 1.590934 21.000000 10 351.085439
1.595074 2.084012 1.300650 24.000000 8 351.085442
1.605186 2.096466 1.007603 25.000000 6 351.085444
0.916322 1.196339 0.454171 79.000000 4 351.085447
0.966759 1.261732 0.313631 35.000000 2 351.085449
1.659276 2.164761 0.203701 17.000000 0 351.085452
0.030996 0.028346 3.259149 96.000000 31 351.085463
0.329388 0.407091 3.329484 97.000000 28 351.085465
0.438389 0.540463 3.369177 84.000000 27 351.085468
0.649788 0.833960 3.424933 88.000000 25 351.085470
0.886494 1.150754 3.481728 11.000000 23 351.085473
0.812943 1.055653 2.508034 20.000000 21 351.085475
0.846855 1.099685 2.111149 25.000000 19 351.085478
0.938112 1.218181 1.916819 23.000000 17 351.085481
0.132989 0.149392 3.288899 97.000000 30 351.085488
0.233363 0.275032 3.315744 95.000000 29 351.085491
0.541123 0.684501 3.394608 93.000000 26 351.085493
0.770031 0.995982 3.477755 14.000000 24 351.085496
0.964964 1.248997 3.325869 12.000000 22 351.085499
0.829985 1.074672 2.291226 23.000000 20 351.085501
0.861971 1.116082 1.941408 25.000000 18 351.085504
1.210895 1.567858 2.225865 23.000000 16 351.085506
1.347214 1.753833 2.253070 17.000000 15 351.085464
1.536176 1.999823 2.114999 19.000000 13 351.085466
1.555491 2.024236 1.758340 20.000000 11 351.085469
1.580020 2.056153 1.443362 22.000000 9 351.085472
1.599663 2.080962 1.148787 24.000000 7 351.085474
1.617398 2.103274 0.869328 23.000000 5 351.085477
0.961218 1.249976 0.390843 35.000000 3 351.085479
0.950290 1.235319 0.232595 50.000000 1 351.085482
1.499798 1.946134 2.268721 13.000000 14 351.085490
1.546133 2.006253 1.927859 24.000000 12 351.085492
1.564662 2.029565 1.590934 21.000000 10 351.085495
1.602339 2.078432 1.300650 24.000000 8 351.085497
1.612495 2.090850 1.007603 26.000000 6 351.085500
0.920493 1.193133 0.454171 79.000000 4 351.085502
0.974183 1.262270 0.314321 35.000000 2 351.085505
1.669875 2.162910 0.203903 17.000000 0 351.085508
0.031095 0.028238 3.259149 95.000000 31 351.085518
0.330807 0.405939 3.329484 96.000000 28 351.085521
0.440273 0.538929 3.369177 84.000000 27 351.085523
0.652695 0.831686 3.424933 89.000000 25 351.085526
0.890505 1.147653 3.481728 11.000000 23 351.085528
0.816623 1.052809 2.508034 20.000000 21 351.085531
0.848964 1.094499 2.107016 25.000000 19 351.085534
0.944324 1.217432 1.920656 23.000000 17 351.085536
0.133509 0.148926 3.288899 97.000000 30 351.085544
0.234322 0.274216 3.315744 95.000000 29 351.085546
0.544293 0.683592 3.399447 93.000000 26 351.085549
0.773503 0.993288 3.477755 13.000000 24 351.085552
0.962631 1.237028 3.303365 12.000000 22 351.085554
0.835333 1.073826 2.295492 23.000000 20 351.085557
0.865862 1.113067 1.941408 28.000000 18 351.085559
1.216360 1.563622 2.225865 23.000000 16 351.085562
1.351145 1.746299 2.249566 17.000000 15 351.085519
1.545529 1.997527 2.118136 19.000000 13 351.085522
1.565107 2.022101 1.761081 20.000000 11 351.085525
1.587188 2.050625 1.443362 22.000000 9 351.085527
1.606917 2.075366 1.148787 24.000000 7 351.085530
1.627667 2.101407 0.870737 23.000000 5 351.085532
0.965576 1.246613 0.390843 35.000000 3 351.085535
0.954596 1.231994 0.232595 50.000000 1 351.085537
1.506582 1.940887 2.268721 13.000000 14 351.085545
1.553126 2.000844 1.927859 24.000000 12 351.085548
1.574381 2.027496 1.593466 21.000000 10 351.085550
1.609584 2.072826 1.300650 25.000000 8 351.085553
1.622680 2.088938 1.009246 26.000000 6 351.085555
0.927634 1.193751 0.455344 79.000000 4 351.085558
0.978583 1.258862 0.314321 35.000000 2 351.085560
1.677415 2.157068 0.203903 17.000000 0 351.085563
0.031193 0.028129 3.259149 95.000000 31 351.085574
0.332222 0.404782 3.329484 97.000000 28 351.085576
0.442152 0.537389 3.369177 85.000000 27 351.085579
0.655594 0.829403 3.424933 86.000000 25 351.085581
0.893303 1.142998 3.477125 11.000000 23 351.085584
0.820293 1.049953 2.508034 21.000000 21 351.085586
0.852780 1.091529 2.107016 25.000000 19 351.085589
0.948568 1.214128 1.920656 23.000000 17 351.085592
0.133833 0.148246 3.283908 97.000000 30 351.085599
0.235278 0.273396 3.315744 95.000000 29 351.085602
0.546676 0.681688 3.399447 93.000000 26 351.085604
0.776965 0.990582 3.477755 13.000000 24 351.085607
0.979034 1.249086 3.343872 13.000000 22 351.085610
0.839076 1.070904 2.295492 24.000000 20 351.085612
0.871601 1.112410 1.945397 30.000000 18 351.085615
1.221811 1.559366 2.225865 22.000000 16 351.085617
1.357233 1.741572 2.249566 16.000000 15 351.085575
1.554886 1.995191 2.121274 19.000000 13 351.085578
1.572156 2.016625 1.761081 20.000000 11 351.085580
1.594336 2.045072 1.443362 22.000000 9 351.085583
1.617002 2.073400 1.150661 24.000000 7 351.085585
1.634992 2.095713 0.870737 23.000000 5 351.085588
0.969921 1.243235 0.390843 35.000000 3 351.085590
0.958891 1.228654 0.232595 46.000000 1 351.085593
1.511047 1.932674 2.265396 13.000000 14 351.085601
1.560101 1.995410 1.927859 24.000000 12 351.085603
1.581449 2.021988 1.593466 21.000000 10 351.085606
1.616810 2.067195 1.300650 24.000000 8 351.085608
1.629962 2.083261 1.009246 26.000000 6 351.085611
0.931796 1.190505 0.455344 83.000000 4 351.085613
0.982972 1.255438 0.314321 35.000000 2 351.085616
1.688015 2.155133 0.204104 17.000000 0 351.085619
0.031291 0.028020 3.259149 91.000000 31 351.085629
0.334129 0.404218 3.334423 97.000000 28 351.085632
0.444025 0.535843 3.369177 85.000000 27 351.085634
0.659416 0.828278 3.429704 86.000000 25 351.085637
0.897287 1.139873 3.477125 11.000000 23 351.085639
0.823953 1.047083 2.508034 21.000000 21 351.085642
0.856584 1.088545 2.107016 24.000000 19 351.085645
0.954783 1.213329 1.924493 23.000000 17 351.085647
0.134350 0.147778 3.283908 96.000000 30 351.085655
0.236231 0.272573 3.315744 95.000000 29 351.085657
0.549052 0.679775 3.399447 91.000000 26 351.085660
0.780419 0.987864 3.477755 13.000000 24 351.085663
1.011726 1.281556 3.438390 15.000000 22 351.085665
0.842809 1.067968 2.295492 24.000000 20 351.085668
0.875479 1.109361 1.945397 30.000000 18 351.085670
1.229347 1.557753 2.229541 22.000000 16 351.085673
1.363304 1.736824 2.249566 16.000000 15 351.085630
1.561841 1.989751 2.121274 19.000000 13 351.085633
1.579186 2.011125 1.761081 19.000000 11 351.085636
1.601465 2.039494 1.443362 22.000000 9 351.085638
1.624230 2.067743 1.150661 25.000000 7 351.085641
1.642298 2.089993 0.870737 23.000000 5 351.085643
0.977290 1.243704 0.391776 35.000000 3 351.085646
0.963174 1.225300 0.232595 46.000000 1 351.085648
1.517784 1.927388 2.265396 13.000000 14 351.085656
1.569557 1.993128 1.930802 24.000000 12 351.085659
1.588498 2.016455 1.593466 21.000000 10 351.085661
1.626824 2.065104 1.302748 24.000000 8 351.085664
1.640147 2.081268 1.010888 25.000000 6 351.085666
0.938955 1.191063 0.456516 83.000000 4 351.085669
0.987348 1.251999 0.314321 35.000000 2 351.085672
1.695528 2.149227 0.204104 17.000000 0 351.085674
0.031389 0.027911 3.259149 91.000000 31 351.085685
0.335538 0.403049 3.334423 97.000000 28 351.085687
0.445893 0.534289 3.369177 84.000000 27 351.085690
0.662303 0.825971 3.429704 86.000000 25 351.085692
0.901261 1.136734 3.477125 11.000000 23 351.085695
0.827603 1.044200 2.508034 21.000000 21 351.085698
0.862127 1.087754 2.111149 24.000000 19 351.085700
0.959012 1.209989 1.924493 23.000000 17 351.085703
0.134865 0.147308 3.283908 96.000000 30 351.085710
0.237181 0.271747 3.315744 95.000000 29 351.085713
0.551422 0.677855 3.399447 93.000000 26 351.085716
0.783862 0.985134 3.477755 13.000000 24 351.085718
1.044656 1.313812 3.532907 15.000000 22 351.085721
0.848155 1.067062 2.299758 25.000000 20 351.085723
0.881221 1.108657 1.949387 29.000000 18 351.085726
1.234777 1.553452 2.229541 22.000000 16 351.085728
1.369358 1.732055 2.249566 16.000000 15 351.085686
1.571191 1.987341 2.124412 19.000000 13 351.085689
1.588790 2.008880 1.763823 19.000000 11 351.085691
1.611323 2.037367 1.445680 22.000000 9 351.085694
1.631438 2.062061 1.150661 25.000000 7 351.085696
1.652560 2.088010 0.872146 23.000000 5 351.085699
0.981626 1.240285 0.391776 35.000000 3 351.085701
0.967445 1.221930 0.232595 50.000000 1 351.085704
1.522182 1.919152 2.262071 12.000000 14 351.085712
1.576505 1.987637 1.930802 24.000000 12 351.085714
1.598206 2.014275 1.595999 21.000000 10 351.085717
1.634023 2.059412 1.302748 24.000000 8 351.085719
1.647402 2.075530 1.010888 26.000000 6 351.085722
0.943107 1.187778 0.456516 83.000000 4 351.085724
0.994792 1.252423 0.315011 34.000000 2 351.085727
1.706128 2.147207 0.204306 16.000000 0 351.085730
0.031491 0.027796 3.259149 96.000000 31 351.085741
0.337013 0.401817 3.334423 94.000000 28 351.085744
0.447848 0.532652 3.369177 84.000000 27 351.085746
0.665326 0.823538 3.429704 86.000000 25 351.085749
0.905421 1.133423 3.477125 11.000000 23 351.085751
0.831425 1.041160 2.508034 22.000000 21 351.085754
0.866108 1.084587 2.111149 25.000000 19 351.085756
0.965441 1.208971 1.928330 23.000000 17 351.085759
0.135206 0.146601 3.278916 96.000000 30 351.085767
0.238175 0.270876 3.315744 95.000000 29 351.085769
0.553903 0.675829 3.399447 91.000000 26 351.085772
0.787468 0.982254 3.477755 13.000000 24 351.085774
1.053549 1.315073 3.546410 16.000000 22 351.085777
0.852060 1.063946 2.299758 25.000000 20 351.085779
0.885279 1.105420 1.949387 29.000000 18 351.085782
1.240462 1.548916 2.229541 22.000000 16 351.085785
1.373475 1.724235 2.246061 16.000000 15 351.085742
1.578464 1.981569 2.124412 18.000000 13 351.085745
1.596142 2.003044 1.763823 19.000000 11 351.085747
1.618779 2.031447 1.445680 22.000000 9 351.085750
1.641874 2.059692 1.152534 25.000000 7 351.085753
1.660202 2.081939 0.872146 24.000000 5 351.085755
0.986165 1.236679 0.391776 35.000000 3 351.085758
0.971917 1.218376 0.232595 51.000000 1 351.085760
1.529206 1.913560 2.262071 13.000000 14 351.085768
1.586303 1.985003 1.933745 24.000000 12 351.085771
1.605578 2.008404 1.595999 21.000000 10 351.085773
1.641560 2.053410 1.302748 24.000000 8 351.085776
1.657948 2.073166 1.012531 26.000000 6 351.085778
0.947454 1.184313 0.456516 81.000000 4 351.085781
0.999376 1.248769 0.315011 34.000000 2 351.085783
1.713986 2.140939 0.204306 16.000000 0 351.085786
0.031588 0.027686 3.259149 95.000000 31 351.085797
0.338413 0.400638 3.334423 94.000000 28 351.085799
0.449704 0.531085 3.369177 84.000000 27 351.085802
0.668196 0.821211 3.429704 88.000000 25 351.085804
0.910597 1.131777 3.481728 11.000000 23 351.085807
0.835054 1.038251 2.508034 22.000000 21 351.085809
0.869889 1.081557 2.111149 25.000000 19 351.085812
0.969655 1.205593 1.928330 23.000000 17 351.085814
0.135717 0.146128 3.278916 96.000000 30 351.085822
0.239119 0.270043 3.315744 95.000000 29 351.085825
0.556258 0.673891 3.399447 91.000000 26 351.085827
0.790891 0.979500 3.477755 13.000000 24 351.085830
1.063603 1.318166 3.564413 16.000000 22 351.085832
0.855769 1.060965 2.299758 25.000000 20 351.085835
0.889132 1.102323 1.949387 29.000000 18 351.085838
1.247990 1.547215 2.233216 22.000000 16 351.085840
1.379485 1.719430 2.246061 17.000000 15 351.085798
1.587808 1.979083 2.127550 17.000000 13 351.085800
1.605742 2.000721 1.766564 19.000000 11 351.085803
1.628633 2.029239 1.447998 22.000000 9 351.085805
1.649054 2.053949 1.152534 25.000000 7 351.085808
1.667460 2.076131 0.872146 24.000000 5 351.085811
0.990476 1.233229 0.391776 35.000000 3 351.085813
0.976164 1.214976 0.232595 51.000000 1 351.085816
1.533535 1.905301 2.258746 12.000000 14 351.085823
1.595757 1.982603 1.936688 23.000000 12 351.085826
1.615283 2.006145 1.598531 21.000000 10 351.085829
1.651564 2.051202 1.304846 24.000000 8 351.085831
1.665174 2.067366 1.012531 26.000000 6 351.085834
0.951582 1.180999 0.456516 81.000000 4 351.085836
1.003729 1.245273 0.315011 34.000000 2 351.085839
1.721449 2.134943 0.204306 17.000000 0 351.085841
0.031684 0.027575 3.259149 96.000000 31 351.085852
0.339810 0.399454 3.334423 96.000000 28 351.085855
0.451556 0.529512 3.369177 78.000000 27 351.085857
0.671059 0.818873 3.429704 88.000000 25 351.085860
0.914542 1.128592 3.481728 11.000000 23 351.085862
0.840181 1.037192 2.512422 22.000000 21 351.085865
0.875430 1.080701 2.115282 26.000000 19 351.085867
0.973858 1.202201 1.928330 23.000000 17 351.085870
0.136226 0.145653 3.278916 96.000000 30 351.085878
0.240060 0.269206 3.315744 95.000000 29 351.085880
0.558607 0.671946 3.399447 91.000000 26 351.085883
0.794306 0.976733 3.477755 13.000000 24 351.085885
1.065451 1.311066 3.555411 16.000000 22 351.085888
0.861111 1.059996 2.304024 24.000000 20 351.085891
0.892974 1.099213 1.949387 29.000000 18 351.085893
1.253383 1.542850 2.233216 22.000000 16 351.085896
1.385479 1.714604 2.246061 17.000000 15 351.085853
1.594707 1.973529 2.127550 17.000000 13 351.085856
1.615344 1.998355 1.769306 19.000000 11 351.085858
1.635707 2.023542 1.447998 22.000000 9 351.085861
1.656214 2.048180 1.152534 25.000000 7 351.085864
1.674696 2.070297 0.872146 24.000000 5 351.085866
0.997864 1.233583 0.392708 35.000000 3 351.085869
0.980399 1.211561 0.232595 51.000000 1 351.085871
1.540176 1.899937 2.258746 12.000000 14 351.085879
1.602668 1.977020 1.936688 23.000000 12 351.085882
1.622276 2.000495 1.598531 21.000000 10 351.085884
1.658714 2.045424 1.304846 24.000000 8 351.085887
1.672380 2.061541 1.012531 27.000000 6 351.085889
0.955699 1.177670 0.456516 83.000000 4 351.085892
1.008070 1.241761 0.315011 34.000000 2 351.085894
1.732040 2.132800 0.204507 18.000000 0 351.085897
0.031780 0.027464 3.259149 96.000000 31 351.085908
0.341202 0.398266 3.334423 97.000000 28 351.085910
0.453401 0.527933 3.369177 79.000000 27 351.085913
0.673913 0.816526 3.429704 88.000000 25 351.085915
0.918476 1.125393 3.481728 11.000000 23 351.085918
0.843796 1.034253 2.512422 22.000000 21 351.085920
0.879197 1.077638 2.115282 27.000000 19 351.085923
0.978048 1.198795 1.928330 23.000000 17 351.085925
0.136934 0.145387 3.283908 97.000000 30 351.085933
0.240999 0.268367 3.315744 95.000000 29 351.085936
0.560949 0.669992 3.399447 91.000000 26 351.085938
0.796617 0.972619 3.473062 13.000000 24 351.085941
1.071400 1.309024 3.559912 16.000000 22 351.085943
0.864806 1.056983 2.304024 24.000000 20 351.085946
0.896806 1.096089 1.949387 29.000000 18 351.085949
1.258761 1.538465 2.233216 23.000000 16 351.085951
1.389204 1.706991 2.242557 16.000000 15 351.085909
1.604043 1.970970 2.130687 18.000000 13 351.085911
1.622310 1.992705 1.769306 19.000000 11 351.085914
1.645557 2.021255 1.450316 22.000000 9 351.085917
1.663353 2.042386 1.152534 25.000000 7 351.085919
1.684943 2.068158 0.873555 23.000000 5 351.085922
1.002164 1.230093 0.392708 35.000000 3 351.085924
0.984623 1.208132 0.232595 51.000000 1 351.085927
1.544437 1.891656 2.255421 12.000000 14 351.085935
1.612115 1.974545 1.939632 24.000000 12 351.085937
1.631976 1.998159 1.601064 20.000000 10 351.085940
1.668715 2.043137 1.306944 25.000000 8 351.085942
1.679567 2.055691 1.012531 26.000000 6 351.085945
0.962880 1.178090 0.457688 83.000000 4 351.085947
1.012398 1.238235 0.315011 35.000000 2 351.085950
1.739474 2.126741 0.204507 18.000000 0 351.085952
0.031876 0.027353 3.259149 96.000000 31 351.085963
0.342590 0.397072 3.334423 96.000000 28 351.085966
0.455241 0.526347 3.369177 84.000000 27 351.085968
0.676759 0.814168 3.429704 86.000000 25 351.085971
0.923639 1.123689 3.486330 11.000000 23 351.085973
0.847401 1.031301 2.512422 22.000000 21 351.085976
0.882953 1.074563 2.115282 27.000000 19 351.085978
0.982227 1.195373 1.928330 23.000000 17 351.085981
0.137440 0.144908 3.283908 96.000000 30 351.085989
0.241934 0.267524 3.315744 95.000000 29 351.085991
0.564096 0.668991 3.404286 91.000000 26 351.085994
0.800007 0.969833 3.473062 13.000000 24 351.085996
1.075963 1.305276 3.559912 16.000000 22 351.085999
0.870149 1.055971 2.308290 24.000000 20 351.086002
0.900626 1.092952 1.949387 29.000000 18 351.086004
1.266279 1.536678 2.236891 23.000000 16 351.086007
1.395154 1.702132 2.242557 16.000000 15 351.085964
1.610913 1.965359 2.130687 18.000000 13 351.085967
1.631907 1.990263 1.772047 19.000000 11 351.085969
1.652603 2.015499 1.450316 22.000000 9 351.085972
1.670472 2.036567 1.152534 25.000000 7 351.085975
1.692152 2.062264 0.873555 23.000000 5 351.085977
1.006451 1.226587 0.392708 35.000000 3 351.085980
0.988834 1.204687 0.232595 51.000000 1 351.085982
1.551031 1.886254 2.255421 12.000000 14 351.085990
1.618998 1.968906 1.939632 24.000000 12 351.085993
1.638941 1.992450 1.601064 20.000000 10 351.085995
1.675837 2.037300 1.306944 24.000000 8 351.085998
1.686732 2.049816 1.012531 26.000000 6 351.086000
0.966986 1.174722 0.457688 83.000000 4 351.086003
1.019862 1.238516 0.315701 35.000000 2 351.086005
1.746887 2.120656 0.204507 17.000000 0 351.086008
0.031971 0.027242 3.259149 96.000000 31 351.086019
0.343974 0.395874 3.334423 97.000000 28 351.086021
0.457076 0.524754 3.369177 84.000000 27 351.086024
0.679597 0.811801 3.429704 88.000000 25 351.086026
0.927556 1.120458 3.486330 12.000000 23 351.086029
0.852524 1.030182 2.516811 22.000000 21 351.086031
0.888493 1.073642 2.119415 27.000000 19 351.086034
0.986394 1.191937 1.928330 23.000000 17 351.086037
0.138147 0.144635 3.288899 97.000000 30 351.086044
0.242866 0.266678 3.315744 95.000000 29 351.086047
0.566427 0.667018 3.404286 91.000000 26 351.086049
0.803388 0.967034 3.473062 13.000000 24 351.086052
1.081904 1.303188 3.564413 15.000000 22 351.086055
0.873830 1.052927 2.308290 24.000000 20 351.086057
0.902511 1.087482 1.945397 29.000000 18 351.086060
1.271636 1.532249 2.236891 23.000000 16 351.086062
1.398817 1.694501 2.239052 16.000000 15 351.086020
1.620242 1.962726 2.133825 18.000000 13 351.086022
1.638845 1.984555 1.772047 19.000000 11 351.086025
1.662449 2.013134 1.452634 22.000000 9 351.086028
1.677571 2.030724 1.152534 24.000000 7 351.086030
1.702396 2.060043 0.874964 23.000000 5 351.086033
1.007598 1.219280 0.391776 36.000000 3 351.086035
0.996206 1.205066 0.233041 51.000000 1 351.086038
1.557606 1.880828 2.255421 12.000000 14 351.086046
1.625861 1.963242 1.939632 23.000000 12 351.086048
1.648636 1.990037 1.603596 21.000000 10 351.086051
1.685834 2.034932 1.309042 24.000000 8 351.086053
1.693877 2.043915 1.012531 27.000000 6 351.086056
0.971081 1.171339 0.457688 81.000000 4 351.086058
1.024179 1.234949 0.315701 35.000000 2 351.086061
1.754279 2.114545 0.204507 17.000000 0 351.086063
0.032066 0.027130 3.259149 96.000000 31 351.086074
0.345354 0.394671 3.334423 97.000000 28 351.086077
0.459577 0.523921 3.374072 85.000000 27 351.086079
0.682427 0.809424 3.429704 88.000000 25 351.086082
0.931461 1.117213 3.486330 11.000000 23 351.086084
0.856115 1.027200 2.516811 22.000000 21 351.086087
0.892235 1.070534 2.119415 27.000000 19 351.086089
0.992601 1.190950 1.932167 23.000000 17 351.086092
0.138651 0.144152 3.288899 97.000000 30 351.086100
0.243796 0.265828 3.315744 95.000000 29 351.086102
0.568752 0.665036 3.404286 91.000000 26 351.086105
0.806758 0.964224 3.473062 13.000000 24 351.086107
1.086446 1.299403 3.564413 15.000000 22 351.086110
0.877500 1.049870 2.308290 24.000000 20 351.086113
0.906302 1.084325 1.945397 29.000000 18 351.086115
1.276976 1.527801 2.236891 23.000000 16 351.086118
1.404723 1.689608 2.239052 16.000000 15 351.086075
1.627083 1.957058 2.133825 18.000000 13 351.086078
1.648436 1.982037 1.774789 19.000000 11 351.086081
1.669466 2.007319 1.452634 22.000000 9 351.086083
1.687614 2.028419 1.154407 25.000000 7 351.086086
1.709577 2.054088 0.874964 23.000000 5 351.086088
1.011848 1.215755 0.391776 36.000000 3 351.086091
1.000407 1.201582 0.233041 51.000000 1 351.086093
1.564162 1.875380 2.255421 12.000000 14 351.086101
1.635293 1.960659 1.942575 23.000000 12 351.086104
1.655573 1.984270 1.603596 21.000000 10 351.086106
1.692927 2.029035 1.309042 23.000000 8 351.086109
1.704027 2.041616 1.014174 26.000000 6 351.086111
0.978279 1.171674 0.458861 81.000000 4 351.086114
1.028484 1.231366 0.315701 35.000000 2 351.086116
1.761650 2.108409 0.204507 17.000000 0 351.086119
0.032160 0.027018 3.259149 96.000000 31 351.086130
0.346729 0.393463 3.334423 97.000000 28 351.086132
0.461403 0.522313 3.374072 84.000000 27 351.086135
0.685248 0.807037 3.429704 88.000000 25 351.086137
0.935355 1.113955 3.486330 11.000000 23 351.086140
0.861235 1.026040 2.521199 22.000000 21 351.086142
0.895967 1.067413 2.119415 27.000000 19 351.086145
0.996752 1.187478 1.932167 23.000000 17 351.086148
0.139153 0.143667 3.288899 97.000000 30 351.086155
0.244722 0.264976 3.315744 95.000000 29 351.086158
0.571070 0.663047 3.404286 93.000000 26 351.086160
0.811231 0.962722 3.477755 13.000000 24 351.086163
1.090975 1.295603 3.564413 15.000000 22 351.086166
0.882839 1.048796 2.312556 24.000000 20 351.086168
0.910081 1.081155 1.945397 29.000000 18 351.086171
1.282302 1.523334 2.236891 23.000000 16 351.086173
1.410613 1.684694 2.239052 16.000000 15 351.086131
1.636404 1.954351 2.136963 18.000000 13 351.086133
1.658029 1.979476 1.777530 18.000000 11 351.086136
1.679308 2.004875 1.454952 22.000000 9 351.086139
1.694685 2.022516 1.154407 25.000000 7 351.086141
1.719818 2.051784 0.876374 25.000000 5 351.086144
1.012930 1.208451 0.390843 37.000000 3 351.086146
1.007794 1.201898 0.233487 51.000000 1 351.086149
1.570698 1.869908 2.255421 12.000000 14 351.086157
1.642127 1.954939 1.942575 23.000000 12 351.086159
1.665263 1.981779 1.606128 21.000000 10 351.086162
1.699999 2.023114 1.309042 23.000000 8 351.086164
1.711143 2.035655 1.014174 26.000000 6 351.086167
0.982363 1.168252 0.458861 83.000000 4 351.086169
1.032776 1.227769 0.315701 36.000000 2 351.086172
1.768999 2.102246 0.204507 17.000000 0 351.086175
0.032255 0.026906 3.259149 96.000000 31 351.086185
0.348101 0.392250 3.334423 97.000000 28 351.086188
0.463223 0.520700 3.374072 84.000000 27 351.086190
0.689032 0.805775 3.434476 88.000000 25 351.086193
0.940500 1.112175 3.490933 12.000000 23 351.086195
0.864811 1.023028 2.521199 20.000000 21 351.086198
0.899687 1.064279 2.119415 27.000000 19 351.086201
1.000891 1.183991 1.932167 23.000000 17 351.086203
0.139654 0.143181 3.288899 97.000000 30 351.086211
0.245646 0.264120 3.315744 95.000000 29 351.086213
0.573381 0.661050 3.404286 93.000000 26 351.086216
0.814587 0.959884 3.477755 12.000000 24 351.086219
1.096900 1.293447 3.568914 15.000000 22 351.086221
0.886494 1.045708 2.312556 23.000000 20 351.086224
0.915799 1.080271 1.949387 29.000000 18 351.086226
1.289803 1.521434 2.240566 23.000000 16 351.086229
1.416485 1.679760 2.239052 16.000000 15 351.086186
1.643216 1.948627 2.136963 18.000000 13 351.086189
1.664929 1.973676 1.777530 18.000000 11 351.086192
1.686296 1.999001 1.454952 22.000000 9 351.086194
1.704724 2.020132 1.156280 24.000000 7 351.086197
1.726970 2.045768 0.876374 24.000000 5 351.086199
1.017142 1.204908 0.390843 37.000000 3 351.086202
1.011984 1.198373 0.233487 53.000000 1 351.086204
1.574804 1.861563 2.252097 12.000000 14 351.086212
1.651551 1.952281 1.945518 23.000000 12 351.086215
1.672170 1.975955 1.606128 21.000000 10 351.086217
1.709982 2.020632 1.311140 24.000000 8 351.086220
1.721290 2.033274 1.015816 26.000000 6 351.086222
0.986435 1.164816 0.458861 81.000000 4 351.086225
1.037055 1.224156 0.315701 36.000000 2 351.086227
1.779556 2.099870 0.204709 17.000000 0 351.086230
0.032348 0.026793 3.259149 96.000000 31 351.086241
0.349468 0.391033 3.334423 97.000000 28 351.086243
0.465038 0.519080 3.374072 84.000000 27 351.086246
0.691840 0.803365 3.434476 89.000000 25 351.086248
0.944376 1.108885 3.490933 12.000000 23 351.086251
0.868377 1.020003 2.521199 20.000000 21 351.086253
0.905221 1.063275 2.123548 27.000000 19 351.086256
1.007096 1.182931 1.936003 23.000000 17 351.086259
0.140153 0.142692 3.288899 97.000000 30 351.086266
0.246566 0.263261 3.315744 95.000000 29 351.086269
0.575685 0.659044 3.404286 93.000000 26 351.086271
0.817932 0.957035 3.477755 13.000000 24 351.086274
1.101408 1.289611 3.568914 15.000000 22 351.086277
0.890139 1.042607 2.312556 23.000000 20 351.086279
0.919564 1.077067 1.949387 29.000000 18 351.086282
1.295106 1.516923 2.240566 23.000000 16 351.086284
1.422340 1.674806 2.239052 16.000000 15 351.086242
1.652528 1.945846 2.140101 18.000000 13 351.086245
1.674516 1.971040 1.780272 18.000000 11 351.086247
1.693263 1.993103 1.454952 22.000000 9 351.086250
1.711765 2.014169 1.156280 24.000000 7 351.086252
1.737208 2.043383 0.877783 23.000000 5 351.086255
1.018160 1.197608 0.389911 35.000000 3 351.086257
1.016161 1.194834 0.233487 53.000000 1 351.086260
1.581293 1.856055 2.252097 12.000000 14 351.086268
1.658356 1.946504 1.945518 23.000000 12 351.086270
1.681854 1.973387 1.608661 21.000000 10 351.086273
1.717025 2.014650 1.311140 24.000000 8 351.086275
1.731441 2.030847 1.017459 26.000000 6 351.086278
0.993649 1.165063 0.460033 81.000000 4 351.086280
1.038108 1.216761 0.315011 35.000000 2 351.086283
1.786875 2.093646 0.204709 17.000000 0 351.086286
0.032442 0.026680 3.259149 95.000000 31 351.086296
0.350831 0.389811 3.334423 97.000000 28 351.086299
0.466847 0.517453 3.374072 85.000000 27 351.086301
0.694640 0.800945 3.434476 86.000000 25 351.086304
0.948241 1.105582 3.490933 12.000000 23 351.086306
0.871932 1.016966 2.521199 22.000000 21 351.086309
0.908927 1.060108 2.123548 26.000000 19 351.086312
1.011219 1.179409 1.936003 23.000000 17 351.086314
0.140650 0.142202 3.288899 97.000000 30 351.086322
0.247851 0.262786 3.320716 95.000000 29 351.086324
0.577982 0.657031 3.404286 93.000000 26 351.086327
0.821268 0.954174 3.477755 12.000000 24 351.086330
1.107323 1.287409 3.573415 16.000000 22 351.086332
0.895474 1.041471 2.316822 23.000000 20 351.086335
0.923318 1.073851 1.949387 29.000000 18 351.086337
1.300394 1.512393 2.240566 23.000000 16 351.086340
1.425859 1.667120 2.235548 16.000000 15 351.086297
1.659310 1.940066 2.140101 17.000000 13 351.086300
1.681386 1.965182 1.780272 18.000000 11 351.086303
1.703090 1.990546 1.457270 22.000000 9 351.086305
1.721800 2.011703 1.158153 25.000000 7 351.086308
1.744330 2.037306 0.877783 23.000000 5 351.086310
1.019139 1.190315 0.388978 32.000000 3 351.086313
1.023565 1.195061 0.233934 55.000000 1 351.086315
1.585330 1.847689 2.248772 13.000000 14 351.086323
1.667773 1.943771 1.948461 23.000000 12 351.086326
1.688732 1.967504 1.608661 21.000000 10 351.086328
1.727003 2.012089 1.313239 24.000000 8 351.086331
1.741596 2.028373 1.019102 26.000000 6 351.086333
0.997710 1.161588 0.460033 81.000000 4 351.086336
1.042349 1.213130 0.315011 33.000000 2 351.086339
1.797429 2.091184 0.204910 17.000000 0 351.086341
0.032535 0.026566 3.259149 95.000000 31 351.086352
0.352189 0.388583 3.334423 97.000000 28 351.086354
0.468650 0.515820 3.374072 85.000000 27 351.086357
0.697432 0.798515 3.434476 86.000000 25 351.086359
0.953372 1.103744 3.495535 11.000000 23 351.086362
0.875477 1.013916 2.521199 22.000000 21 351.086365
0.912622 1.056929 2.123548 26.000000 19 351.086367
1.017425 1.178298 1.939841 23.000000 17 351.086370
0.140940 0.141506 3.283908 96.000000 30 351.086377
0.248766 0.261919 3.320716 95.000000 29 351.086380
0.580272 0.655009 3.404286 91.000000 26 351.086383
0.824594 0.951301 3.477755 12.000000 24 351.086385
1.111810 1.283536 3.573415 16.000000 22 351.086388
0.899103 1.038339 2.316822 23.000000 20 351.086390
0.929034 1.072900 1.953376 29.000000 18 351.086393
1.307884 1.510407 2.244241 23.000000 16 351.086395
1.431670 1.662133 2.235548 16.000000 15 351.086353
1.666072 1.934262 2.140101 17.000000 13 351.086356
1.690964 1.962469 1.783013 18.000000 11 351.086358
1.710028 1.984589 1.457270 21.000000 9 351.086361
1.728812 2.005681 1.158153 25.000000 7 351.086363
1.751431 2.031205 0.877783 24.000000 5 351.086366
1.020080 1.183030 0.388045 27.000000 3 351.086368
1.027730 1.191481 0.233934 53.000000 1 351.086371
1.589329 1.839319 2.245447 13.000000 14 351.086379
1.674548 1.937937 1.948461 23.000000 12 351.086381
1.695590 1.961597 1.608661 21.000000 10 351.086384
1.734016 2.006048 1.313239 25.000000 8 351.086386
1.751754 2.025854 1.020744 25.000000 6 351.086389
1.001758 1.158098 0.460033 81.000000 4 351.086391
1.043336 1.205740 0.314321 29.000000 2 351.086394
1.807988 2.088675 0.205112 17.000000 0 351.086397
0.032627 0.026453 3.259149 96.000000 31 351.086407
0.353543 0.387352 3.334423 97.000000 28 351.086410
0.470448 0.514181 3.374072 85.000000 27 351.086412
0.700215 0.796076 3.434476 88.000000 25 351.086415
0.957219 1.100409 3.495535 11.000000 23 351.086417
0.879011 1.010854 2.521199 21.000000 21 351.086420
0.918152 1.055861 2.127681 26.000000 19 351.086422
1.021532 1.174739 1.939841 22.000000 17 351.086425
0.141433 0.141014 3.283908 96.000000 30 351.086433
0.249679 0.261049 3.320716 95.000000 29 351.086435
0.582555 0.652980 3.404286 91.000000 26 351.086438
0.829044 0.949717 3.482447 12.000000 24 351.086440
1.116284 1.279647 3.573415 16.000000 22 351.086443
0.902722 1.035194 2.316822 23.000000 20 351.086445
0.932773 1.069650 1.953376 28.000000 18 351.086448
1.313149 1.505833 2.244241 24.000000 16 351.086451
1.435126 1.654431 2.232043 16.000000 15 351.086408
1.675364 1.931375 2.143239 18.000000 13 351.086411
1.697804 1.956554 1.783013 18.000000 11 351.086413
1.716945 1.978608 1.457270 22.000000 9 351.086416
1.738841 2.003135 1.160026 24.000000 7 351.086419
1.761656 2.028701 0.879192 24.000000 5 351.086421
1.024203 1.179462 0.388045 27.000000 3 351.086424
1.031883 1.187887 0.233934 51.000000 1 351.086426
1.593288 1.830943 2.242122 13.000000 14 351.086434
1.683955 1.935130 1.951404 22.000000 12 351.086437
1.705257 1.958918 1.611193 21.000000 10 351.086439
1.741008 1.999983 1.313239 24.000000 8 351.086442
1.758815 2.019727 1.020744 25.000000 6 351.086444
1.005795 1.154594 0.460033 81.000000 4 351.086447
1.044285 1.198357 0.313631 23.000000 2 351.086449
1.815267 2.082351 0.205112 17.000000 0 351.086452
0.032719 0.026338 3.259149 96.000000 31 351.086463
0.354893 0.386115 3.334423 97.000000 28 351.086465
0.472240 0.512536 3.374072 85.000000 27 351.086468
0.703980 0.794745 3.439248 88.000000 25 351.086470
0.961054 1.097061 3.495535 11.000000 23 351.086473
0.884112 1.009581 2.525588 21.000000 21 351.086475
0.921832 1.052649 2.127681 26.000000 19 351.086478
1.027738 1.173578 1.943677 22.000000 17 351.086480
0.142131 0.140722 3.288899 97.000000 30 351.086488
0.250589 0.260176 3.320716 95.000000 29 351.086491
0.584831 0.650942 3.404286 91.000000 26 351.086493
0.832354 0.946817 3.482447 13.000000 24 351.086496
1.122181 1.277379 3.577915 16.000000 22 351.086498
0.906331 1.032037 2.316822 24.000000 20 351.086501
0.938490 1.068653 1.957366 28.000000 18 351.086504
1.318397 1.501240 2.244241 24.000000 16 351.086506
1.440892 1.649412 2.232043 15.000000 15 351.086464
