# .PCD v.7 - Point Cloud Data file format
VERSION .7
FIELDS x y z intensity ring timestamp
SIZE 4 4 4 4 2 8
TYPE F F F F U D
COUNT 1 1 1 1 1 1
WIDTH 928
HEIGHT 1
VIEWPOINT 0 0 0 1 0 0 0
POINTS 928
DATA ascii
-2.489161 0.317095 2.315269 37.000000 14 351.852441
-3.089976 0.393637 2.351674 2.000000 12 351.852443
-3.902027 0.497780 2.396246 92.000000 10 351.852446
-3.994411 0.509568 1.948948 3.000000 8 351.852448
-4.783317 0.611057 1.766523 8.000000 6 351.852451
-4.614164 0.590267 1.212661 11.000000 4 351.852453
-4.450189 0.570080 0.717174 10.000000 2 351.852456
-4.291157 0.549707 0.268191 11.000000 0 351.852459
-0.040444 0.012710 3.304148 98.000000 31 351.852469
-0.501349 0.077755 3.225760 93.000000 28 351.852472
-0.690570 0.107979 3.383862 26.000000 27 351.852474
-1.016451 0.138588 3.324727 68.000000 25 351.852477
-1.347377 0.176169 3.260807 46.000000 23 351.852479
-2.582618 0.337242 4.838413 90.000000 21 351.852482
-3.156523 0.412189 4.747970 89.000000 19 351.852485
-2.414691 0.315318 2.991163 30.000000 17 351.852487
-0.195424 0.039776 3.278916 98.000000 30 351.852495
-0.348752 0.062388 3.256087 96.000000 29 351.852497
-0.852523 0.122205 3.351055 85.000000 26 351.852500
-1.183048 0.156568 3.299429 61.000000 24 351.852503
-1.523709 0.201394 3.240353 41.000000 22 351.852505
-2.869103 0.378731 4.803862 93.000000 20 351.852508
-3.459802 0.456710 4.694162 94.000000 18 351.852510
-2.431219 0.320500 2.736713 33.000000 16 351.852513
-2.465604 0.318906 2.522921 34.000000 15 351.852470
-2.724819 0.352436 2.296990 5.000000 13 351.852473
-3.282281 0.425124 2.254545 11.000000 11 351.852476
-5.190163 0.672240 2.824905 5.000000 9 351.852478
-4.989120 0.646200 2.120892 10.000000 7 351.852481
-4.743523 0.615232 1.495010 9.000000 5 351.852483
-4.564438 0.592814 0.965337 9.000000 3 351.852486
-4.385144 0.570306 0.489166 9.000000 1 351.852488
-2.484336 0.325297 2.311944 37.000000 14 351.852496
-3.096599 0.405471 2.357560 2.000000 12 351.852499
-3.904629 0.511276 2.398778 92.000000 10 351.852501
-4.851500 0.636125 1.791164 8.000000 6 351.852506
-4.655555 0.611260 1.223212 12.000000 4 351.852509
-4.512104 0.593226 0.726141 10.000000 2 351.852511
-4.348650 0.572508 0.270610 12.000000 0 351.852514
-0.040402 0.012844 3.304148 98.000000 31 351.852525
-0.501089 0.079417 3.225760 93.000000 28 351.852527
-0.690208 0.110268 3.383862 26.000000 27 351.852530
-1.015986 0.141958 3.324727 68.000000 25 351.852532
-1.346785 0.180636 3.260807 46.000000 23 351.852535
-2.581486 0.345804 4.838413 90.000000 21 351.852537
-3.155138 0.422654 4.747970 88.000000 19 351.852540
-2.410454 0.322898 2.987327 30.000000 17 351.852543
-0.195284 0.040458 3.278916 98.000000 30 351.852550
-0.348532 0.063605 3.256087 96.000000 29 351.852553
-0.852091 0.125180 3.351055 85.000000 26 351.852555
-1.182495 0.160697 3.299429 61.000000 24 351.852558
-1.518717 0.205860 3.231351 35.000000 22 351.852561
-2.867831 0.388243 4.803862 93.000000 20 351.852563
-3.458269 0.468181 4.694162 93.000000 18 351.852566
-2.430085 0.328985 2.736713 33.000000 16 351.852568
-2.464533 0.327080 2.522921 34.000000 15 351.852526
-2.723635 0.361470 2.296990 5.000000 13 351.852529
-3.276708 0.435455 2.251804 11.000000 11 351.852531
-5.196688 0.690614 2.829542 4.000000 9 351.852534
-5.115506 0.680734 2.173337 11.000000 7 351.852536
-4.812676 0.641291 1.516148 9.000000 5 351.852539
-4.630616 0.617031 0.978394 9.000000 3 351.852541
-4.452337 0.594066 0.495413 9.000000 1 351.852544
-2.483244 0.333534 2.311944 36.000000 14 351.852552
-3.103249 0.416813 2.363447 2.000000 12 351.852554
-3.915640 0.526627 2.406375 93.000000 10 351.852557
-5.002904 0.672860 2.421010 6.000000 8 351.852559
-4.933494 0.664402 1.820732 9.000000 6 351.852562
-4.744916 0.639849 1.245486 13.000000 4 351.852564
-4.573804 0.617587 0.735109 10.000000 2 351.852567
-4.406036 0.595717 0.273028 11.000000 0 351.852570
-0.040357 0.012985 3.304148 98.000000 31 351.852580
-0.500042 0.081041 3.220820 97.000000 28 351.852583
-0.689819 0.112677 3.383862 26.000000 27 351.852585
-1.015484 0.145503 3.324727 68.000000 25 351.852588
-1.346147 0.185336 3.260807 46.000000 23 351.852590
-2.580263 0.354813 4.838413 90.000000 21 351.852593
-3.153644 0.433665 4.747970 88.000000 19 351.852596
-2.406137 0.330873 2.983490 30.000000 17 351.852598
-0.195141 0.041139 3.278916 98.000000 30 351.852606
-0.348308 0.064822 3.256087 96.000000 29 351.852608
-0.851649 0.128154 3.351055 82.000000 26 351.852611
-1.181927 0.164824 3.299429 60.000000 24 351.852614
-1.526617 0.212361 3.249355 20.000000 22 351.852616
-2.866458 0.398251 4.803862 94.000000 20 351.852619
-3.456613 0.480249 4.694162 93.000000 18 351.852621
-2.425564 0.336999 2.733038 33.000000 16 351.852624
-2.459843 0.335199 2.519416 34.000000 15 351.852581
-2.745500 0.374129 2.315816 6.000000 13 351.852584
-3.275168 0.446890 2.251804 11.000000 11 351.852587
-5.286425 0.721328 2.878220 5.000000 9 351.852589
-5.232522 0.714903 2.222035 12.000000 7 351.852592
-4.886457 0.668490 1.538696 9.000000 5 351.852594
-4.701438 0.643178 0.992383 9.000000 3 351.852597
-4.504510 0.617038 0.500321 9.000000 1 351.852599
-2.478365 0.341690 2.308619 36.000000 14 351.852607
-3.093767 0.426539 2.357560 2.000000 12 351.852610
-3.939402 0.543829 2.421570 96.000000 10 351.852612
-5.274775 0.728180 2.548991 16.000000 8 351.852615
-5.015347 0.693258 1.850300 9.000000 6 351.852617
-4.843763 0.670402 1.270104 14.000000 4 351.852620
-4.640295 0.643066 0.744766 11.000000 2 351.852623
-4.463312 0.619333 0.275446 11.000000 0 351.852625
-0.040311 0.013126 3.304148 98.000000 31 351.852636
-0.499756 0.082786 3.220820 97.000000 28 351.852638
-0.689421 0.115084 3.383862 26.000000 27 351.852641
-1.014970 0.149047 3.324727 69.000000 25 351.852643
-1.345491 0.190034 3.260807 44.000000 23 351.852646
-2.581381 0.364152 4.842802 90.000000 21 351.852649
-3.154898 0.445064 4.752103 89.000000 19 351.852651
-2.401792 0.338822 2.979653 30.000000 17 351.852654
-0.194996 0.041820 3.278916 98.000000 30 351.852661
-0.348079 0.066037 3.256087 96.000000 29 351.852664
-0.851196 0.131126 3.351055 82.000000 26 351.852667
-1.181344 0.168948 3.299429 60.000000 24 351.852669
-1.502152 0.214305 3.199845 5.000000 22 351.852672
-2.865051 0.408254 4.803862 94.000000 20 351.852674
-3.454916 0.492312 4.694162 93.000000 18 351.852677
-2.424373 0.345463 2.733038 33.000000 16 351.852679
-2.455126 0.343290 2.515911 34.000000 15 351.852637
-2.786586 0.389640 2.350332 8.000000 13 351.852640
-3.269447 0.457740 2.249062 14.000000 11 351.852642
-5.376011 0.752676 2.926898 6.000000 9 351.852645
-5.298861 0.742818 2.250131 12.000000 7 351.852647
-4.955355 0.695545 1.559833 9.000000 5 351.852650
-4.772133 0.669828 1.006373 9.000000 3 351.852652
-4.586165 0.644541 0.507907 9.000000 1 351.852655
-2.477157 0.350339 2.308619 37.000000 14 351.852663
-3.160296 0.446958 2.407594 4.000000 12 351.852665
-3.997241 0.566040 2.457024 96.000000 10 351.852668
-5.537329 0.784132 2.672776 12.000000 8 351.852670
-5.097060 0.722694 1.879869 9.000000 6 351.852673
-4.937641 0.700969 1.293551 14.000000 4 351.852675
-4.701760 0.668320 0.753734 11.000000 2 351.852678
-4.525423 0.644060 0.278066 11.000000 0 351.852681
-0.040263 0.013273 3.304148 98.000000 31 351.852691
-0.500215 0.084748 3.225760 97.000000 28 351.852694
-0.688995 0.117610 3.383862 26.000000 27 351.852696
-1.015894 0.152989 3.329498 69.000000 25 351.852699
-1.344786 0.194964 3.260807 46.000000 23 351.852701
-2.580029 0.373611 4.842802 90.000000 21 351.852704
-3.153245 0.456624 4.752103 89.000000 19 351.852706
-2.400534 0.347623 2.979653 30.000000 17 351.852709
-0.194842 0.042534 3.278916 98.000000 30 351.852717
-0.347835 0.067312 3.256087 96.000000 29 351.852719
-0.850710 0.134245 3.351055 82.000000 26 351.852722
-1.180717 0.173277 3.299429 60.000000 24 351.852724
-1.484118 0.217285 3.163839 5.000000 22 351.852727
-2.863535 0.418753 4.803862 94.000000 20 351.852729
-3.456071 0.505408 4.698151 93.000000 18 351.852732
-2.419736 0.353856 2.729363 33.000000 16 351.852735
-2.453851 0.352286 2.515911 34.000000 15 351.852692
-2.877620 0.413128 2.425639 14.000000 13 351.852695
-3.263608 0.469125 2.246321 14.000000 11 351.852697
-5.351167 0.770159 2.272607 13.000000 7 351.852703
-5.023996 0.723966 1.580971 9.000000 5 351.852705
-4.842576 0.697823 1.020362 9.000000 3 351.852708
-4.647850 0.670591 0.513707 9.000000 1 351.852710
-2.472161 0.358879 2.305294 36.000000 14 351.852718
-3.218638 0.467249 2.451742 15.000000 12 351.852721
-4.025004 0.585027 2.474751 96.000000 10 351.852723
-5.178495 0.753612 1.909437 8.000000 6 351.852728
-5.045664 0.735181 1.320514 14.000000 4 351.852731
-4.772784 0.696271 0.764081 11.000000 2 351.852733
-4.587296 0.670029 0.280686 11.000000 0 351.852736
-0.040216 0.013414 3.304148 98.000000 31 351.852747
-0.499151 0.086360 3.220820 97.000000 28 351.852749
-0.688580 0.120014 3.383862 27.000000 27 351.852752
-1.015353 0.156534 3.329498 66.000000 25 351.852754
-1.344097 0.199657 3.260807 44.000000 23 351.852757
-2.578709 0.382615 4.842802 90.000000 21 351.852759
-3.151632 0.467628 4.752103 90.000000 19 351.852762
-2.396135 0.355530 2.975816 30.000000 17 351.852764
-0.194692 0.043214 3.278916 98.000000 30 351.852772
-0.347598 0.068526 3.256087 96.000000 29 351.852775
-0.850236 0.137214 3.351055 82.000000 26 351.852777
-1.180105 0.177397 3.299429 58.000000 24 351.852780
-1.483350 0.222464 3.163839 5.000000 22 351.852782
-2.862056 0.428746 4.803862 94.000000 20 351.852785
-3.454285 0.517469 4.698151 93.000000 18 351.852788
-2.418486 0.362300 2.729363 33.000000 16 351.852790
-2.449078 0.360330 2.512407 33.000000 15 351.852748
-2.991702 0.440170 2.519772 9.000000 13 351.852750
-3.257814 0.479905 2.243579 14.000000 11 351.852753
-3.779492 0.556756 2.085455 2.000000 9 351.852755
-5.320927 0.784775 2.261369 23.000000 7 351.852758
-5.087880 0.751310 1.600700 8.000000 5 351.852761
-4.913004 0.725487 1.034351 9.000000 3 351.852763
-4.719378 0.697736 0.520400 9.000000 1 351.852766
-2.470893 0.367506 2.305294 36.000000 14 351.852773
-3.232979 0.480860 2.463514 9.000000 12 351.852776
-4.116751 0.613044 2.530464 97.000000 10 351.852779
-5.217870 0.777951 1.924221 7.000000 6 351.852784
-5.071912 0.757095 1.327548 11.000000 4 351.852786
-4.843791 0.723907 0.774428 11.000000 2 351.852789
-4.649162 0.695649 0.283306 11.000000 0 351.852791
-0.040209 0.013572 3.309147 98.000000 31 351.852802
-0.499611 0.088238 3.225760 97.000000 28 351.852805
-0.689160 0.122596 3.388758 27.000000 27 351.852807
-1.014801 0.160077 3.329498 66.000000 25 351.852810
-1.343392 0.204347 3.260807 40.000000 23 351.852812
-2.577358 0.391614 4.842802 91.000000 21 351.852815
-3.149981 0.478626 4.752103 89.000000 19 351.852817
-2.394879 0.363891 2.975816 29.000000 17 351.852820
-0.194540 0.043894 3.278916 98.000000 30 351.852828
-0.347356 0.069739 3.256087 96.000000 29 351.852830
-0.849752 0.140181 3.351055 83.000000 26 351.852833
-1.179478 0.181516 3.299429 58.000000 24 351.852835
-1.476107 0.226649 3.150336 5.000000 22 351.852838
-2.860542 0.438733 4.803862 94.000000 20 351.852841
-3.452458 0.529523 4.698151 93.000000 18 351.852843
-2.413856 0.370226 2.725688 33.000000 16 351.852846
-2.444279 0.368346 2.508902 33.000000 15 351.852803
-2.990147 0.450611 2.519772 9.000000 13 351.852806
-3.251985 0.490650 2.240838 14.000000 11 351.852808
-3.751241 0.565980 2.071547 6.000000 9 351.852811
-5.556519 0.839350 2.358767 14.000000 7 351.852814
-5.132660 0.776239 1.614792 9.000000 5 351.852816
-4.978440 0.752916 1.047408 9.000000 3 351.852819
-6.735723 1.019882 0.703346 3.000000 1 351.852821
-2.465903 0.375567 2.301969 36.000000 14 351.852829
-3.247265 0.494576 2.475287 5.000000 12 351.852832
-4.161468 0.634559 2.558321 75.000000 10 351.852834
-3.828223 0.583747 1.877615 3.000000 8 351.852837
-5.341168 0.815403 1.968573 8.000000 6 351.852839
-5.146115 0.786545 1.346305 10.000000 4 351.852842
-4.914662 0.752046 0.784776 11.000000 2 351.852844
-4.715842 0.722465 0.286127 11.000000 0 351.852847
-0.040161 0.013712 3.309147 98.000000 31 351.852858
-0.499300 0.089981 3.225760 97.000000 28 351.852860
-0.688727 0.125001 3.388758 28.000000 27 351.852863
-1.014236 0.163619 3.329498 68.000000 25 351.852865
-1.342671 0.209036 3.260807 40.000000 23 351.852868
-2.573607 0.400240 4.838413 91.000000 21 351.852870
-3.148291 0.489619 4.752103 89.000000 19 351.852873
-2.390427 0.371756 2.971979 29.000000 17 351.852875
-0.194386 0.044572 3.278916 98.000000 30 351.852883
-0.347111 0.070951 3.256087 97.000000 29 351.852886
-0.848017 0.142937 3.346216 83.000000 26 351.852888
-1.178838 0.185632 3.299429 60.000000 24 351.852891
-1.481761 0.232814 3.163839 10.000000 22 351.852893
-2.858993 0.448716 4.803862 94.000000 20 351.852896
-3.450589 0.541571 4.698151 93.000000 18 351.852899
-2.412548 0.378650 2.725688 33.000000 16 351.852901
-2.442979 0.376876 2.508902 33.000000 15 351.852859
-3.023182 0.466387 2.548012 8.000000 13 351.852861
-3.246119 0.501360 2.238096 14.000000 11 351.852864
-3.753622 0.579747 2.073865 8.000000 9 351.852867
-5.603951 0.866533 2.379370 12.000000 7 351.852869
-5.229477 0.809563 1.644385 7.000000 5 351.852872
-5.058306 0.783065 1.063262 8.000000 3 351.852874
-6.687830 1.036523 0.699331 4.000000 1 351.852877
-2.464577 0.384172 2.301969 36.000000 14 351.852885
-3.229543 0.503418 2.463514 2.000000 12 351.852887
-3.976061 0.620497 2.449427 11.000000 10 351.852890
-3.803740 0.593607 1.867124 3.000000 8 351.852892
-5.356954 0.836958 1.975144 2.000000 6 351.852895
-5.200965 0.813517 1.360373 9.000000 4 351.852897
-4.985396 0.780690 0.795123 11.000000 2 351.852900
-4.782390 0.749755 0.288949 11.000000 0 351.852902
-0.040113 0.013852 3.309147 98.000000 31 351.852913
-0.498219 0.091582 3.220820 97.000000 28 351.852916
-0.688287 0.127404 3.388758 28.000000 27 351.852918
-1.013658 0.167158 3.329498 68.000000 25 351.852921
-1.341933 0.213721 3.260807 49.000000 23 351.852923
-2.572195 0.409221 4.838413 86.000000 21 351.852926
-3.146562 0.500606 4.752103 89.000000 19 351.852928
-2.385948 0.379594 2.968142 30.000000 17 351.852931
-0.194229 0.045251 3.278916 98.000000 30 351.852939
-0.346861 0.072162 3.256087 96.000000 29 351.852941
-0.847513 0.145896 3.346216 85.000000 26 351.852944
-1.178183 0.189746 3.299429 60.000000 24 351.852946
-1.487390 0.239022 3.177341 4.000000 22 351.852949
-2.857409 0.458693 4.803862 93.000000 20 351.852952
-3.448677 0.553613 4.698151 92.000000 18 351.852954
-2.407865 0.386532 2.722013 33.000000 16 351.852957
-2.438126 0.384845 2.505398 33.000000 15 351.852914
-3.025382 0.477544 2.551150 4.000000 13 351.852917
-3.240220 0.512036 2.235355 14.000000 11 351.852919
-3.729695 0.589389 2.062275 80.000000 9 351.852922
-5.664998 0.896232 2.405593 9.000000 7 351.852925
-5.226620 0.827813 1.644385 7.000000 5 351.852927
-5.099208 0.807633 1.071656 8.000000 3 351.852930
-4.923312 0.780654 0.539587 9.000000 1 351.852932
-2.459533 0.392185 2.298644 36.000000 14 351.852940
-3.203817 0.510869 2.445855 2.000000 12 351.852943
-4.007929 0.639809 2.469686 11.000000 10 351.852945
-3.801645 0.606881 1.867124 3.000000 8 351.852948
-5.312030 0.848945 1.960360 2.000000 6 351.852950
-5.255689 0.840882 1.374441 8.000000 4 351.852953
-5.060878 0.810619 0.806160 11.000000 2 351.852955
-4.853738 0.778309 0.291972 11.000000 0 351.852958
-0.040025 0.013974 3.304148 98.000000 31 351.852969
-0.497896 0.093321 3.220820 97.000000 28 351.852971
-0.687838 0.129806 3.388758 29.000000 27 351.852974
-1.013069 0.170695 3.329498 68.000000 25 351.852976
-1.341178 0.218404 3.260807 49.000000 23 351.852979
-2.570751 0.418197 4.838413 86.000000 21 351.852981
-3.144796 0.511586 4.752103 89.000000 19 351.852984
-2.381445 0.387406 2.964305 29.000000 17 351.852987
-0.194070 0.045928 3.278916 98.000000 30 351.852994
-0.346607 0.073373 3.256087 96.000000 29 351.852997
-0.846999 0.148853 3.346216 83.000000 26 351.852999
-1.177513 0.193857 3.299429 60.000000 24 351.853002
-1.490844 0.244918 3.186343 4.000000 22 351.853005
-2.858365 0.469087 4.808127 94.000000 20 351.853007
-3.446724 0.565648 4.698151 92.000000 18 351.853010
-2.406501 0.394934 2.722013 33.000000 16 351.853012
-2.433247 0.392785 2.501893 34.000000 15 351.852970
-2.885344 0.465768 2.438190 2.000000 13 351.852972
-3.234285 0.522676 2.232614 13.000000 11 351.852975
-3.727615 0.602404 2.062275 84.000000 9 351.852978
-5.666411 0.916741 2.407465 8.000000 7 351.852980
-5.237905 0.848353 1.648613 10.000000 5 351.852983
-5.203038 0.842706 1.092174 8.000000 3 351.852985
-4.994295 0.809791 0.546281 9.000000 1 351.852988
-2.458149 0.400768 2.298644 36.000000 14 351.852996
-3.249886 0.529855 2.481173 5.000000 12 351.852998
-3.768149 0.615030 1.852438 4.000000 8 351.853003
-5.305487 0.867854 1.387336 8.000000 4 351.853008
-5.136211 0.841084 0.817197 11.000000 2 351.853011
-4.924944 0.807370 0.294995 10.000000 0 351.853013
-0.039976 0.014114 3.304148 98.000000 31 351.853024
-0.497567 0.095058 3.220820 97.000000 28 351.853027
-0.688380 0.132399 3.393653 29.000000 27 351.853029
-1.012467 0.174231 3.329498 68.000000 25 351.853032
-1.340408 0.223084 3.260807 48.000000 23 351.853034
-2.569275 0.427168 4.838413 89.000000 21 351.853037
-3.142991 0.522560 4.752103 89.000000 19 351.853039
-2.380078 0.395716 2.964305 29.000000 17 351.853042
-0.193908 0.046606 3.278916 98.000000 30 351.853050
-0.346349 0.074582 3.256087 96.000000 29 351.853052
-0.846474 0.151809 3.346216 83.000000 26 351.853055
-1.176829 0.197966 3.299429 58.000000 24 351.853057
-1.496423 0.251203 3.199845 5.000000 22 351.853060
-2.856710 0.479061 4.808127 95.000000 20 351.853063
-3.444728 0.577676 4.698151 93.000000 18 351.853065
-2.401764 0.402772 2.718338 33.000000 16 351.853068
-2.431861 0.401276 2.501893 34.000000 15 351.853025
-2.891382 0.477105 2.444465 2.000000 13 351.853028
-3.228315 0.533281 2.229872 13.000000 11 351.853031
-3.721119 0.614690 2.059957 64.000000 9 351.853033
-5.695194 0.941809 2.420577 19.000000 7 351.853036
-5.220713 0.864281 1.644385 22.000000 5 351.853038
-5.301836 0.877711 1.111759 8.000000 3 351.853041
-5.055307 0.837805 0.552081 8.000000 1 351.853043
-2.453052 0.408732 2.295320 36.000000 14 351.853051
-3.283900 0.547175 2.507662 17.000000 12 351.853054
-4.301039 0.717427 2.646956 91.000000 10 351.853056
-3.734642 0.622952 1.837752 10.000000 8 351.853059
-5.465425 0.913615 1.427195 9.000000 4 351.853064
-5.196739 0.869633 0.826165 10.000000 2 351.853066
-4.996004 0.836938 0.298018 9.000000 0 351.853069
-0.039926 0.014253 3.304148 98.000000 31 351.853080
-0.497232 0.096795 3.220820 96.000000 28 351.853082
-0.687914 0.134801 3.393653 29.000000 27 351.853085
-1.011853 0.177764 3.329498 68.000000 25 351.853087
-1.339621 0.227762 3.260807 49.000000 23 351.853090
-2.567768 0.436134 4.838413 90.000000 21 351.853092
-3.141148 0.533528 4.752103 89.000000 19 351.853095
-2.375521 0.403485 2.960468 29.000000 17 351.853098
-0.193744 0.047282 3.278916 98.000000 30 351.853105
-0.346086 0.075791 3.256087 96.000000 29 351.853108
-0.845939 0.154763 3.346216 83.000000 26 351.853110
-1.176131 0.202073 3.299429 58.000000 24 351.853113
-1.501977 0.257529 3.213348 7.000000 22 351.853116
-2.855020 0.489030 4.808127 95.000000 20 351.853118
-3.442691 0.589696 4.698151 93.000000 18 351.853121
-2.400344 0.411153 2.718338 33.000000 16 351.853123
-2.426929 0.409169 2.498389 34.000000 15 351.853081
-2.766862 0.466484 2.344056 2.000000 13 351.853083
-3.226434 0.544547 2.229872 13.000000 11 351.853086
-3.767003 0.635786 2.085455 35.000000 9 351.853089
-5.632447 0.951643 2.396227 92.000000 7 351.853091
-5.189283 0.877699 1.635930 89.000000 5 351.853094
-5.410139 0.915054 1.133209 10.000000 3 351.853096
-5.150556 0.872073 0.561006 8.000000 1 351.853099
-2.451610 0.417292 2.295320 37.000000 14 351.853107
-3.281970 0.558634 2.507662 14.000000 12 351.853109
-4.311258 0.734609 2.654553 90.000000 10 351.853112
-3.732445 0.635985 1.837752 10.000000 8 351.853114
-5.548446 0.947414 1.448297 8.000000 4 351.853119
-5.262012 0.899450 0.835822 9.000000 2 351.853122
-5.071842 0.867854 0.301242 9.000000 0 351.853125
-0.039876 0.014392 3.304148 98.000000 31 351.853135
-0.496892 0.098530 3.220820 96.000000 28 351.853138
-0.688438 0.137402 3.398548 29.000000 27 351.853140
-1.011226 0.181295 3.329498 68.000000 25 351.853143
-1.338818 0.232436 3.260807 50.000000 23 351.853145
-2.568591 0.445504 4.842802 90.000000 21 351.853148
-3.142039 0.544971 4.756237 89.000000 19 351.853151
-2.374099 0.411775 2.960468 29.000000 17 351.853153
-0.193578 0.047958 3.278916 98.000000 30 351.853161
-0.346341 0.077115 3.261059 97.000000 29 351.853163
-0.846630 0.157946 3.351055 82.000000 26 351.853166
-1.175418 0.206177 3.299429 58.000000 24 351.853169
-1.507504 0.263897 3.226851 29.000000 22 351.853171
-2.853296 0.498993 4.808127 95.000000 20 351.853174
-3.440611 0.601710 4.698151 93.000000 18 351.853176
-2.395554 0.418945 2.714662 33.000000 16 351.853179
-2.425486 0.417639 2.498389 34.000000 15 351.853136
-2.742198 0.472176 2.325230 2.000000 13 351.853139
-3.220392 0.555096 2.227131 13.000000 11 351.853142
-5.624522 0.970510 2.394354 90.000000 7 351.853147
-5.162551 0.891725 1.628884 91.000000 5 351.853149
-5.765115 0.995806 1.202223 17.000000 3 351.853152
-5.225996 0.903623 0.568145 8.000000 1 351.853154
-2.446460 0.425208 2.291995 36.000000 14 351.853162
-3.283983 0.570779 2.510605 13.000000 12 351.853165
-4.317163 0.751131 2.659618 91.000000 10 351.853167
-3.748087 0.652121 1.846144 38.000000 8 351.853170
-5.299659 0.923030 1.960360 1.000000 6 351.853172
-5.669603 0.988482 1.478777 9.000000 4 351.853175
-5.332016 0.930583 0.846169 8.000000 2 351.853177
-5.152446 0.900170 0.304668 10.000000 0 351.853180
-0.039826 0.014532 3.304148 98.000000 31 351.853191
-0.496545 0.100264 3.220820 97.000000 28 351.853193
-0.687954 0.139804 3.398548 28.000000 27 351.853196
-1.010587 0.184823 3.329498 68.000000 25 351.853198
-1.337998 0.237108 3.260807 45.000000 23 351.853201
-2.567020 0.454467 4.842802 90.000000 21 351.853203
-3.140117 0.555935 4.756237 89.000000 19 351.853206
-2.369490 0.419500 2.956631 29.000000 17 351.853209
-0.193410 0.048634 3.278916 98.000000 30 351.853216
-0.346069 0.078324 3.261059 97.000000 29 351.853219
-0.846074 0.160900 3.351055 83.000000 26 351.853221
-1.174692 0.210279 3.299429 58.000000 24 351.853224
-1.508717 0.269540 3.231351 35.000000 22 351.853227
-2.851536 0.508950 4.808127 95.000000 20 351.853229
-3.438490 0.613716 4.698151 94.000000 18 351.853232
-2.394077 0.427305 2.714662 34.000000 16 351.853234
-2.424013 0.426103 2.498389 34.000000 15 351.853192
-4.887613 0.859174 4.082385 1.000000 13 351.853195
-3.218435 0.566333 2.227131 13.000000 11 351.853197
-3.945726 0.694315 2.182812 12.000000 9 351.853200
-5.593707 0.985312 2.383116 90.000000 7 351.853202
-5.145234 0.907241 1.624656 91.000000 5 351.853205
-5.843843 1.030425 1.218077 16.000000 3 351.853207
-5.306182 0.936575 0.575730 9.000000 1 351.853210
-2.441283 0.433093 2.288670 37.000000 14 351.853218
-3.270030 0.580121 2.501775 9.000000 12 351.853220
-4.314515 0.766196 2.659618 90.000000 10 351.853223
-3.759194 0.667581 1.852438 65.000000 8 351.853225
-5.296405 0.941523 1.960360 1.000000 6 351.853228
-5.790539 1.030407 1.509257 10.000000 4 351.853230
-5.328736 0.949190 0.846169 8.000000 2 351.853233
-5.218130 0.930427 0.307490 9.000000 0 351.853236
-0.039814 0.014689 3.309147 95.000000 31 351.853246
-0.496192 0.101996 3.220820 97.000000 28 351.853249
-0.687462 0.142205 3.398548 28.000000 27 351.853251
-1.009935 0.188350 3.329498 68.000000 25 351.853254
-1.339085 0.242125 3.265409 45.000000 23 351.853256
-2.565418 0.463425 4.842802 90.000000 21 351.853259
-3.138158 0.566893 4.756237 89.000000 19 351.853262
-2.368011 0.427769 2.956631 29.000000 17 351.853264
-0.193239 0.049308 3.278916 98.000000 30 351.853272
-0.345794 0.079531 3.261059 97.000000 29 351.853274
-0.845507 0.163852 3.351055 83.000000 26 351.853277
-1.173950 0.214378 3.299429 60.000000 24 351.853280
-1.512052 0.275586 3.240353 42.000000 22 351.853282
-2.852308 0.519368 4.812393 95.000000 20 351.853285
-3.436327 0.625715 4.698151 93.000000 18 351.853287
-2.389236 0.435052 2.710987 34.000000 16 351.853290
-2.419001 0.433932 2.494884 34.000000 15 351.853247
-4.899911 0.878980 4.094936 1.000000 13 351.853250
-3.216439 0.577564 2.227131 13.000000 11 351.853253
-5.581108 1.003191 2.379370 86.000000 7 351.853258
-5.137314 0.924346 1.623247 94.000000 5 351.853260
-5.922400 1.065605 1.233932 14.000000 3 351.853263
-5.396003 0.971864 0.584208 9.000000 1 351.853265
-2.439757 0.441612 2.288670 37.000000 14 351.853273
-3.256053 0.589372 2.492946 4.000000 12 351.853276
-4.316055 0.782021 2.662150 90.000000 10 351.853278
-3.774704 0.683936 1.860830 65.000000 8 351.853281
-5.279146 0.957477 1.955432 1.000000 6 351.853283
-5.896904 1.070583 1.536221 11.000000 4 351.853286
-5.607988 1.019142 0.886178 13.000000 2 351.853289
-5.327901 0.969202 0.312125 9.000000 0 351.853291
-0.039763 0.014828 3.309147 95.000000 31 351.853302
-0.495833 0.103728 3.220820 97.000000 28 351.853304
-0.686961 0.144603 3.398548 28.000000 27 351.853307
-1.009272 0.191874 3.329498 68.000000 25 351.853309
-1.338232 0.246798 3.265409 45.000000 23 351.853312
-2.566141 0.472811 4.847190 90.000000 21 351.853315
-3.136160 0.577843 4.756237 89.000000 19 351.853317
-2.366504 0.436032 2.956631 29.000000 17 351.853320
-0.193065 0.049983 3.278916 98.000000 30 351.853327
-0.345514 0.080738 3.261059 97.000000 29 351.853330
-0.846164 0.167047 3.355894 85.000000 26 351.853333
-1.174891 0.218790 3.304122 58.000000 24 351.853335
-1.511081 0.280862 3.240353 41.000000 22 351.853338
-2.850478 0.529321 4.812393 95.000000 20 351.853340
-3.434122 0.637706 4.698151 93.000000 18 351.853343
-2.387703 0.443389 2.710987 34.000000 16 351.853345
-2.417471 0.442373 2.494884 33.000000 15 351.853303
-3.214403 0.588788 2.227131 13.000000 11 351.853308
-5.573011 1.021831 2.377497 78.000000 7 351.853313
-5.134057 0.942273 1.623247 97.000000 5 351.853316
-5.971791 1.096026 1.244191 9.000000 3 351.853318
-5.485641 1.007791 0.592686 8.000000 1 351.853321
-2.434528 0.449448 2.285345 36.000000 14 351.853329
-3.047285 0.562575 2.339901 2.000000 12 351.853331
-4.313300 0.797082 2.662150 92.000000 10 351.853334
-3.785683 0.699582 1.867124 65.000000 8 351.853336
-5.275772 0.975899 1.955432 1.000000 6 351.853339
-5.778426 1.069922 1.508085 7.000000 4 351.853341
-5.667697 1.050443 0.895146 12.000000 2 351.853344
-5.403079 1.002374 0.315349 9.000000 0 351.853347
-0.039711 0.014967 3.309147 98.000000 31 351.853358
-0.496227 0.105620 3.225760 95.000000 28 351.853361
-0.686452 0.147000 3.398548 28.000000 27 351.853363
-1.008596 0.195396 3.329498 66.000000 25 351.853366
-1.337362 0.251468 3.265409 46.000000 23 351.853368
-2.564475 0.481766 4.847190 90.000000 21 351.853371
-3.134124 0.588787 4.756237 88.000000 19 351.853373
-2.361816 0.443698 2.952794 29.000000 17 351.853376
-0.192899 0.050623 3.278916 98.000000 30 351.853384
-0.345245 0.081883 3.261059 96.000000 29 351.853386
-0.845605 0.169852 3.355894 85.000000 26 351.853389
-1.174159 0.222685 3.304122 56.000000 24 351.853391
-1.512231 0.286541 3.244854 42.000000 22 351.853394
-2.848613 0.539268 4.812393 95.000000 20 351.853396
-3.431875 0.649690 4.698151 92.000000 18 351.853399
-2.382888 0.450674 2.707312 34.000000 16 351.853402
-2.415912 0.450809 2.494884 33.000000 15 351.853359
-2.800394 0.522557 2.378572 7.000000 13 351.853362
-3.208218 0.599237 2.224389 12.000000 11 351.853364
-5.565035 1.039455 2.375624 49.000000 7 351.853370
-5.126188 0.958411 1.621838 97.000000 5 351.853372
-5.963100 1.115961 1.243258 8.000000 3 351.853375
-5.565303 1.042521 0.600272 8.000000 1 351.853377
-2.432945 0.457943 2.285345 35.000000 14 351.853385
-3.045303 0.573209 2.339901 1.000000 12 351.853388
-4.314870 0.812178 2.664683 92.000000 10 351.853390
-3.792263 0.713811 1.871320 67.000000 8 351.853393
-5.526472 1.042237 1.447124 8.000000 4 351.853398
-5.815036 1.097709 0.916530 21.000000 2 351.853400
-5.492998 1.037910 0.319178 9.000000 0 351.853403
-0.039661 0.015098 3.309147 98.000000 31 351.853414
-0.495874 0.107265 3.225760 95.000000 28 351.853416
-0.685961 0.149276 3.398548 28.000000 27 351.853419
-1.007942 0.198739 3.329498 66.000000 25 351.853421
-1.336521 0.255901 3.265409 45.000000 23 351.853424
-2.562864 0.490268 4.847190 90.000000 21 351.853426
-3.132154 0.599177 4.756237 88.000000 19 351.853429
-2.360332 0.451528 2.952794 29.000000 17 351.853431
-0.193000 0.051372 3.283908 98.000000 30 351.853439
-0.344957 0.083088 3.261059 96.000000 29 351.853442
-0.845007 0.172802 3.355894 85.000000 26 351.853444
-1.173375 0.226783 3.304122 58.000000 24 351.853447
-1.511272 0.291554 3.244854 42.000000 22 351.853449
-2.846809 0.548711 4.812393 95.000000 20 351.853452
-3.429702 0.661067 4.698151 92.000000 18 351.853455
-2.381300 0.458989 2.707312 34.000000 16 351.853457
-2.410901 0.458152 2.491379 34.000000 15 351.853415
-2.867485 0.544922 2.435052 12.000000 13 351.853417
-3.206213 0.609873 2.224389 12.000000 11 351.853420
-5.556819 1.058007 2.373751 49.000000 7 351.853425
-5.122811 0.976299 1.621838 96.000000 5 351.853428
-6.046224 1.152283 1.260045 13.000000 3 351.853430
-5.684112 1.084300 0.611427 7.000000 1 351.853433
-2.427745 0.465305 2.282020 35.000000 14 351.853440
-2.995748 0.574174 2.304584 2.000000 12 351.853443
-4.312008 0.827235 2.664683 92.000000 10 351.853446
-3.812034 0.731320 1.881811 77.000000 8 351.853448
-6.219695 1.195470 1.618283 7.000000 4 351.853453
-5.772265 1.110516 0.911012 22.000000 2 351.853456
-0.039608 0.015237 3.309147 98.000000 31 351.853469
-0.495497 0.108995 3.225760 97.000000 28 351.853472
-0.685436 0.151670 3.398548 26.000000 27 351.853474
-1.007243 0.202257 3.329498 68.000000 25 351.853477
-1.335619 0.260565 3.265409 45.000000 23 351.853479
-2.561136 0.499211 4.847190 90.000000 21 351.853482
-3.132805 0.610645 4.760369 88.000000 19 351.853484
-2.355595 0.459151 2.948957 29.000000 17 351.853487
-0.192820 0.052045 3.283908 98.000000 30 351.853495
-0.344664 0.084291 3.261059 96.000000 29 351.853497
-0.843167 0.175494 3.351055 83.000000 26 351.853500
-1.172576 0.230877 3.304122 58.000000 24 351.853502
-1.510245 0.296828 3.244854 42.000000 22 351.853505
-2.844876 0.558645 4.812393 95.000000 20 351.853508
-3.427373 0.673035 4.698151 92.000000 18 351.853510
-2.379683 0.467299 2.707312 33.000000 16 351.853513
-2.409286 0.466565 2.491379 34.000000 15 351.853470
-2.865565 0.554928 2.435052 12.000000 13 351.853473
-3.204065 0.621061 2.224389 11.000000 11 351.853475
-7.095049 1.375280 3.868017 8.000000 9 351.853478
-5.548541 1.076515 2.371878 75.000000 7 351.853481
-5.114663 0.993261 1.620429 96.000000 5 351.853483
-5.844457 1.134986 1.221808 7.000000 3 351.853486
-5.787840 1.125039 0.621244 7.000000 1 351.853488
-2.426106 0.473777 2.282020 35.000000 14 351.853496
-3.021495 0.590051 2.325186 2.000000 12 351.853499
-4.309094 0.842282 2.664683 92.000000 10 351.853501
-3.805004 0.743751 1.879713 76.000000 8 351.853504
-6.258414 1.225581 1.628834 9.000000 4 351.853509
-5.782932 1.133515 0.913081 24.000000 2 351.853511
-5.686620 1.115668 0.327441 9.000000 0 351.853514
-0.039555 0.015375 3.309147 98.000000 31 351.853525
-0.495113 0.110724 3.225760 97.000000 28 351.853527
-0.684902 0.154061 3.398548 26.000000 27 351.853530
-1.006530 0.205771 3.329498 66.000000 25 351.853532
-1.332785 0.264845 3.260807 45.000000 23 351.853535
-2.559378 0.508148 4.847190 89.000000 21 351.853537
-3.130655 0.621577 4.760369 88.000000 19 351.853540
-2.353978 0.467371 2.948957 29.000000 17 351.853542
-0.192637 0.052718 3.283908 98.000000 30 351.853550
-0.344368 0.085494 3.261059 96.000000 29 351.853553
-0.842550 0.178437 3.351055 82.000000 26 351.853555
-1.171763 0.234969 3.304122 56.000000 24 351.853558
-1.509147 0.302361 3.244854 42.000000 22 351.853560
-2.845367 0.569580 4.816659 95.000000 20 351.853563
-3.427839 0.686184 4.702141 92.000000 18 351.853566
-2.374631 0.475352 2.703637 33.000000 16 351.853568
-2.407643 0.474972 2.491379 34.000000 15 351.853526
-2.882707 0.568695 2.450741 7.000000 13 351.853528
-3.201878 0.632241 2.224389 10.000000 11 351.853531
-7.068474 1.395747 3.856427 4.000000 9 351.853534
-5.540202 1.094977 2.370005 88.000000 7 351.853536
-5.111165 1.011108 1.620429 97.000000 5 351.853539
-5.560772 1.101060 1.167716 7.000000 3 351.853541
-5.886263 1.166577 0.630614 7.000000 1 351.853544
-2.420691 0.481937 2.278695 34.000000 14 351.853552
-2.991563 0.595596 2.304584 2.000000 12 351.853554
-4.305978 0.858070 2.664683 91.000000 10 351.853557
-3.815605 0.760353 1.886007 45.000000 8 351.853559
-6.392110 1.276107 1.662831 15.000000 4 351.853564
-6.006979 1.200310 0.945503 8.000000 2 351.853567
-5.761076 1.151174 0.330666 9.000000 0 351.853569
-0.039459 0.015500 3.304148 98.000000 31 351.853580
-0.494704 0.112538 3.225760 97.000000 28 351.853583
-0.684333 0.156571 3.398548 28.000000 27 351.853585
-1.005769 0.209459 3.329498 66.000000 25 351.853588
-1.331806 0.269728 3.260807 45.000000 23 351.853590
-2.557498 0.517525 4.847190 90.000000 21 351.853593
-3.128356 0.633047 4.760369 89.000000 19 351.853595
-2.349107 0.475359 2.945120 30.000000 17 351.853598
-0.192442 0.053423 3.283908 98.000000 30 351.853606
-0.344052 0.086756 3.261059 96.000000 29 351.853608
-0.841890 0.181523 3.351055 81.000000 26 351.853611
-1.170894 0.239262 3.304122 58.000000 24 351.853613
-1.508083 0.307627 3.244854 42.000000 22 351.853616
-2.843361 0.579509 4.816659 95.000000 20 351.853619
-3.425422 0.698145 4.702141 93.000000 18 351.853621
-2.372957 0.483638 2.703637 33.000000 16 351.853624
-2.402390 0.483090 2.487875 34.000000 15 351.853581
-2.876787 0.578489 2.447603 6.000000 13 351.853584
-3.195439 0.643148 2.221648 9.000000 11 351.853586
-7.063311 1.421645 3.856427 4.000000 9 351.853589
-5.527062 1.113445 2.366259 89.000000 7 351.853592
-5.107424 1.029835 1.620429 96.000000 5 351.853594
-5.422066 1.093278 1.141602 18.000000 3 351.853597
-6.013959 1.213717 0.642662 8.000000 1 351.853599
-2.418994 0.490384 2.278695 32.000000 14 351.853607
-2.949852 0.598004 2.275152 2.000000 12 351.853610
-4.302957 0.873095 2.664683 91.000000 10 351.853612
-3.790688 0.769155 1.875517 5.000000 8 351.853615
-6.392380 1.299380 1.664003 16.000000 4 351.853620
-6.119220 1.244967 0.962058 5.000000 2 351.853622
-5.888996 1.199198 0.336107 9.000000 0 351.853625
-0.039405 0.015638 3.304148 98.000000 31 351.853636
-0.494308 0.114264 3.225760 97.000000 28 351.853638
-0.683782 0.158958 3.398548 30.000000 27 351.853641
-1.005032 0.212968 3.329498 66.000000 25 351.853643
-1.330856 0.274375 3.260807 45.000000 23 351.853646
-2.555677 0.526449 4.847190 91.000000 21 351.853648
-3.126127 0.643963 4.760369 89.000000 19 351.853651
-2.347433 0.483556 2.945120 30.000000 17 351.853654
-0.192255 0.054095 3.283908 98.000000 30 351.853661
-0.343748 0.087956 3.261059 96.000000 29 351.853664
-0.842480 0.184731 3.355894 81.000000 26 351.853666
-1.170052 0.243347 3.304122 58.000000 24 351.853669
-1.507000 0.312889 3.244854 41.000000 22 351.853672
-2.841321 0.589431 4.816659 95.000000 20 351.853674
-3.422965 0.710098 4.702141 93.000000 18 351.853677
-2.371254 0.491919 2.703637 33.000000 16 351.853679
-2.400689 0.491473 2.487875 34.000000 15 351.853637
-3.193175 0.654298 2.221648 8.000000 11 351.853642
-7.084345 1.451628 3.870335 5.000000 9 351.853645
-5.518600 1.131800 2.364386 90.000000 7 351.853647
-5.103798 1.047657 1.620429 93.000000 5 351.853650
-5.456712 1.120099 1.149063 10.000000 3 351.853652
-6.141397 1.261762 0.654710 10.000000 1 351.853655
-2.417267 0.498824 2.278695 30.000000 14 351.853663
-2.963580 0.611565 2.286925 2.000000 12 351.853665
-4.299883 0.888110 2.664683 91.000000 10 351.853668
-3.783535 0.781464 1.873418 4.000000 8 351.853670
-6.368766 1.317746 1.659314 48.000000 4 351.853675
-6.342753 1.313518 0.994480 8.000000 2 351.853678
-6.002181 1.244082 0.340944 8.000000 0 351.853680
-0.039350 0.015775 3.304148 98.000000 31 351.853691
-0.493906 0.115989 3.225760 97.000000 28 351.853694
-0.683223 0.161344 3.398548 31.000000 27 351.853696
-1.004283 0.216475 3.329498 66.000000 25 351.853699
-1.329890 0.279019 3.260807 39.000000 23 351.853701
-2.553823 0.535367 4.847190 82.000000 21 351.853704
-3.123860 0.654872 4.760369 89.000000 19 351.853706
-2.345731 0.491748 2.945120 30.000000 17 351.853709
-0.191787 0.054685 3.278916 98.000000 30 351.853717
-0.343438 0.089155 3.261059 96.000000 29 351.853719
-0.841830 0.187670 3.355894 83.000000 26 351.853722
-1.169195 0.247430 3.304122 56.000000 24 351.853724
-1.505898 0.318148 3.244854 41.000000 22 351.853727
-2.839246 0.599345 4.816659 95.000000 20 351.853730
-3.423414 0.722664 4.706130 93.000000 18 351.853732
-2.366206 0.499493 2.699962 33.000000 16 351.853735
-2.395468 0.499123 2.484370 34.000000 15 351.853692
-3.186778 0.664587 2.218906 7.000000 11 351.853698
-7.079236 1.476348 3.870335 5.000000 9 351.853700
-5.510077 1.150109 2.362513 89.000000 7 351.853703
-5.104806 1.066447 1.621838 83.000000 5 351.853705
-5.443152 1.137131 1.147198 7.000000 3 351.853708
-6.263695 1.309692 0.666311 8.000000 1 351.853710
-2.415511 0.507259 2.278695 27.000000 14 351.853718
-2.961428 0.621906 2.286925 2.000000 12 351.853721
-4.296757 0.903114 2.664683 90.000000 10 351.853723
-3.767460 0.791866 1.867124 3.000000 8 351.853726
-6.349859 1.336965 1.655797 43.000000 4 351.853731
-6.338130 1.335651 0.994480 7.000000 2 351.853733
-6.105347 1.287709 0.345378 7.000000 0 351.853736
-0.039294 0.015913 3.304148 98.000000 31 351.853747
-0.493499 0.117712 3.225760 97.000000 28 351.853749
-0.683646 0.163966 3.403444 32.000000 27 351.853752
-1.003521 0.219980 3.329498 66.000000 25 351.853754
-1.328908 0.283659 3.260807 39.000000 23 351.853757
-2.551939 0.544278 4.847190 57.000000 21 351.853759
-3.121555 0.665772 4.760369 89.000000 19 351.853762
-2.340864 0.499264 2.941283 30.000000 17 351.853765
-0.191595 0.055354 3.278916 98.000000 30 351.853772
-0.343125 0.090354 3.261059 96.000000 29 351.853775
-0.841169 0.190608 3.355894 81.000000 26 351.853777
-1.168324 0.251510 3.304122 56.000000 24 351.853780
-1.504779 0.323402 3.244854 41.000000 22 351.853783
-2.837137 0.609252 4.816659 95.000000 20 351.853785
-3.420870 0.734610 4.706130 93.000000 18 351.853788
-2.364448 0.507749 2.699962 33.000000 16 351.853790
-2.393711 0.507481 2.484370 33.000000 15 351.853748
-4.827993 1.023574 4.060421 2.000000 13 351.853750
-3.180349 0.674838 2.216165 6.000000 11 351.853753
-7.221385 1.532316 3.949148 3.000000 9 351.853756
-5.496960 1.167410 2.358767 88.000000 7 351.853758
-5.101053 1.084260 1.621838 74.000000 5 351.853761
-6.414958 1.364709 0.680590 4.000000 1 351.853766
-2.413726 0.515688 2.278695 25.000000 14 351.853774
-3.010625 0.643219 2.325186 2.000000 12 351.853776
-4.297794 0.919008 2.667215 90.000000 10 351.853779
-3.751359 0.802165 1.860830 3.000000 8 351.853781
-6.345153 1.359122 1.655797 43.000000 4 351.853786
-6.377009 1.367110 1.000688 12.000000 2 351.853789
-6.237587 1.338359 0.351020 6.000000 0 351.853792
-0.039239 0.016050 3.304148 98.000000 31 351.853802
-0.493085 0.119434 3.225760 97.000000 28 351.853805
-0.683069 0.166352 3.403444 32.000000 27 351.853807
-1.002747 0.223481 3.329498 66.000000 25 351.853810
-1.329819 0.288711 3.265409 48.000000 23 351.853812
-2.547682 0.552675 4.842802 8.000000 21 351.853815
-3.119212 0.676664 4.760369 89.000000 19 351.853818
-2.339108 0.507432 2.941283 30.000000 17 351.853820
-0.191400 0.056022 3.278916 98.000000 30 351.853828
-0.342808 0.091551 3.261059 96.000000 29 351.853830
-0.840499 0.193543 3.355894 81.000000 26 351.853833
-1.167439 0.255587 3.304122 56.000000 24 351.853836
-1.503641 0.328653 3.244854 40.000000 22 351.853838
-2.834993 0.619152 4.816659 95.000000 20 351.853841
-3.418285 0.746546 4.706130 92.000000 18 351.853843
-2.359349 0.515276 2.696286 34.000000 16 351.853846
-2.388438 0.515082 2.480866 33.000000 15 351.853803
-4.812975 1.037959 4.051007 2.000000 13 351.853806
-3.177974 0.685936 2.216165 6.000000 11 351.853809
-7.215992 1.557514 3.949148 3.000000 9 351.853811
-5.488320 1.185612 2.356894 88.000000 7 351.853814
-5.097237 1.102059 1.621838 67.000000 5 351.853816
-6.078457 1.314206 1.272169 118.000000 3 351.853819
-6.517238 1.410265 0.690406 4.000000 1 351.853821
-2.411911 0.524110 2.278695 22.000000 14 351.853829
-3.075509 0.668315 2.375219 2.000000 12 351.853832
-4.294560 0.934005 2.667215 89.000000 10 351.853834
-3.735231 0.812361 1.854536 3.000000 8 351.853837
-6.273881 1.366778 1.639384 40.000000 4 351.853842
-6.367359 1.388306 0.999998 11.000000 2 351.853844
-6.286569 1.371841 0.353237 6.000000 0 351.853847
-0.039182 0.016187 3.304148 98.000000 31 351.853858
-0.492665 0.121155 3.225760 97.000000 28 351.853860
-0.682484 0.168735 3.403444 33.000000 27 351.853863
-1.001961 0.226980 3.329498 66.000000 25 351.853865
-1.328803 0.293351 3.265409 46.000000 23 351.853868
-2.545738 0.561564 4.842802 8.000000 21 351.853870
-3.116831 0.687548 4.760369 88.000000 19 351.853873
-2.337322 0.515594 2.941283 30.000000 17 351.853876
-0.191203 0.056690 3.278916 98.000000 30 351.853883
-0.342486 0.092747 3.261059 96.000000 29 351.853886
-0.838594 0.196189 3.351055 81.000000 26 351.853888
-1.166540 0.259660 3.304122 54.000000 24 351.853891
-1.502484 0.333900 3.244854 40.000000 22 351.853894
-2.835361 0.629610 4.820925 94.000000 20 351.853896
-3.415658 0.758474 4.706130 92.000000 18 351.853899
-2.357536 0.523509 2.696286 34.000000 16 351.853901
-2.386626 0.523416 2.480866 34.000000 15 351.853859
-4.809322 1.054753 4.051007 2.000000 13 351.853862
-3.171476 0.696128 2.213423 6.000000 11 351.853864
-5.479620 1.203767 2.355021 90.000000 7 351.853869
-5.088674 1.118815 1.620429 43.000000 5 351.853872
-6.083427 1.337526 1.274035 112.000000 3 351.853874
-6.750596 1.485447 0.712271 16.000000 1 351.853877
-2.413713 0.533332 2.282020 21.000000 14 351.853885
-3.057370 0.675558 2.363447 2.000000 12 351.853887
-4.295484 0.949921 2.669748 90.000000 10 351.853890
-3.705784 0.819514 1.841948 3.000000 8 351.853892
-5.731862 1.268622 2.131199 8.000000 6 351.853895
-6.178906 1.368696 1.617110 38.000000 4 351.853897
-6.391483 1.416955 1.004137 20.000000 2 351.853900
-6.486590 1.439227 0.361702 12.000000 0 351.853903
-0.039126 0.016323 3.304148 98.000000 31 351.853913
-0.492239 0.122874 3.225760 97.000000 28 351.853916
-0.681891 0.171116 3.403444 34.000000 27 351.853918
-1.001162 0.230476 3.329498 68.000000 25 351.853921
-1.327771 0.297988 3.265409 45.000000 23 351.853923
-2.541424 0.569923 4.838413 38.000000 21 351.853926
-3.114412 0.698424 4.760369 87.000000 19 351.853929
-2.332380 0.523048 2.937446 30.000000 17 351.853931
-0.191004 0.057357 3.278916 98.000000 30 351.853939
-0.342160 0.093942 3.261059 97.000000 29 351.853941
-0.837904 0.199115 3.351055 81.000000 26 351.853944
-1.165627 0.263731 3.304122 56.000000 24 351.853947
-1.499185 0.338663 3.240353 40.000000 22 351.853949
-2.833145 0.639503 4.820925 95.000000 20 351.853952
-3.412990 0.770392 4.706130 92.000000 18 351.853954
-2.352387 0.530988 2.692611 34.000000 16 351.853957
-2.381304 0.530968 2.477361 34.000000 15 351.853914
-4.790413 1.068146 4.038456 2.000000 13 351.853917
-3.164945 0.706284 2.210682 6.000000 11 351.853920
-7.814607 1.743905 4.275990 8.000000 9 351.853922
-5.466336 1.220867 2.351275 90.000000 7 351.853925
-5.080055 1.135524 1.619020 36.000000 5 351.853927
-6.745370 1.509002 0.712271 17.000000 1 351.853932
-2.411837 0.541754 2.282020 20.000000 14 351.853940
-3.070768 0.689770 2.375219 2.000000 12 351.853943
-4.292141 0.964909 2.669748 90.000000 10 351.853945
-3.698473 0.831450 1.839850 5.000000 8 351.853948
-5.764257 1.296915 2.144341 90.000000 6 351.853950
-6.400990 1.442523 1.006207 32.000000 2 351.853956
-6.676467 1.505829 0.369763 12.000000 0 351.853958
-0.039068 0.016460 3.304148 98.000000 31 351.853969
-0.491807 0.124591 3.225760 97.000000 28 351.853971
-0.681290 0.173495 3.403444 35.000000 27 351.853974
-1.001806 0.234310 3.334270 66.000000 25 351.853976
-1.326723 0.302621 3.265409 44.000000 23 351.853979
-2.539419 0.578791 4.838413 77.000000 21 351.853982
-3.111955 0.709291 4.760369 87.000000 19 351.853984
-2.330540 0.531186 2.937446 31.000000 17 351.853987
-0.191080 0.058109 3.283908 98.000000 30 351.853994
-0.341830 0.095136 3.261059 96.000000 29 351.853997
-0.837204 0.202038 3.351055 81.000000 26 351.854000
-1.164699 0.267798 3.304122 54.000000 24 351.854002
-1.497994 0.343894 3.240353 38.000000 22 351.854005
-2.830896 0.649389 4.820925 95.000000 20 351.854007
-3.410280 0.782301 4.706130 92.000000 18 351.854010
-2.350519 0.539196 2.692611 34.000000 16 351.854012
-2.379436 0.539277 2.477361 35.000000 15 351.853970
-3.158383 0.716402 2.207940 6.000000 11 351.853975
-7.907843 1.793712 4.329305 8.000000 9 351.853978
-5.457520 1.238914 2.349401 85.000000 7 351.853980
-5.071382 1.152187 1.617610 27.000000 5 351.853983
-6.890601 1.566768 0.726103 12.000000 1 351.853988
-2.413572 0.551001 2.285345 18.000000 14 351.853996
-4.292949 0.980846 2.672280 91.000000 10 351.854001
-3.744217 0.855475 1.862928 3.000000 8 351.854003
-5.773506 1.320186 2.149269 91.000000 6 351.854006
-5.515337 1.262165 1.455331 4.000000 4 351.854008
-6.362126 1.457119 1.001378 20.000000 2 351.854011
-6.900043 1.581586 0.379235 12.000000 0 351.854014
-0.039011 0.016596 3.304148 98.000000 31 351.854024
-0.491369 0.126307 3.225760 97.000000 28 351.854027
-0.680680 0.175872 3.403444 36.000000 27 351.854029
-1.000982 0.237805 3.334270 66.000000 25 351.854032
-1.325659 0.307250 3.265409 45.000000 23 351.854034
-2.535049 0.587111 4.834024 80.000000 21 351.854037
-3.112201 0.720784 4.764503 88.000000 19 351.854039
-2.325548 0.538595 2.933609 30.000000 17 351.854042
-0.190876 0.058776 3.283908 98.000000 30 351.854050
-0.341496 0.096328 3.261059 96.000000 29 351.854052
-0.837715 0.205259 3.355894 81.000000 26 351.854055
-1.163757 0.271862 3.304122 54.000000 24 351.854057
-1.496785 0.349120 3.240353 38.000000 22 351.854060
-2.828612 0.659266 4.820925 95.000000 20 351.854062
-3.407529 0.794200 4.706130 92.000000 18 351.854065
-2.345321 0.546629 2.688936 34.000000 16 351.854068
-2.377539 0.547579 2.477361 34.000000 15 351.854025
-3.151788 0.726484 2.205199 7.000000 11 351.854030
-5.448645 1.256914 2.347528 82.000000 7 351.854036
-5.062655 1.168803 1.616201 21.000000 5 351.854038
-6.894794 1.593054 0.726996 5.000000 1 351.854043
-2.411634 0.559422 2.285345 18.000000 14 351.854051
-4.289499 0.995825 2.672280 93.000000 10 351.854056
-3.745629 0.869565 1.865026 3.000000 8 351.854059
-5.773463 1.341400 2.150911 90.000000 6 351.854061
-5.515633 1.282511 1.456503 2.000000 4 351.854064
-6.342531 1.475951 0.999308 12.000000 2 351.854066
-7.089110 1.650989 0.387296 12.000000 0 351.854069
-0.038953 0.016732 3.304148 98.000000 31 351.854080
-0.490925 0.128022 3.225760 97.000000 28 351.854082
-0.680062 0.178247 3.403444 36.000000 27 351.854085
-1.000146 0.241298 3.334270 66.000000 25 351.854087
-1.324578 0.311876 3.265409 48.000000 23 351.854090
-2.532985 0.595956 4.834024 81.000000 21 351.854092
-3.109667 0.731643 4.764503 88.000000 19 351.854095
-2.323654 0.546709 2.933609 30.000000 17 351.854097
-0.190669 0.059442 3.283908 98.000000 30 351.854105
-0.341158 0.097520 3.261059 96.000000 29 351.854108
-0.836993 0.208182 3.355894 83.000000 26 351.854110
-1.162801 0.275922 3.304122 54.000000 24 351.854113
-1.495557 0.354343 3.240353 38.000000 22 351.854115
-2.826293 0.669136 4.820925 95.000000 20 351.854118
-3.407669 0.806784 4.710120 90.000000 18 351.854121
-2.343399 0.554812 2.688936 34.000000 16 351.854123
-2.372140 0.555062 2.473857 34.000000 15 351.854081
-3.186968 0.745731 2.720590 12.000000 13 351.854083
-3.149233 0.737481 2.205199 7.000000 11 351.854086
-5.439711 1.274868 2.345655 82.000000 7 351.854091
-5.058545 1.186468 1.616201 17.000000 5 351.854094
-6.860102 1.610283 0.724318 90.000000 1 351.854099
-2.409666 0.567837 2.285345 17.000000 14 351.854106
-3.169601 0.746921 2.454684 14.000000 12 351.854109
-4.290194 1.011782 2.674812 93.000000 10 351.854112
-3.760241 0.886802 1.873418 39.000000 8 351.854114
-5.768745 1.361545 2.150911 90.000000 6 351.854117
-5.156338 1.217954 1.368579 2.000000 4 351.854119
-6.322883 1.494664 0.997239 9.000000 2 351.854122
