# .PCD v.7 - Point Cloud Data file format
VERSION .7
FIELDS x y z intensity ring timestamp
SIZE 4 4 4 4 2 8
TYPE F F F F U D
COUNT 1 1 1 1 1 1
WIDTH 907
HEIGHT 1
VIEWPOINT 0 0 0 1 0 0 0
POINTS 907
DATA ascii
-0.590510 -1.084889 1.417329 39.000000 16 352.133006
-0.582197 -1.076319 1.282311 39.000000 15 352.132964
-0.575609 -1.064134 1.057568 45.000000 13 352.132967
-0.570197 -1.053688 0.870105 44.000000 11 352.132969
-0.565754 -1.045473 0.708547 42.000000 9 352.132972
-0.558783 -1.032161 0.562528 39.000000 7 352.132974
-0.546193 -1.008484 0.426840 29.000000 5 352.132977
-0.538057 -0.993463 0.305975 8.000000 3 352.132979
-0.538445 -0.993764 0.194221 10.000000 1 352.132982
-0.580787 -1.069692 1.164871 42.000000 14 352.132990
-0.572127 -1.053737 0.956616 48.000000 12 352.132992
-0.568808 -1.047189 0.785622 45.000000 10 352.132995
-0.565932 -1.041888 0.635568 42.000000 8 352.132997
-0.559459 -1.029544 0.496728 37.000000 6 352.133000
-0.557235 -1.025024 0.372109 16.000000 4 352.133002
-0.541755 -0.996135 0.250168 12.000000 2 352.133005
-0.546655 -1.004726 0.139816 25.000000 0 352.133008
-0.027620 -0.034254 3.489141 37.000000 31 352.133018
-0.270077 -0.466686 3.428269 93.000000 28 352.133021
-0.355936 -0.613346 3.432815 63.000000 27 352.133023
-0.508998 -0.918096 3.401074 40.000000 25 352.133026
-0.668267 -1.221164 3.339050 14.000000 23 352.133028
-0.638277 -1.166836 2.503645 33.000000 21 352.133031
-0.617483 -1.128819 1.962363 37.000000 19 352.133034
-0.602487 -1.101399 1.579168 38.000000 17 352.133036
-0.113590 -0.176455 3.458614 96.000000 30 352.133044
-0.195430 -0.320180 3.449972 96.000000 29 352.133046
-0.430915 -0.764509 3.413965 58.000000 26 352.133049
-0.589664 -1.073087 3.383899 39.000000 24 352.133052
-0.654817 -1.192624 2.875785 25.000000 22 352.133054
-0.629472 -1.146928 2.210173 36.000000 20 352.133057
-0.607435 -1.106772 1.745922 38.000000 18 352.133059
-0.594293 -1.082821 1.417329 39.000000 16 352.133062
-0.585951 -1.074280 1.282311 39.000000 15 352.133019
-0.579320 -1.062118 1.057568 45.000000 13 352.133022
-0.573871 -1.051692 0.870105 44.000000 11 352.133025
-0.569400 -1.043492 0.708547 44.000000 9 352.133027
-0.562383 -1.030204 0.562528 39.000000 7 352.133030
-0.549710 -1.006572 0.426840 29.000000 5 352.133032
-0.541522 -0.991578 0.305975 8.000000 3 352.133035
-0.541910 -0.991879 0.194221 10.000000 1 352.133037
-0.584517 -1.067658 1.164871 42.000000 14 352.133045
-0.577743 -1.055279 0.959559 48.000000 12 352.133048
-0.572460 -1.045197 0.785622 47.000000 10 352.133050
-0.569565 -1.039906 0.635568 43.000000 8 352.133053
-0.563050 -1.027585 0.496728 37.000000 6 352.133055
-0.563146 -1.027335 0.373282 16.000000 4 352.133058
-0.545229 -0.994238 0.250168 11.000000 2 352.133061
-0.550158 -1.002812 0.139816 25.000000 0 352.133063
-0.027709 -0.034126 3.484141 37.000000 31 352.133074
-0.271704 -0.465740 3.428269 93.000000 28 352.133076
-0.358075 -0.612100 3.432815 58.000000 27 352.133079
-0.512199 -0.916313 3.401074 40.000000 25 352.133081
-0.672526 -1.218824 3.339050 12.000000 23 352.133084
-0.642346 -1.164600 2.503645 33.000000 21 352.133087
-0.621420 -1.126656 1.962363 37.000000 19 352.133089
-0.606328 -1.099290 1.579168 38.000000 17 352.133092
-0.114205 -0.176057 3.458614 97.000000 30 352.133099
-0.196547 -0.319496 3.449972 97.000000 29 352.133102
-0.433581 -0.763000 3.413965 58.000000 26 352.133105
-0.593406 -1.071022 3.383899 40.000000 24 352.133107
-0.658976 -1.190331 2.875785 25.000000 22 352.133110
-0.633472 -1.144724 2.210173 36.000000 20 352.133112
-0.611295 -1.104645 1.745922 38.000000 18 352.133115
-0.599711 -1.083706 1.421004 39.000000 16 352.133117
-0.591416 -1.075353 1.285816 39.000000 15 352.133075
-0.584900 -1.063501 1.060705 45.000000 13 352.133078
-0.577539 -1.049682 0.870105 44.000000 11 352.133080
-0.573039 -1.041498 0.708547 44.000000 9 352.133083
-0.565975 -1.028235 0.562528 39.000000 7 352.133085
-0.553220 -1.004647 0.426840 29.000000 5 352.133088
-0.544980 -0.989682 0.305975 8.000000 3 352.133090
-0.545369 -0.989981 0.194221 13.000000 1 352.133093
-0.588240 -1.065611 1.164871 42.000000 14 352.133101
-0.581423 -1.053256 0.959559 48.000000 12 352.133103
-0.574021 -1.039418 0.783090 47.000000 10 352.133106
-0.573192 -1.037912 0.635568 43.000000 8 352.133108
-0.568917 -1.029747 0.498370 38.000000 6 352.133111
-0.566728 -1.025363 0.373282 16.000000 4 352.133113
-0.548696 -0.992329 0.250168 11.000000 2 352.133116
-0.553655 -1.000885 0.139816 25.000000 0 352.133119
-0.027827 -0.034029 3.484141 52.000000 31 352.133129
-0.273328 -0.464789 3.428269 87.000000 28 352.133132
-0.360209 -0.610846 3.432815 57.000000 27 352.133134
-0.515395 -0.914520 3.401074 40.000000 25 352.133137
-0.676776 -1.216469 3.339050 12.000000 23 352.133139
-0.646407 -1.162351 2.503645 33.000000 21 352.133142
-0.625349 -1.124480 1.962363 37.000000 19 352.133144
-0.610162 -1.097166 1.579168 39.000000 17 352.133147
-0.114819 -0.175657 3.458614 97.000000 30 352.133155
-0.197379 -0.318355 3.445001 96.000000 29 352.133157
-0.436242 -0.761482 3.413965 59.000000 26 352.133160
-0.597141 -1.068944 3.383899 40.000000 24 352.133162
-0.664396 -1.189809 2.880286 25.000000 22 352.133165
-0.637663 -1.142394 2.210173 36.000000 20 352.133167
-0.616809 -1.105028 1.749912 38.000000 18 352.133170
-0.603679 -1.081501 1.421004 39.000000 16 352.133173
-0.595166 -1.073282 1.285816 39.000000 15 352.133130
-0.588609 -1.061453 1.060705 45.000000 13 352.133133
-0.583228 -1.051316 0.872846 44.000000 11 352.133135
-0.578820 -1.043365 0.710865 42.000000 9 352.133138
-0.571811 -1.030306 0.564401 39.000000 7 352.133141
-0.556723 -1.002710 0.426840 29.000000 5 352.133143
-0.548603 -0.987678 0.305975 8.000000 3 352.133146
-0.548994 -0.987976 0.194221 13.000000 1 352.133148
-0.592142 -1.063448 1.164871 42.000000 14 352.133156
-0.585279 -1.051118 0.959559 48.000000 12 352.133159
-0.577826 -1.037308 0.783090 45.000000 10 352.133161
-0.576992 -1.035804 0.635568 42.000000 8 352.133164
-0.572687 -1.027654 0.498370 38.000000 6 352.133166
-0.572850 -1.027524 0.374454 16.000000 4 352.133169
-0.552330 -0.990311 0.250168 12.000000 2 352.133171
-0.559579 -1.003309 0.140018 26.000000 0 352.133174
-0.027952 -0.033927 3.484141 53.000000 31 352.133185
-0.275030 -0.463784 3.428269 87.000000 28 352.133187
-0.362446 -0.609522 3.432815 61.000000 27 352.133190
-0.518005 -0.911327 3.396302 41.000000 25 352.133192
-0.681230 -1.213980 3.339050 12.000000 23 352.133195
-0.650663 -1.159974 2.503645 33.000000 21 352.133197
-0.630843 -1.124635 1.966496 37.000000 19 352.133200
-0.614179 -1.094923 1.579168 39.000000 17 352.133202
-0.115623 -0.175476 3.463606 97.000000 30 352.133210
-0.198544 -0.317629 3.445001 96.000000 29 352.133213
-0.439030 -0.759878 3.413965 59.000000 26 352.133215
-0.601055 -1.066748 3.383899 40.000000 24 352.133218
-0.668545 -1.187483 2.880286 25.000000 22 352.133220
-0.641647 -1.140161 2.210173 35.000000 20 352.133223
-0.620662 -1.102869 1.749912 38.000000 18 352.133226
-0.607450 -1.079387 1.421004 39.000000 16 352.133228
-0.599096 -1.071093 1.285816 39.000000 15 352.133186
-0.592496 -1.059288 1.060705 42.000000 13 352.133188
-0.587077 -1.049171 0.872846 44.000000 11 352.133191
-0.582640 -1.041237 0.710865 44.000000 9 352.133193
-0.575583 -1.028204 0.564401 39.000000 7 352.133196
-0.562739 -1.004848 0.428249 29.000000 5 352.133199
-0.552048 -0.985757 0.305975 8.000000 3 352.133201
-0.552439 -0.986053 0.194221 12.000000 1 352.133204
-0.595851 -1.061375 1.164871 42.000000 14 352.133211
-0.588945 -1.049068 0.959559 48.000000 12 352.133214
-0.581444 -1.035284 0.783090 45.000000 10 352.133217
-0.582826 -1.037741 0.637666 42.000000 8 352.133219
-0.576271 -1.025649 0.498370 37.000000 6 352.133222
-0.576433 -1.025518 0.374454 16.000000 4 352.133224
-0.555783 -0.988377 0.250168 12.000000 2 352.133227
-0.563253 -1.001252 0.140018 25.000000 0 352.133229
-0.028040 -0.033798 3.479141 60.000000 31 352.133240
-0.276647 -0.462821 3.428269 94.000000 28 352.133243
-0.364047 -0.607380 3.427920 58.000000 27 352.133245
-0.521183 -0.909513 3.396302 44.000000 25 352.133248
-0.685464 -1.211595 3.339050 12.000000 23 352.133250
-0.655888 -1.159781 2.508034 33.000000 21 352.133253
-0.634765 -1.122426 1.966496 37.000000 19 352.133255
-0.617997 -1.092772 1.579168 38.000000 17 352.133258
-0.116235 -0.175072 3.463606 97.000000 30 352.133266
-0.199937 -0.317385 3.449972 97.000000 29 352.133268
-0.441679 -0.758341 3.413965 59.000000 26 352.133271
-0.604775 -1.064644 3.383899 40.000000 24 352.133273
-0.673761 -1.187036 2.884787 25.000000 22 352.133276
-0.646910 -1.140183 2.214439 35.000000 20 352.133279
-0.624508 -1.100695 1.749912 38.000000 18 352.133281
-0.611214 -1.077260 1.421004 39.000000 16 352.133284
-0.604583 -1.072102 1.289320 39.000000 15 352.133241
-0.596189 -1.057213 1.060705 44.000000 13 352.133244
-0.590736 -1.047116 0.872846 45.000000 11 352.133246
-0.586271 -1.039197 0.710865 42.000000 9 352.133249
-0.579169 -1.026188 0.564401 39.000000 7 352.133252
-0.566243 -1.002877 0.428249 29.000000 5 352.133254
-0.557900 -0.988101 0.306907 8.000000 3 352.133257
-0.555878 -0.984119 0.194221 12.000000 1 352.133259
-0.599552 -1.059289 1.164871 42.000000 14 352.133267
-0.592603 -1.047006 0.959559 48.000000 12 352.133270
-0.585054 -1.033248 0.783090 45.000000 10 352.133272
-0.586445 -1.035700 0.637666 42.000000 8 352.133275
-0.579848 -1.023631 0.498370 37.000000 6 352.133277
-0.580009 -1.023500 0.374454 16.000000 4 352.133280
-0.559230 -0.986431 0.250168 12.000000 2 352.133282
-0.566744 -0.999280 0.140018 26.000000 0 352.133285
-0.028157 -0.033700 3.479141 60.000000 31 352.133296
-0.278261 -0.461852 3.428269 93.000000 28 352.133298
-0.366165 -0.606105 3.427920 58.000000 27 352.133301
-0.524355 -0.907688 3.396302 41.000000 25 352.133303
-0.689689 -1.209195 3.339050 13.000000 23 352.133306
-0.659932 -1.157485 2.508034 33.000000 21 352.133308
-0.638679 -1.120203 1.966496 37.000000 19 352.133311
-0.621808 -1.090608 1.579168 38.000000 17 352.133313
-0.116845 -0.174665 3.463606 98.000000 30 352.133321
-0.201044 -0.316685 3.449972 97.000000 29 352.133324
-0.444324 -0.756795 3.413965 59.000000 26 352.133326
-0.608488 -1.062526 3.383899 40.000000 24 352.133329
-0.678982 -1.186567 2.889288 25.000000 22 352.133331
-0.650886 -1.137918 2.214439 36.000000 20 352.133334
-0.629843 -1.101125 1.753901 38.000000 18 352.133337
-0.614971 -1.075120 1.421004 39.000000 16 352.133339
-0.608321 -1.069985 1.289320 39.000000 15 352.133297
-0.599876 -1.055126 1.060705 45.000000 13 352.133299
-0.594388 -1.045047 0.872846 44.000000 11 352.133302
-0.589895 -1.037144 0.710865 42.000000 9 352.133305
-0.582747 -1.024160 0.564401 39.000000 7 352.133307
-0.569740 -1.000895 0.428249 29.000000 5 352.133310
-0.561346 -0.986148 0.306907 8.000000 3 352.133312
-0.561774 -0.986500 0.194667 12.000000 1 352.133315
-0.603246 -1.057189 1.164871 42.000000 14 352.133323
-0.598257 -1.048442 0.962502 48.000000 12 352.133325
-0.590795 -1.034944 0.785622 45.000000 10 352.133328
-0.590057 -1.033647 0.637666 43.000000 8 352.133330
-0.583417 -1.021601 0.498370 37.000000 6 352.133333
-0.583578 -1.021469 0.374454 16.000000 4 352.133335
-0.562670 -0.984473 0.250168 12.000000 2 352.133338
-0.570229 -0.997295 0.140018 26.000000 0 352.133340
-0.028306 -0.033632 3.484141 71.000000 31 352.133351
-0.279871 -0.460878 3.428269 93.000000 28 352.133354
-0.368809 -0.605693 3.432815 62.000000 27 352.133356
-0.527520 -0.905852 3.396302 40.000000 25 352.133359
-0.693906 -1.206780 3.339050 13.000000 23 352.133361
-0.663968 -1.155174 2.508034 33.000000 21 352.133364
-0.643988 -1.120407 1.970629 37.000000 19 352.133366
-0.627209 -1.091210 1.583005 38.000000 17 352.133369
-0.117454 -0.174256 3.463606 98.000000 30 352.133377
-0.202148 -0.315982 3.449972 96.000000 29 352.133379
-0.446963 -0.755239 3.413965 56.000000 26 352.133382
-0.611330 -1.058901 3.379206 39.000000 24 352.133384
-0.683120 -1.184189 2.889288 25.000000 22 352.133387
-0.656157 -1.137898 2.218705 36.000000 20 352.133390
-0.633683 -1.098920 1.753901 38.000000 18 352.133392
-0.618720 -1.072967 1.421004 39.000000 16 352.133395
-0.612053 -1.067855 1.289320 39.000000 15 352.133352
-0.603556 -1.053025 1.060705 45.000000 13 352.133355
-0.600112 -1.046593 0.875588 44.000000 11 352.133357
-0.593512 -1.035079 0.710865 42.000000 9 352.133360
-0.586319 -1.022120 0.564401 39.000000 7 352.133363
-0.573231 -0.998900 0.428249 29.000000 5 352.133365
-0.564785 -0.984183 0.306907 8.000000 3 352.133368
-0.565214 -0.984533 0.194667 13.000000 1 352.133370
-0.608795 -1.058314 1.168196 42.000000 14 352.133378
-0.601913 -1.046347 0.962502 48.000000 12 352.133381
-0.594404 -1.032875 0.785622 45.000000 10 352.133383
-0.593661 -1.031581 0.637666 43.000000 8 352.133386
-0.586980 -1.019558 0.498370 37.000000 6 352.133388
-0.587140 -1.019426 0.374454 16.000000 4 352.133391
-0.568575 -0.986794 0.250858 12.000000 2 352.133393
-0.573707 -0.995299 0.140018 26.000000 0 352.133396
-0.028423 -0.033533 3.484141 71.000000 31 352.133407
-0.281478 -0.459899 3.428269 93.000000 28 352.133409
-0.370921 -0.604402 3.432815 62.000000 27 352.133412
-0.530679 -0.904005 3.396302 41.000000 25 352.133414
-0.698114 -1.204350 3.339050 13.000000 23 352.133417
-0.669198 -1.154922 2.512422 33.000000 21 352.133419
-0.647895 -1.118152 1.970629 37.000000 19 352.133422
-0.631014 -1.089015 1.583005 38.000000 17 352.133425
-0.118061 -0.173845 3.463606 98.000000 30 352.133432
-0.203250 -0.315274 3.449972 97.000000 29 352.133435
-0.449596 -0.753674 3.413965 58.000000 26 352.133437
-0.615023 -1.056761 3.379206 39.000000 24 352.133440
-0.688344 -1.183680 2.893789 25.000000 22 352.133443
-0.661435 -1.137856 2.222971 36.000000 20 352.133445
-0.637515 -1.096701 1.753901 38.000000 18 352.133448
-0.624165 -1.073731 1.424680 39.000000 16 352.133450
-0.615776 -1.065712 1.289320 39.000000 15 352.133408
-0.607228 -1.050912 1.060705 45.000000 13 352.133410
-0.603761 -1.044492 0.875588 44.000000 11 352.133413
-0.597121 -1.033000 0.710865 44.000000 9 352.133416
-0.589883 -1.020067 0.564401 39.000000 7 352.133418
-0.576714 -0.996893 0.428249 29.000000 5 352.133421
-0.568217 -0.982205 0.306907 8.000000 3 352.133423
-0.568648 -0.982554 0.194667 12.000000 1 352.133426
-0.612485 -1.056183 1.168196 42.000000 14 352.133434
-0.605562 -1.044240 0.962502 48.000000 12 352.133436
-0.598005 -1.030794 0.785622 44.000000 10 352.133439
-0.597259 -1.029502 0.637666 42.000000 8 352.133441
-0.590535 -1.017503 0.498370 37.000000 6 352.133444
-0.590695 -1.017370 0.374454 16.000000 4 352.133446
-0.572016 -0.984803 0.250858 11.000000 2 352.133449
-0.577178 -0.993290 0.140018 26.000000 0 352.133451
-0.028540 -0.033434 3.484141 73.000000 31 352.133462
-0.283082 -0.458913 3.428269 93.000000 28 352.133465
-0.373028 -0.603103 3.432815 62.000000 27 352.133467
-0.533831 -0.902147 3.396302 41.000000 25 352.133470
-0.702314 -1.201906 3.339050 12.000000 23 352.133472
-0.673225 -1.152579 2.512422 32.000000 21 352.133475
-0.651794 -1.115884 1.970629 37.000000 19 352.133477
-0.634811 -1.086805 1.583005 38.000000 17 352.133480
-0.118668 -0.173432 3.463606 97.000000 30 352.133488
-0.204057 -0.314116 3.445001 97.000000 29 352.133490
-0.452225 -0.752100 3.413965 59.000000 26 352.133493
-0.618708 -1.054608 3.379206 39.000000 24 352.133495
-0.692472 -1.181270 2.893789 24.000000 22 352.133498
-0.665403 -1.135540 2.222971 36.000000 20 352.133501
-0.642863 -1.097069 1.757891 38.000000 18 352.133503
-0.627909 -1.071546 1.424680 39.000000 16 352.133506
-0.619493 -1.063556 1.289320 39.000000 15 352.133463
-0.610892 -1.048786 1.060705 45.000000 13 352.133466
-0.607404 -1.042378 0.875588 44.000000 11 352.133469
-0.600724 -1.030910 0.710865 42.000000 9 352.133471
-0.595775 -1.022007 0.566274 39.000000 7 352.133474
-0.580190 -0.994874 0.428249 29.000000 5 352.133476
-0.571642 -0.980216 0.306907 9.000000 3 352.133479
-0.572074 -0.980563 0.194667 13.000000 1 352.133481
-0.618053 -1.057262 1.171521 44.000000 14 352.133489
-0.609204 -1.042120 0.962502 48.000000 12 352.133492
-0.603776 -1.032422 0.788155 44.000000 10 352.133494
-0.600849 -1.027411 0.637666 42.000000 8 352.133497
-0.596468 -1.019512 0.500013 37.000000 6 352.133499
-0.594243 -1.015302 0.374454 16.000000 4 352.133502
-0.575450 -0.982800 0.250858 11.000000 2 352.133504
-0.583166 -0.995580 0.140219 25.000000 0 352.133507
-0.028656 -0.033334 3.484141 73.000000 31 352.133518
-0.284682 -0.457922 3.428269 92.000000 28 352.133520
-0.375131 -0.601798 3.432815 63.000000 27 352.133523
-0.536977 -0.900278 3.396302 41.000000 25 352.133525
-0.707496 -1.201131 3.343652 12.000000 23 352.133528
-0.677244 -1.150222 2.512422 32.000000 21 352.133530
-0.657113 -1.116027 1.974762 37.000000 19 352.133533
-0.640228 -1.087345 1.586842 38.000000 17 352.133536
-0.119272 -0.173016 3.463606 97.000000 30 352.133543
-0.205153 -0.313401 3.445001 97.000000 29 352.133546
-0.454847 -0.750517 3.413965 59.000000 26 352.133548
-0.622385 -1.052441 3.379206 39.000000 24 352.133551
-0.697699 -1.180721 2.898290 24.000000 22 352.133554
-0.670690 -1.135456 2.227237 36.000000 20 352.133556
-0.646688 -1.094819 1.757891 38.000000 18 352.133559
-0.631646 -1.069348 1.424680 39.000000 16 352.133561
-0.623201 -1.061387 1.289320 39.000000 15 352.133519
-0.614550 -1.046647 1.060705 45.000000 13 352.133521
-0.611039 -1.040252 0.875588 44.000000 11 352.133524
-0.604319 -1.028807 0.710865 42.000000 9 352.133527
-0.599339 -1.019921 0.566274 39.000000 7 352.133529
-0.583659 -0.992842 0.428249 29.000000 5 352.133532
-0.575060 -0.978214 0.306907 9.000000 3 352.133534
-0.575493 -0.978560 0.194667 13.000000 1 352.133537
-0.621739 -1.055098 1.171521 42.000000 14 352.133545
-0.612838 -1.039987 0.962502 48.000000 12 352.133547
-0.607377 -1.030308 0.788155 44.000000 10 352.133550
-0.604431 -1.025307 0.637666 43.000000 8 352.133552
-0.600023 -1.017424 0.500013 38.000000 6 352.133555
-0.597783 -1.013221 0.374454 17.000000 4 352.133557
-0.578877 -0.980786 0.250858 12.000000 2 352.133560
-0.586638 -0.993538 0.140219 25.000000 0 352.133563
-0.028773 -0.033234 3.484141 80.000000 31 352.133573
-0.286279 -0.456926 3.428269 93.000000 28 352.133576
-0.376687 -0.599623 3.427920 65.000000 27 352.133578
-0.540116 -0.898399 3.396302 41.000000 25 352.133581
-0.711685 -1.198654 3.343652 13.000000 23 352.133583
-0.682478 -1.149911 2.516811 32.000000 21 352.133586
-0.661004 -1.113726 1.974762 37.000000 19 352.133589
-0.644019 -1.085104 1.586842 38.000000 17 352.133591
-0.119875 -0.172599 3.463606 97.000000 30 352.133599
-0.206245 -0.312683 3.445001 97.000000 29 352.133601
-0.457464 -0.748925 3.413965 59.000000 26 352.133604
-0.626055 -1.050262 3.379206 39.000000 24 352.133607
-0.702931 -1.180149 2.902790 24.000000 22 352.133609
-0.674649 -1.133108 2.227237 36.000000 20 352.133612
-0.650506 -1.092555 1.757891 39.000000 18 352.133614
-0.635375 -1.067136 1.424680 39.000000 16 352.133617
-0.628719 -1.062274 1.292825 39.000000 15 352.133574
-0.620182 -1.047846 1.063843 45.000000 13 352.133577
-0.614666 -1.038113 0.875588 44.000000 11 352.133580
-0.607906 -1.026691 0.710865 42.000000 9 352.133582
-0.602895 -1.017823 0.566274 39.000000 7 352.133585
-0.587122 -0.990799 0.428249 29.000000 5 352.133587
-0.578471 -0.976201 0.306907 9.000000 3 352.133590
-0.578906 -0.976545 0.194667 12.000000 1 352.133592
-0.625419 -1.052921 1.171521 40.000000 14 352.133600
-0.616464 -1.037841 0.962502 48.000000 12 352.133603
-0.610969 -1.028182 0.788155 42.000000 10 352.133605
-0.608007 -1.023191 0.637666 43.000000 8 352.133608
-0.603571 -1.015323 0.500013 38.000000 6 352.133610
-0.601316 -1.011129 0.374454 16.000000 4 352.133613
-0.582298 -0.978759 0.250858 12.000000 2 352.133615
-0.590103 -0.991485 0.140219 25.000000 0 352.133618
-0.028888 -0.033133 3.484141 80.000000 31 352.133629
-0.287872 -0.455924 3.428269 94.000000 28 352.133631
-0.378778 -0.598304 3.427920 58.000000 27 352.133634
-0.543249 -0.896508 3.396302 43.000000 25 352.133636
-0.716868 -1.197839 3.348254 13.000000 23 352.133639
-0.686488 -1.147522 2.516811 32.000000 21 352.133641
-0.664888 -1.111412 1.974762 37.000000 19 352.133644
-0.647803 -1.082849 1.586842 38.000000 17 352.133647
-0.120477 -0.172180 3.463606 98.000000 30 352.133654
-0.207336 -0.311962 3.445001 97.000000 29 352.133657
-0.460076 -0.747323 3.413965 58.000000 26 352.133659
-0.629717 -1.048071 3.379206 39.000000 24 352.133662
-0.708373 -1.179432 2.907291 24.000000 22 352.133665
-0.678798 -1.130627 2.227237 36.000000 20 352.133667
-0.656058 -1.092747 1.761880 39.000000 18 352.133670
-0.639282 -1.064801 1.424680 39.000000 16 352.133672
-0.632423 -1.060073 1.292825 39.000000 15 352.133630
-0.623836 -1.045675 1.063843 45.000000 13 352.133633
-0.618286 -1.035961 0.875588 44.000000 11 352.133635
-0.611486 -1.024563 0.710865 42.000000 9 352.133638
-0.606444 -1.015712 0.566274 39.000000 7 352.133640
-0.590577 -0.988744 0.428249 29.000000 5 352.133643
-0.582045 -0.974074 0.306907 8.000000 3 352.133645
-0.582481 -0.974417 0.194667 13.000000 1 352.133648
-0.629274 -1.050622 1.171521 42.000000 14 352.133656
-0.622341 -1.039042 0.965446 48.000000 12 352.133658
-0.614734 -1.025936 0.788155 42.000000 10 352.133661
-0.611753 -1.020956 0.637666 42.000000 8 352.133663
-0.607288 -1.013104 0.500013 37.000000 6 352.133666
-0.605018 -1.008918 0.374454 16.000000 4 352.133668
-0.585881 -0.976618 0.250858 12.000000 2 352.133671
-0.593560 -0.989419 0.140219 25.000000 0 352.133674
-0.029010 -0.033027 3.484141 83.000000 31 352.133684
-0.289541 -0.454866 3.428269 94.000000 28 352.133687
-0.380969 -0.596912 3.427920 58.000000 27 352.133689
-0.546531 -0.894511 3.396302 43.000000 25 352.133692
-0.722263 -1.196876 3.352857 13.000000 23 352.133694
-0.691926 -1.147050 2.521199 32.000000 21 352.133697
-0.670411 -1.111377 1.978895 37.000000 19 352.133700
-0.651768 -1.080468 1.586842 38.000000 17 352.133702
-0.121077 -0.171758 3.463606 98.000000 30 352.133710
-0.208423 -0.311236 3.445001 97.000000 29 352.133712
-0.462681 -0.745713 3.413965 58.000000 26 352.133715
-0.633372 -1.045866 3.379206 39.000000 24 352.133718
-0.712485 -1.176952 2.907291 24.000000 22 352.133720
-0.682740 -1.128251 2.227237 36.000000 20 352.133723
-0.659868 -1.090450 1.761880 38.000000 18 352.133725
-0.642809 -1.062675 1.424680 39.000000 16 352.133728
-0.638143 -1.060804 1.296329 39.000000 15 352.133685
-0.627664 -1.043381 1.063843 45.000000 13 352.133688
-0.622079 -1.033688 0.875588 44.000000 11 352.133691
-0.615237 -1.022315 0.710865 42.000000 9 352.133693
-0.609986 -1.013589 0.566274 39.000000 7 352.133696
-0.594024 -0.986676 0.428249 29.000000 5 352.133698
-0.585442 -0.972037 0.306907 9.000000 3 352.133701
-0.585879 -0.972378 0.194667 13.000000 1 352.133703
-0.632937 -1.048419 1.171521 42.000000 14 352.133711
-0.625964 -1.036864 0.965446 48.000000 12 352.133714
-0.618132 -1.023891 0.788155 40.000000 10 352.133716
-0.617481 -1.022807 0.639764 42.000000 8 352.133719
-0.610644 -1.011084 0.500013 37.000000 6 352.133721
-0.608361 -1.006906 0.374454 17.000000 4 352.133724
-0.589116 -0.974670 0.250858 12.000000 2 352.133727
-0.597010 -0.987341 0.140219 25.000000 0 352.133729
-0.029119 -0.032931 3.484141 83.000000 31 352.133740
-0.291048 -0.453903 3.428269 92.000000 28 352.133742
-0.382946 -0.595645 3.427920 62.000000 27 352.133745
-0.549494 -0.892693 3.396302 40.000000 25 352.133747
-0.726228 -1.194474 3.352857 13.000000 23 352.133750
-0.695726 -1.144749 2.521199 32.000000 21 352.133753
-0.674092 -1.109148 1.978895 37.000000 19 352.133755
-0.655347 -1.078300 1.586842 38.000000 17 352.133758
-0.121676 -0.171334 3.463606 98.000000 30 352.133765
-0.209508 -0.310507 3.445001 97.000000 29 352.133768
-0.465282 -0.744093 3.413965 60.000000 26 352.133771
-0.637019 -1.043649 3.379206 39.000000 24 352.133773
-0.717519 -1.176442 2.911792 24.000000 22 352.133776
-0.686478 -1.125981 2.227237 36.000000 20 352.133778
-0.663480 -1.088256 1.761880 38.000000 18 352.133781
-0.648280 -1.063319 1.428355 39.000000 16 352.133783
-0.641657 -1.058682 1.296329 39.000000 15 352.133741
-0.631121 -1.041294 1.063843 45.000000 13 352.133744
-0.625503 -1.031619 0.875588 44.000000 11 352.133746
-0.618624 -1.020269 0.710865 42.000000 9 352.133749
-0.613521 -1.011454 0.566274 39.000000 7 352.133751
-0.599954 -0.988698 0.429659 29.000000 5 352.133754
-0.591210 -0.974289 0.307840 9.000000 3 352.133756
-0.589100 -0.970430 0.194667 12.000000 1 352.133759
-0.636410 -1.046314 1.171521 40.000000 14 352.133767
-0.629399 -1.034782 0.965446 48.000000 12 352.133769
-0.621703 -1.021728 0.788155 40.000000 10 352.133772
-0.621047 -1.020645 0.639764 42.000000 8 352.133774
-0.614170 -1.008947 0.500013 37.000000 6 352.133777
-0.611872 -1.004776 0.374454 17.000000 4 352.133779
-0.592515 -0.972608 0.250858 11.000000 2 352.133782
-0.600453 -0.985251 0.140219 26.000000 0 352.133785
-0.029240 -0.032824 3.484141 84.000000 31 352.133795
-0.292710 -0.452833 3.428269 92.000000 28 352.133798
-0.385126 -0.594238 3.427920 62.000000 27 352.133800
-0.552763 -0.890673 3.396302 40.000000 25 352.133803
-0.731622 -1.193470 3.357460 13.000000 23 352.133805
-0.701169 -1.144234 2.525588 32.000000 21 352.133808
-0.679623 -1.109069 1.983027 38.000000 19 352.133810
-0.659295 -1.075891 1.586842 38.000000 17 352.133813
-0.122303 -0.170887 3.463606 98.000000 30 352.133821
-0.210645 -0.309737 3.445001 97.000000 29 352.133823
-0.468006 -0.742383 3.413965 61.000000 26 352.133826
-0.640840 -1.041307 3.379206 39.000000 24 352.133828
-0.721826 -1.173804 2.911792 24.000000 22 352.133831
-0.691966 -1.125679 2.231503 36.000000 20 352.133833
-0.667465 -1.085817 1.761880 38.000000 18 352.133836
-0.652173 -1.060936 1.428355 39.000000 16 352.133839
-0.645533 -1.056323 1.296329 39.000000 15 352.133796
-0.634933 -1.038974 1.063843 45.000000 13 352.133799
-0.631461 -1.032887 0.878329 44.000000 11 352.133801
-0.624670 -1.021774 0.713183 42.000000 9 352.133804
-0.617224 -1.009198 0.566274 39.000000 7 352.133807
-0.603573 -0.986492 0.429659 29.000000 5 352.133809
-0.594777 -0.972116 0.307840 9.000000 3 352.133812
-0.592653 -0.968264 0.194667 12.000000 1 352.133814
-0.640241 -1.043975 1.171521 42.000000 14 352.133822
-0.633187 -1.032468 0.965446 48.000000 12 352.133825
-0.625443 -1.019442 0.788155 40.000000 10 352.133827
-0.624784 -1.018362 0.639764 45.000000 8 352.133830
-0.617864 -1.006689 0.500013 38.000000 6 352.133832
-0.615550 -1.002527 0.374454 17.000000 4 352.133835
-0.598668 -0.974649 0.251548 11.000000 2 352.133837
-0.604060 -0.983043 0.140219 26.000000 0 352.133840
-0.029354 -0.032721 3.484141 84.000000 31 352.133851
-0.294289 -0.451809 3.428269 93.000000 28 352.133853
-0.387198 -0.592890 3.427920 62.000000 27 352.133856
-0.555868 -0.888738 3.396302 41.000000 25 352.133858
-0.735783 -1.190909 3.357460 13.000000 23 352.133861
-0.705159 -1.141779 2.525588 32.000000 21 352.133863
-0.683491 -1.106690 1.983027 38.000000 19 352.133866
-0.664731 -1.076311 1.590678 38.000000 17 352.133868
-0.122899 -0.170459 3.463606 98.000000 30 352.133876
-0.211725 -0.308999 3.445001 97.000000 29 352.133879
-0.470594 -0.740745 3.413965 60.000000 26 352.133881
-0.644471 -1.039064 3.379206 39.000000 24 352.133884
-0.727066 -1.173128 2.916293 24.000000 22 352.133886
-0.695891 -1.123257 2.231503 36.000000 20 352.133889
-0.672838 -1.086042 1.765870 38.000000 18 352.133892
-0.657657 -1.061535 1.432030 39.000000 16 352.133894
-0.651086 -1.057100 1.299834 39.000000 15 352.133852
-0.640598 -1.040066 1.066981 45.000000 13 352.133854
-0.635063 -1.030676 0.878329 44.000000 11 352.133857
-0.628233 -1.019588 0.713183 42.000000 9 352.133859
-0.620743 -1.007037 0.566274 39.000000 7 352.133862
-0.607013 -0.984379 0.429659 29.000000 5 352.133865
-0.598167 -0.970034 0.307840 9.000000 3 352.133867
-0.596029 -0.966189 0.194667 11.000000 1 352.133870
-0.645845 -1.044910 1.174846 42.000000 14 352.133877
-0.636787 -1.030252 0.965446 48.000000 12 352.133880
-0.628998 -1.017253 0.788155 40.000000 10 352.133883
-0.630722 -1.020035 0.641862 45.000000 8 352.133885
-0.621374 -1.004526 0.500013 38.000000 6 352.133888
-0.619046 -1.000372 0.374454 17.000000 4 352.133890
-0.602066 -0.972554 0.251548 11.000000 2 352.133893
-0.607488 -0.980929 0.140219 25.000000 0 352.133895
-0.029468 -0.032619 3.484141 74.000000 31 352.133906
-0.295864 -0.450779 3.428269 93.000000 28 352.133909
-0.389266 -0.591534 3.427920 62.000000 27 352.133911
-0.558967 -0.886793 3.396302 41.000000 25 352.133914
-0.740969 -1.189992 3.362062 13.000000 23 352.133916
-0.710406 -1.141345 2.529977 32.000000 21 352.133919
-0.687350 -1.104297 1.983027 37.000000 19 352.133921
-0.668484 -1.073984 1.590678 38.000000 17 352.133924
-0.123493 -0.170029 3.463606 98.000000 30 352.133932
-0.212802 -0.308258 3.445001 97.000000 29 352.133934
-0.473177 -0.739098 3.413965 58.000000 26 352.133937
-0.648094 -1.036808 3.379206 39.000000 24 352.133939
-0.731156 -1.170583 2.916293 24.000000 22 352.133942
-0.701189 -1.123033 2.235769 36.000000 20 352.133945
-0.676625 -1.083687 1.765870 38.000000 18 352.133947
-0.661359 -1.059233 1.432030 39.000000 16 352.133950
-0.654772 -1.054821 1.299834 39.000000 15 352.133907
-0.644224 -1.037823 1.066981 45.000000 13 352.133910
-0.638657 -1.028453 0.878329 44.000000 11 352.133912
-0.631788 -1.017388 0.713183 42.000000 9 352.133915
-0.624254 -1.004864 0.566274 39.000000 7 352.133918
-0.610446 -0.982255 0.429659 29.000000 5 352.133920
-0.601549 -0.967940 0.307840 9.000000 3 352.133923
-0.599398 -0.964103 0.194667 11.000000 1 352.133925
-0.649488 -1.042649 1.174846 42.000000 14 352.133933
-0.642517 -1.031454 0.968389 48.000000 12 352.133936
-0.632545 -1.015051 0.788155 39.000000 10 352.133938
-0.634278 -1.017828 0.641862 43.000000 8 352.133941
-0.627375 -1.006358 0.501656 38.000000 6 352.133943
-0.622534 -0.998205 0.374454 17.000000 4 352.133946
-0.605457 -0.970446 0.251548 11.000000 2 352.133948
-0.613553 -0.983041 0.140421 25.000000 0 352.133951
-0.029582 -0.032516 3.484141 75.000000 31 352.133962
-0.297436 -0.449743 3.428269 94.000000 28 352.133964
-0.391328 -0.590172 3.427920 63.000000 27 352.133967
-0.562059 -0.884836 3.396302 40.000000 25 352.133969
-0.745118 -1.187398 3.362062 13.000000 23 352.133972
-0.714386 -1.138858 2.529977 32.000000 21 352.133974
-0.691200 -1.101891 1.983027 37.000000 19 352.133977
-0.673932 -1.074360 1.594515 38.000000 17 352.133979
-0.124086 -0.169597 3.463606 98.000000 30 352.133987
-0.214183 -0.307951 3.449972 97.000000 29 352.133990
-0.475754 -0.737441 3.413965 59.000000 26 352.133992
-0.651709 -1.034539 3.379206 39.000000 24 352.133995
-0.736398 -1.169867 2.920794 24.000000 22 352.133997
-0.705105 -1.120579 2.235769 36.000000 20 352.134000
-0.682009 -1.083870 1.769859 38.000000 18 352.134003
-0.666858 -1.059787 1.435705 39.000000 16 352.134005
-0.660342 -1.055552 1.303338 39.000000 15 352.133963
-0.647843 -1.035568 1.066981 45.000000 13 352.133965
-0.642243 -1.026218 0.878329 44.000000 11 352.133968
-0.637686 -1.018932 0.715501 42.000000 9 352.133971
-0.630218 -1.006609 0.568147 39.000000 7 352.133973
-0.616417 -0.984183 0.431068 29.000000 5 352.133976
-0.607532 -0.969997 0.308773 9.000000 3 352.133978
-0.602760 -0.962005 0.194667 13.000000 1 352.133981
-0.653124 -1.040376 1.174846 42.000000 14 352.133989
-0.646113 -1.029205 0.968389 48.000000 12 352.133991
-0.638377 -1.016487 0.790687 39.000000 10 352.133994
-0.637828 -1.015607 0.641862 42.000000 8 352.133996
-0.630884 -1.004162 0.501656 38.000000 6 352.133999
-0.626015 -0.996026 0.374454 17.000000 4 352.134001
-0.608841 -0.968327 0.251548 11.000000 2 352.134004
-0.616981 -0.980893 0.140421 25.000000 0 352.134006
-0.029695 -0.032412 3.484141 86.000000 31 352.134017
-0.299004 -0.448702 3.428269 89.000000 28 352.134020
-0.393386 -0.588802 3.427920 63.000000 27 352.134022
-0.565144 -0.882869 3.396302 40.000000 25 352.134025
-0.749258 -1.184790 3.362062 13.000000 23 352.134027
-0.718357 -1.136357 2.529977 32.000000 21 352.134030
-0.696546 -1.101851 1.987161 37.000000 19 352.134032
-0.677679 -1.072001 1.594515 37.000000 17 352.134035
-0.124677 -0.169163 3.463606 98.000000 30 352.134043
-0.215256 -0.307202 3.449972 97.000000 29 352.134045
-0.478325 -0.735776 3.413965 59.000000 26 352.134048
-0.655316 -1.032258 3.379206 39.000000 24 352.134050
-0.740477 -1.167289 2.920794 23.000000 22 352.134053
-0.710409 -1.120313 2.240035 36.000000 20 352.134056
-0.685788 -1.081483 1.769859 38.000000 18 352.134058
-0.670553 -1.057453 1.435705 40.000000 16 352.134061
-0.664022 -1.053241 1.303338 39.000000 15 352.134018
-0.651454 -1.033301 1.066981 45.000000 13 352.134021
-0.645821 -1.023970 0.878329 44.000000 11 352.134023
-0.641239 -1.016700 0.715501 42.000000 9 352.134026
-0.633728 -1.004403 0.568147 39.000000 7 352.134029
-0.619849 -0.982026 0.431068 29.000000 5 352.134031
-0.610914 -0.967871 0.308773 9.000000 3 352.134034
-0.608773 -0.964106 0.195113 13.000000 1 352.134036
-0.658748 -1.041246 1.178171 40.000000 14 352.134044
-0.649702 -1.026943 0.968389 48.000000 12 352.134047
-0.641922 -1.014253 0.790687 39.000000 10 352.134049
-0.643796 -1.017210 0.643960 43.000000 8 352.134052
-0.634385 -1.001954 0.501656 37.000000 6 352.134054
-0.629488 -0.993835 0.374454 17.000000 4 352.134057
-0.612217 -0.966196 0.251548 12.000000 2 352.134059
-0.623076 -0.982953 0.140622 24.000000 0 352.134062
-0.029808 -0.032308 3.484141 86.000000 31 352.134073
-0.300568 -0.447656 3.428269 89.000000 28 352.134075
-0.395439 -0.587426 3.427920 58.000000 27 352.134078
-0.568223 -0.880891 3.396302 43.000000 25 352.134080
-0.753389 -1.182167 3.362062 13.000000 23 352.134083
-0.723607 -1.135864 2.534365 32.000000 21 352.134085
-0.700388 -1.099413 1.987161 37.000000 19 352.134088
-0.683139 -1.072333 1.598352 37.000000 17 352.134091
-0.125267 -0.168727 3.463606 99.000000 30 352.134098
-0.216327 -0.306449 3.449972 97.000000 29 352.134101
-0.480891 -0.734102 3.413965 59.000000 26 352.134103
-0.658916 -1.029964 3.379206 39.000000 24 352.134106
-0.745720 -1.166532 2.925295 24.000000 22 352.134109
-0.714315 -1.117826 2.240035 36.000000 20 352.134111
-0.689559 -1.079082 1.769859 38.000000 18 352.134114
-0.676066 -1.057962 1.439380 39.000000 16 352.134116
-0.667695 -1.050916 1.303338 39.000000 15 352.134074
-0.657144 -1.034306 1.070119 40.000000 13 352.134076
-0.651634 -1.025238 0.881071 42.000000 11 352.134079
-0.644784 -1.014456 0.715501 42.000000 9 352.134082
-0.637230 -1.002184 0.568147 39.000000 7 352.134084
-0.623273 -0.979856 0.431068 29.000000 5 352.134087
-0.614289 -0.965732 0.308773 9.000000 3 352.134089
-0.612135 -0.961975 0.195113 12.000000 1 352.134092
-0.662378 -1.038940 1.178171 40.000000 14 352.134100
-0.653283 -1.024669 0.968389 46.000000 12 352.134102
-0.645458 -1.012006 0.790687 39.000000 10 352.134105
-0.647343 -1.014956 0.643960 43.000000 8 352.134107
-0.637879 -0.999733 0.501656 37.000000 6 352.134110
-0.632953 -0.991631 0.374454 17.000000 4 352.134112
-0.615586 -0.964053 0.251548 11.000000 2 352.134115
-0.626503 -0.980772 0.140622 24.000000 0 352.134117
-0.029953 -0.032233 3.489141 85.000000 31 352.134128
-0.302129 -0.446604 3.428269 92.000000 28 352.134131
-0.397487 -0.586042 3.427920 55.000000 27 352.134133
-0.571294 -0.878902 3.396302 43.000000 25 352.134136
-0.758567 -1.181174 3.366665 14.000000 23 352.134138
-0.727567 -1.133331 2.534365 32.000000 21 352.134141
-0.704221 -1.096961 1.987161 37.000000 19 352.134143
-0.686878 -1.069941 1.598352 37.000000 17 352.134146
-0.125855 -0.168288 3.463606 99.000000 30 352.134154
-0.217396 -0.305692 3.449972 97.000000 29 352.134156
-0.483450 -0.732419 3.413965 59.000000 26 352.134159
-0.662507 -1.027658 3.379206 39.000000 24 352.134161
-0.750967 -1.165753 2.929795 24.000000 22 352.134164
-0.719624 -1.117519 2.244301 36.000000 20 352.134167
-0.694953 -1.079203 1.773849 38.000000 18 352.134169
-0.679755 -1.055596 1.439380 39.000000 16 352.134172
-0.671359 -1.048579 1.303338 39.000000 15 352.134129
-0.660751 -1.032006 1.070119 40.000000 13 352.134132
-0.655209 -1.022957 0.881071 42.000000 11 352.134135
-0.648321 -1.012199 0.715501 42.000000 9 352.134137
-0.640724 -0.999954 0.568147 39.000000 7 352.134140
-0.626689 -0.977674 0.431068 29.000000 5 352.134142
-0.617656 -0.963582 0.308773 9.000000 3 352.134145
-0.615489 -0.959832 0.195113 12.000000 1 352.134147
-0.666001 -1.036621 1.178171 42.000000 14 352.134155
-0.656856 -1.022382 0.968389 46.000000 12 352.134158
-0.651318 -1.013373 0.793220 39.000000 10 352.134160
-0.650882 -1.012690 0.643960 45.000000 8 352.134163
-0.641365 -0.997501 0.501656 38.000000 6 352.134165
-0.636411 -0.989416 0.374454 17.000000 4 352.134168
-0.621628 -0.966062 0.252238 11.000000 2 352.134170
-0.629923 -0.978579 0.140622 25.000000 0 352.134173
-0.030065 -0.032129 3.489141 85.000000 31 352.134184
-0.303686 -0.445546 3.428269 93.000000 28 352.134186
-0.399530 -0.584651 3.427920 55.000000 27 352.134189
-0.574359 -0.876902 3.396302 40.000000 25 352.134191
-0.762685 -1.178519 3.366665 14.000000 23 352.134194
-0.732820 -1.132796 2.538754 32.000000 21 352.134196
-0.709575 -1.096859 1.991293 37.000000 19 352.134199
-0.690609 -1.067537 1.598352 37.000000 17 352.134202
-0.126442 -0.167848 3.463606 98.000000 30 352.134209
-0.218461 -0.304931 3.449972 97.000000 29 352.134212
-0.486004 -0.730727 3.413965 59.000000 26 352.134214
-0.666090 -1.025339 3.379206 39.000000 24 352.134217
-0.755032 -1.163124 2.929795 23.000000 22 352.134220
-0.723521 -1.115000 2.244301 36.000000 20 352.134222
-0.698716 -1.076770 1.773849 38.000000 18 352.134225
-0.683435 -1.053217 1.439380 39.000000 16 352.134227
-0.675015 -1.046229 1.303338 39.000000 15 352.134185
-0.666460 -1.032964 1.073256 44.000000 13 352.134187
-0.658776 -1.020664 0.881071 42.000000 11 352.134190
-0.651850 -1.009929 0.715501 42.000000 9 352.134193
-0.644211 -0.997711 0.568147 39.000000 7 352.134195
-0.630098 -0.975481 0.431068 30.000000 5 352.134198
-0.623681 -0.965547 0.309705 9.000000 3 352.134200
-0.618836 -0.957678 0.195113 12.000000 1 352.134203
-0.671645 -1.037425 1.181495 42.000000 14 352.134211
-0.660420 -1.020083 0.968389 46.000000 12 352.134213
-0.654851 -1.011094 0.793220 39.000000 10 352.134216
-0.654413 -1.010412 0.643960 45.000000 8 352.134218
-0.644843 -0.995256 0.501656 38.000000 6 352.134221
-0.639860 -0.987188 0.374454 17.000000 4 352.134223
-0.624996 -0.963887 0.252238 11.000000 2 352.134226
-0.633335 -0.976374 0.140622 25.000000 0 352.134229
-0.030177 -0.032023 3.489141 86.000000 31 352.134239
-0.305239 -0.444484 3.428269 93.000000 28 352.134242
-0.401568 -0.583253 3.427920 62.000000 27 352.134244
-0.577416 -0.874892 3.396302 40.000000 25 352.134247
-0.767862 -1.177486 3.371267 15.000000 23 352.134249
-0.736770 -1.130231 2.538754 32.000000 21 352.134252
-0.713399 -1.094375 1.991293 37.000000 19 352.134255
-0.694331 -1.065120 1.598352 37.000000 17 352.134257
-0.127027 -0.167406 3.463606 98.000000 30 352.134265
-0.219525 -0.304167 3.449972 96.000000 29 352.134267
-0.488552 -0.729026 3.413965 60.000000 26 352.134270
-0.669665 -1.023008 3.379206 39.000000 24 352.134273
-0.760482 -1.162171 2.934296 23.000000 22 352.134275
-0.729030 -1.114523 2.248567 35.000000 20 352.134278
-0.704308 -1.076724 1.777838 38.000000 18 352.134280
-0.687291 -1.050705 1.439380 40.000000 16 352.134283
-0.678663 -1.043867 1.303338 39.000000 15 352.134240
-0.670061 -1.030632 1.073256 44.000000 13 352.134243
-0.662335 -1.018358 0.881071 42.000000 11 352.134246
-0.655372 -1.007648 0.715501 42.000000 9 352.134248
-0.650218 -0.999342 0.570020 39.000000 7 352.134251
-0.633499 -0.973275 0.431068 30.000000 5 352.134253
-0.627216 -0.963254 0.309705 9.000000 3 352.134256
-0.622341 -0.955403 0.195113 12.000000 1 352.134258
-0.675443 -1.034956 1.181495 40.000000 14 352.134266
-0.666364 -1.021041 0.971332 46.000000 12 352.134269
-0.658553 -1.008687 0.793220 39.000000 10 352.134271
-0.660593 -1.011807 0.646058 45.000000 8 352.134274
-0.648486 -0.992886 0.501656 38.000000 6 352.134276
-0.646133 -0.988906 0.375626 17.000000 4 352.134279
-0.628525 -0.961590 0.252238 11.000000 2 352.134281
-0.636739 -0.974157 0.140622 25.000000 0 352.134284
-0.030262 -0.031884 3.484141 86.000000 31 352.134295
-0.306866 -0.443362 3.428269 94.000000 28 352.134297
-0.403703 -0.581777 3.427920 66.000000 27 352.134300
-0.580619 -0.872770 3.396302 40.000000 25 352.134302
-0.772172 -1.174664 3.371267 16.000000 23 352.134305
-0.742223 -1.129525 2.543143 32.000000 21 352.134307
-0.718951 -1.094105 1.995426 37.000000 19 352.134310
-0.698230 -1.062568 1.598352 37.000000 17 352.134313
-0.127817 -0.167168 3.468597 98.000000 30 352.134320
-0.220323 -0.302929 3.445001 96.000000 29 352.134323
-0.491221 -0.727230 3.413965 59.000000 26 352.134325
-0.673410 -1.020546 3.379206 39.000000 24 352.134328
-0.765733 -1.161328 2.938797 24.000000 22 352.134331
-0.732916 -1.111971 2.248567 36.000000 20 352.134333
-0.708062 -1.074259 1.777838 38.000000 18 352.134336
-0.692820 -1.051130 1.443055 40.000000 16 352.134338
-0.682485 -1.041372 1.303338 39.000000 15 352.134296
-0.673834 -1.028169 1.073256 44.000000 13 352.134299
-0.668355 -1.019421 0.883812 44.000000 11 352.134301
-0.659061 -1.005239 0.715501 42.000000 9 352.134304
-0.653876 -0.996952 0.570020 39.000000 7 352.134306
-0.637062 -0.970947 0.431068 30.000000 5 352.134309
-0.630575 -0.961059 0.309705 9.000000 3 352.134311
-0.625673 -0.953225 0.195113 12.000000 1 352.134314
-0.679051 -1.032592 1.181495 40.000000 14 352.134322
-0.669924 -1.018708 0.971332 46.000000 12 352.134324
-0.662069 -1.006382 0.793220 40.000000 10 352.134327
-0.664121 -1.009495 0.646058 43.000000 8 352.134329
-0.654544 -0.994561 0.503299 38.000000 6 352.134332
-0.649581 -0.986644 0.375626 17.000000 4 352.134334
-0.631877 -0.959390 0.252238 11.000000 2 352.134337
-0.640306 -0.971817 0.140622 24.000000 0 352.134340
-0.030373 -0.031778 3.484141 87.000000 31 352.134350
-0.308412 -0.442288 3.428269 94.000000 28 352.134353
-0.405732 -0.580364 3.427920 66.000000 27 352.134355
-0.583662 -0.870738 3.396302 40.000000 25 352.134358
-0.777347 -1.173590 3.375870 19.000000 23 352.134360
-0.747484 -1.128925 2.547531 32.000000 21 352.134363
-0.722765 -1.091589 1.995426 37.000000 19 352.134366
-0.703705 -1.062797 1.602189 38.000000 17 352.134368
-0.128400 -0.166721 3.468597 98.000000 30 352.134376
-0.221379 -0.302158 3.445001 97.000000 29 352.134378
-0.493756 -0.725511 3.413965 59.000000 26 352.134381
-0.676968 -1.018190 3.379206 39.000000 24 352.134384
-0.769782 -1.158648 2.938797 23.000000 22 352.134386
-0.738236 -1.111579 2.252833 36.000000 20 352.134389
-0.711808 -1.071781 1.777838 38.000000 18 352.134391
-0.696485 -1.048705 1.443055 40.000000 16 352.134394
-0.686115 -1.038984 1.303338 39.000000 15 352.134351
-0.677419 -1.025810 1.073256 44.000000 13 352.134354
-0.671910 -1.017081 0.883812 44.000000 11 352.134357
-0.662565 -1.002932 0.715501 42.000000 9 352.134359
-0.657352 -0.994664 0.570020 39.000000 7 352.134362
-0.640448 -0.968717 0.431068 30.000000 5 352.134364
-0.633925 -0.958852 0.309705 9.000000 3 352.134367
-0.628996 -0.951035 0.195113 12.000000 1 352.134369
-0.682652 -1.030216 1.181495 40.000000 14 352.134377
-0.673476 -1.016364 0.971332 46.000000 12 352.134380
-0.665578 -1.004065 0.793220 44.000000 10 352.134382
-0.667640 -1.007171 0.646058 43.000000 8 352.134385
-0.658012 -0.992270 0.503299 38.000000 6 352.134387
-0.653021 -0.984371 0.375626 17.000000 4 352.134390
-0.635222 -0.957178 0.252238 11.000000 2 352.134393
-0.643694 -0.969576 0.140622 24.000000 0 352.134395
-0.030484 -0.031672 3.484141 87.000000 31 352.134406
-0.309954 -0.441209 3.428269 94.000000 28 352.134408
-0.407755 -0.578944 3.427920 66.000000 27 352.134411
-0.586698 -0.868695 3.396302 41.000000 25 352.134413
-0.779269 -1.167619 3.366665 19.000000 23 352.134416
-0.751420 -1.126309 2.547531 32.000000 21 352.134419
-0.728133 -1.091400 1.999559 37.000000 19 352.134421
-0.707410 -1.060334 1.602189 38.000000 17 352.134424
-0.128802 -0.166044 3.463606 98.000000 30 352.134431
-0.222432 -0.301383 3.445001 97.000000 29 352.134434
-0.496286 -0.723783 3.413965 58.000000 26 352.134437
-0.680518 -1.015820 3.379206 39.000000 24 352.134439
-0.775033 -1.157763 2.943298 23.000000 22 352.134442
-0.742112 -1.108995 2.252833 35.000000 20 352.134444
-0.717221 -1.071795 1.781828 38.000000 18 352.134447
-0.702027 -1.049085 1.446730 40.000000 16 352.134449
-0.691714 -1.039551 1.306843 39.000000 15 352.134407
-0.680996 -1.023439 1.073256 44.000000 13 352.134410
-0.675456 -1.014730 0.883812 42.000000 11 352.134412
-0.668517 -1.004301 0.717819 42.000000 9 352.134415
-0.660820 -0.992363 0.570020 39.000000 7 352.134417
-0.646485 -0.970468 0.432477 30.000000 5 352.134420
-0.637269 -0.956633 0.309705 9.000000 3 352.134422
-0.635074 -0.952978 0.195560 12.000000 1 352.134425
-0.688317 -1.030932 1.184820 40.000000 14 352.134433
-0.677020 -1.014007 0.971332 46.000000 12 352.134435
-0.669079 -1.001735 0.793220 44.000000 10 352.134438
-0.671152 -1.004834 0.646058 43.000000 8 352.134440
-0.661472 -0.989967 0.503299 38.000000 6 352.134443
-0.656453 -0.982085 0.375626 17.000000 4 352.134445
-0.638560 -0.954955 0.252238 12.000000 2 352.134448
-0.647075 -0.967323 0.140622 24.000000 0 352.134451
-0.030594 -0.031565 3.484141 87.000000 31 352.134462
-0.311492 -0.440124 3.428269 93.000000 28 352.134465
-0.409774 -0.577517 3.427920 66.000000 27 352.134467
-0.589727 -0.866642 3.396302 41.000000 25 352.134470
-0.782250 -1.163271 3.362062 26.000000 23 352.134472
-0.756684 -1.125667 2.551920 31.000000 21 352.134475
-0.731938 -1.088852 1.999559 37.000000 19 352.134477
-0.711107 -1.057859 1.602189 38.000000 17 352.134480
-0.129381 -0.165593 3.463606 98.000000 30 352.134488
-0.223803 -0.301033 3.449972 97.000000 29 352.134490
-0.498809 -0.722047 3.413965 58.000000 26 352.134493
-0.684060 -1.013439 3.379206 40.000000 24 352.134495
-0.779070 -1.155051 2.943298 24.000000 22 352.134498
-0.747437 -1.108561 2.257098 36.000000 20 352.134500
-0.720958 -1.069285 1.781828 38.000000 18 352.134503
-0.705684 -1.046628 1.446730 39.000000 16 352.134506
-0.695338 -1.037131 1.306843 39.000000 15 352.134463
-0.686732 -1.024289 1.076394 44.000000 13 352.134466
-0.678994 -1.012366 0.883812 44.000000 11 352.134468
-0.672019 -1.001962 0.717819 42.000000 9 352.134471
-0.664280 -0.990050 0.570020 39.000000 7 352.134474
-0.649869 -0.968206 0.432477 30.000000 5 352.134476
-0.640604 -0.954403 0.309705 9.000000 3 352.134479
-0.638396 -0.950755 0.195560 12.000000 1 352.134481
-0.691912 -1.028523 1.184820 40.000000 14 352.134489
-0.680555 -1.011637 0.971332 46.000000 12 352.134492
-0.674979 -1.002971 0.795752 45.000000 10 352.134494
-0.674655 -1.002485 0.646058 45.000000 8 352.134497
-0.664923 -0.987652 0.503299 38.000000 6 352.134499
-0.659877 -0.979788 0.375626 18.000000 4 352.134502
-0.641889 -0.952720 0.252238 10.000000 2 352.134504
-0.650447 -0.965059 0.140622 25.000000 0 352.134507
-0.030704 -0.031458 3.484141 87.000000 31 352.134518
-0.312575 -0.438402 3.423330 93.000000 28 352.134520
-0.411787 -0.576083 3.427920 65.000000 27 352.134523
-0.592748 -0.864578 3.396302 43.000000 25 352.134525
-0.784114 -1.157298 3.352857 28.000000 23 352.134528
-0.760608 -1.123019 2.551920 31.000000 21 352.134530
-0.737313 -1.088620 2.003692 37.000000 19 352.134533
-0.716593 -1.058024 1.606026 38.000000 17 352.134535
-0.129958 -0.165141 3.463606 98.000000 30 352.134543
-0.224852 -0.300250 3.449972 97.000000 29 352.134546
-0.501326 -0.720301 3.413965 59.000000 26 352.134548
-0.687593 -1.011045 3.379206 39.000000 24 352.134551
-0.784321 -1.154125 2.947799 23.000000 22 352.134553
-0.752767 -1.108102 2.261364 36.000000 20 352.134556
-0.724686 -1.066761 1.781828 38.000000 18 352.134559
-0.709334 -1.044158 1.446730 39.000000 16 352.134561
-0.698954 -1.034697 1.306843 39.000000 15 352.134519
-0.690303 -1.021886 1.076394 44.000000 13 352.134521
-0.682523 -1.009990 0.883812 42.000000 11 352.134524
-0.675512 -0.999610 0.717819 42.000000 9 352.134526
-0.667732 -0.987726 0.570020 39.000000 7 352.134529
-0.655932 -0.969905 0.433886 29.000000 5 352.134532
-0.646684 -0.956230 0.310638 9.000000 3 352.134534
-0.641711 -0.948521 0.195560 12.000000 1 352.134537
-0.695498 -1.026102 1.184820 40.000000 14 352.134544
-0.686350 -1.012601 0.974275 46.000000 12 352.134547
