# .PCD v.7 - Point Cloud Data file format
VERSION .7
FIELDS x y z intensity ring timestamp
SIZE 4 4 4 4 2 8
TYPE F F F F U D
COUNT 1 1 1 1 1 1
WIDTH 944
HEIGHT 1
VIEWPOINT 0 0 0 1 0 0 0
POINTS 944
DATA ascii
0.828106 0.262728 3.380090 93.000000 26 352.095124
1.167947 0.384478 3.397978 85.000000 24 352.095126
1.548666 0.510393 3.433889 91.000000 22 352.095129
1.965735 0.648216 3.455826 12.000000 20 352.095131
2.343936 0.772925 3.341721 10.000000 18 352.095134
2.119624 0.698955 2.497828 13.000000 16 352.095136
2.149235 0.714963 2.305639 15.000000 15 352.095094
2.215505 0.737006 1.964385 19.000000 13 352.095097
2.156636 0.717005 1.574662 9.000000 11 352.095099
2.099143 0.697888 1.244011 36.000000 9 352.095102
2.046511 0.679993 0.959611 40.000000 7 352.095104
2.062758 0.684992 0.728408 53.000000 5 352.095107
2.018608 0.670331 0.495297 62.000000 3 352.095109
1.984949 0.658769 0.280340 49.000000 1 352.095112
2.190786 0.724966 2.135727 17.000000 14 352.095120
2.189766 0.724625 1.763042 10.000000 12 352.095122
2.126076 0.703138 1.401002 17.000000 10 352.095125
2.086607 0.690082 1.103433 48.000000 8 352.095127
2.018278 0.667094 0.828550 28.000000 6 352.095130
2.040117 0.673917 0.608917 57.000000 4 352.095132
2.003164 0.661322 0.386062 60.000000 2 352.095135
1.963921 0.647987 0.177099 54.000000 0 352.095138
0.042100 0.005990 3.319147 97.000000 31 352.095148
0.502950 0.151300 3.339362 97.000000 28 352.095151
0.665672 0.199373 3.364282 84.000000 27 352.095153
0.996679 0.319917 3.391531 85.000000 25 352.095156
1.349087 0.441232 3.403485 83.000000 23 352.095158
1.749027 0.572362 3.438430 74.000000 21 352.095161
2.204386 0.721370 3.479155 10.000000 19 352.095163
2.405828 0.787286 3.106272 7.000000 17 352.095166
0.196000 0.049018 3.323840 98.000000 30 352.095174
0.350310 0.096522 3.340601 96.000000 29 352.095176
0.829063 0.259692 3.380090 93.000000 26 352.095179
1.169349 0.380194 3.397978 85.000000 24 352.095181
1.550526 0.504713 3.433889 91.000000 22 352.095184
1.970578 0.641814 3.460092 12.000000 20 352.095186
2.352485 0.766196 3.349700 9.000000 18 352.095189
2.131842 0.694331 2.508853 13.000000 16 352.095192
2.158617 0.709308 2.312648 15.000000 15 352.095149
2.214493 0.727665 1.961248 17.000000 13 352.095152
2.155277 0.707791 1.571920 10.000000 11 352.095154
2.097477 0.688807 1.241693 38.000000 9 352.095157
2.044585 0.671042 0.957738 40.000000 7 352.095160
2.060696 0.675931 0.726999 53.000000 5 352.095162
2.011716 0.659865 0.493431 62.000000 3 352.095165
1.982618 0.649938 0.279893 49.000000 1 352.095167
2.200528 0.719251 2.142377 17.000000 14 352.095175
2.184724 0.714083 1.757156 9.000000 12 352.095178
2.120443 0.692663 1.395937 17.000000 10 352.095180
2.080494 0.679611 1.099237 47.000000 8 352.095183
2.016221 0.658226 0.826907 29.000000 6 352.095185
2.037953 0.664927 0.607745 57.000000 4 352.095188
2.000866 0.652441 0.385372 60.000000 2 352.095190
1.956782 0.637688 0.176696 54.000000 0 352.095193
0.042078 0.005841 3.314147 97.000000 31 352.095204
0.503475 0.149543 3.339362 96.000000 28 352.095206
0.666364 0.197048 3.364282 85.000000 27 352.095209
0.997790 0.316436 3.391531 85.000000 25 352.095211
1.350619 0.436520 3.403485 83.000000 23 352.095214
1.751014 0.566253 3.438430 76.000000 21 352.095216
2.206890 0.713671 3.479155 10.000000 19 352.095219
2.439065 0.788748 3.144641 5.000000 17 352.095221
0.196170 0.048334 3.323840 98.000000 30 352.095229
0.350645 0.095299 3.340601 96.000000 29 352.095232
0.829965 0.256796 3.380090 94.000000 26 352.095234
1.170668 0.376110 3.397978 83.000000 24 352.095237
1.552279 0.499298 3.433889 90.000000 22 352.095239
1.972806 0.634932 3.460092 18.000000 20 352.095242
2.363752 0.760749 3.361669 9.000000 18 352.095245
2.140707 0.688963 2.516203 13.000000 16 352.095247
2.167864 0.703972 2.319657 14.000000 15 352.095205
2.213316 0.718728 1.958110 14.000000 13 352.095207
2.149780 0.697682 1.566437 14.000000 11 352.095210
2.095655 0.680114 1.239375 38.000000 9 352.095212
2.038095 0.661040 0.953992 40.000000 7 352.095215
2.058480 0.667255 0.725590 55.000000 5 352.095218
2.009335 0.651325 0.492499 62.000000 3 352.095220
1.980137 0.641478 0.279447 50.000000 1 352.095223
2.206579 0.712714 2.145701 17.000000 14 352.095230
2.183357 0.705210 1.754212 9.000000 12 352.095233
2.114643 0.682609 1.390872 17.000000 10 352.095236
2.078535 0.670951 1.097139 47.000000 8 352.095238
2.014012 0.649734 0.825265 30.000000 6 352.095241
2.035635 0.656318 0.606573 57.000000 4 352.095243
1.998418 0.643934 0.384682 61.000000 2 352.095246
1.954241 0.629323 0.176495 56.000000 0 352.095248
0.042098 0.005694 3.314147 97.000000 31 352.095259
0.503994 0.147785 3.339362 96.000000 28 352.095262
0.667048 0.194721 3.364282 84.000000 27 352.095264
0.998888 0.312952 3.391531 85.000000 25 352.095267
1.352134 0.431803 3.403485 79.000000 23 352.095269
1.752980 0.560138 3.438430 76.000000 21 352.095272
2.209368 0.705963 3.479155 10.000000 19 352.095274
2.417373 0.772423 3.113946 3.000000 17 352.095277
0.196337 0.047649 3.323840 98.000000 30 352.095285
0.350976 0.094074 3.340601 96.000000 29 352.095287
0.830856 0.253897 3.380090 94.000000 26 352.095290
1.171974 0.372022 3.397978 83.000000 24 352.095292
1.554012 0.493876 3.433889 90.000000 22 352.095295
1.975011 0.628042 3.460092 35.000000 20 352.095298
2.375010 0.755234 3.373638 9.000000 18 352.095300
2.152791 0.684568 2.527229 12.000000 16 352.095303
2.173703 0.697489 2.323161 14.000000 15 352.095260
2.212105 0.709809 1.954972 9.000000 13 352.095263
2.148221 0.688897 1.563696 16.000000 11 352.095265
2.093798 0.671441 1.237057 38.000000 9 352.095268
2.035976 0.652507 0.952119 40.000000 7 352.095271
2.056227 0.658602 0.724180 55.000000 5 352.095273
2.006917 0.642808 0.491566 62.000000 3 352.095276
1.972878 0.631526 0.278555 50.000000 1 352.095278
2.216168 0.707278 2.152351 16.000000 14 352.095286
2.178103 0.695127 1.748326 10.000000 12 352.095289
2.112905 0.673913 1.388340 17.000000 10 352.095291
2.072216 0.660933 1.092943 45.000000 8 352.095294
2.011768 0.641266 0.823622 31.000000 6 352.095296
2.033283 0.647733 0.605400 59.000000 4 352.095299
1.995934 0.635452 0.383993 61.000000 2 352.095301
1.951665 0.620982 0.176293 54.000000 0 352.095304
0.042117 0.005547 3.314147 97.000000 31 352.095315
0.504506 0.146025 3.339362 96.000000 28 352.095317
0.667724 0.192391 3.364282 84.000000 27 352.095320
0.999975 0.309463 3.391531 86.000000 25 352.095322
1.353633 0.427080 3.403485 79.000000 23 352.095325
1.754925 0.554015 3.438430 76.000000 21 352.095327
2.214503 0.699093 3.483288 10.000000 19 352.095330
2.407826 0.760119 3.098598 3.000000 17 352.095332
0.196503 0.046963 3.323840 98.000000 30 352.095340
0.351302 0.092849 3.340601 96.000000 29 352.095343
0.831737 0.250996 3.380090 94.000000 26 352.095345
1.173266 0.367928 3.397978 83.000000 24 352.095348
1.555726 0.488449 3.433889 90.000000 22 352.095350
1.977191 0.621144 3.460092 57.000000 20 352.095353
2.386258 0.749649 3.385606 8.000000 18 352.095356
2.164871 0.680098 2.538254 13.000000 16 352.095358
2.182924 0.692053 2.330170 14.000000 15 352.095316
2.207148 0.699730 1.948696 8.000000 13 352.095318
2.142640 0.678868 1.558213 16.000000 11 352.095321
2.087682 0.661453 1.232421 39.000000 9 352.095324
2.033821 0.643997 0.950246 42.000000 7 352.095326
2.049366 0.648526 0.721362 55.000000 5 352.095329
2.004466 0.634317 0.490634 63.000000 3 352.095331
1.970322 0.623134 0.278108 50.000000 1 352.095334
2.218623 0.699537 2.152351 15.000000 14 352.095342
2.176661 0.686304 1.745383 13.000000 12 352.095344
2.111133 0.665238 1.385807 18.000000 10 352.095347
2.070182 0.652331 1.090845 45.000000 8 352.095349
2.004986 0.631403 0.820337 31.000000 6 352.095352
2.030895 0.639172 0.604228 58.000000 4 352.095354
1.993416 0.626995 0.383303 61.000000 2 352.095357
1.949055 0.612668 0.176092 54.000000 0 352.095359
0.042136 0.005400 3.314147 97.000000 31 352.095370
0.505013 0.144263 3.339362 96.000000 28 352.095373
0.668391 0.190059 3.364282 84.000000 27 352.095375
1.001049 0.305970 3.391531 86.000000 25 352.095378
1.355116 0.422353 3.403485 83.000000 23 352.095380
1.756848 0.547886 3.438430 72.000000 21 352.095383
2.216929 0.691359 3.483288 10.000000 19 352.095385
2.401283 0.748847 3.087087 4.000000 17 352.095388
0.196948 0.046341 3.328832 98.000000 30 352.095396
0.351624 0.091622 3.340601 96.000000 29 352.095398
0.832608 0.248091 3.380090 93.000000 26 352.095401
1.174543 0.363831 3.397978 85.000000 24 352.095403
1.557422 0.483015 3.433889 91.000000 22 352.095406
1.979347 0.614238 3.460092 78.000000 20 352.095409
2.400375 0.744888 3.401564 7.000000 18 352.095411
2.176945 0.675551 2.549280 13.000000 16 352.095414
2.195536 0.687627 2.340684 14.000000 15 352.095371
2.202147 0.689694 1.942421 8.000000 13 352.095374
2.141006 0.670135 1.555471 16.000000 11 352.095376
2.085751 0.652838 1.230103 38.000000 9 352.095379
2.027208 0.634126 0.946500 42.000000 7 352.095382
2.047039 0.639937 0.719953 56.000000 5 352.095384
2.001980 0.625850 0.489701 63.000000 3 352.095387
1.967732 0.614767 0.277662 47.000000 1 352.095389
2.224617 0.692899 2.155676 13.000000 14 352.095397
2.171326 0.676298 1.739497 16.000000 12 352.095400
2.109325 0.656583 1.383275 20.000000 10 352.095402
2.068113 0.643752 1.088747 45.000000 8 352.095405
2.002668 0.622998 0.818694 30.000000 6 352.095407
2.028472 0.630636 0.603056 59.000000 4 352.095410
1.990863 0.618563 0.382613 64.000000 2 352.095412
1.946410 0.604379 0.175890 54.000000 0 352.095415
0.042199 0.005255 3.319147 97.000000 31 352.095426
0.505513 0.142499 3.339362 96.000000 28 352.095428
0.669051 0.187725 3.364282 84.000000 27 352.095431
1.002111 0.302474 3.391531 85.000000 25 352.095433
1.356582 0.417620 3.403485 83.000000 23 352.095436
1.758750 0.541750 3.438430 72.000000 21 352.095438
2.219329 0.683616 3.483288 11.000000 19 352.095441
2.397754 0.738573 3.079413 5.000000 17 352.095444
0.197108 0.045654 3.328832 98.000000 30 352.095451
0.351424 0.090262 3.335630 95.000000 29 352.095454
0.833469 0.245183 3.380090 94.000000 26 352.095456
1.175806 0.359728 3.397978 85.000000 24 352.095459
1.559098 0.477576 3.433889 91.000000 22 352.095462
1.981479 0.607325 3.460092 80.000000 20 352.095464
2.417368 0.740920 3.421512 6.000000 18 352.095467
2.189014 0.670928 2.560305 13.000000 16 352.095469
2.204737 0.682067 2.347693 13.000000 15 352.095427
2.200822 0.680853 1.939283 8.000000 13 352.095429
2.139337 0.661423 1.552730 16.000000 11 352.095432
2.079551 0.642936 1.225467 38.000000 9 352.095435
2.024980 0.625677 0.944627 43.000000 7 352.095437
2.040093 0.629957 0.717134 50.000000 5 352.095440
1.999458 0.617409 0.488768 63.000000 3 352.095442
1.965107 0.606426 0.277216 47.000000 1 352.095445
2.223453 0.684031 2.152351 9.000000 14 352.095453
2.169810 0.667526 1.736554 20.000000 12 352.095455
2.107484 0.647949 1.380743 21.000000 10 352.095458
2.061671 0.633862 1.084551 47.000000 8 352.095460
2.000316 0.614616 0.817051 30.000000 6 352.095463
2.021368 0.620698 0.600711 58.000000 4 352.095465
1.988276 0.610157 0.381923 64.000000 2 352.095468
1.943732 0.596116 0.175688 54.000000 0 352.095470
0.042217 0.005107 3.319147 97.000000 31 352.095481
0.506008 0.140734 3.339362 96.000000 28 352.095484
0.669702 0.185388 3.364282 84.000000 27 352.095486
1.003160 0.298974 3.391531 85.000000 25 352.095489
1.356162 0.412314 3.398882 84.000000 23 352.095491
1.760630 0.535608 3.438430 76.000000 21 352.095494
2.224394 0.676684 3.487421 10.000000 19 352.095496
2.394184 0.728332 3.071739 6.000000 17 352.095499
0.197266 0.044965 3.328832 98.000000 30 352.095507
0.351737 0.089035 3.335630 95.000000 29 352.095509
0.834320 0.242272 3.380090 93.000000 26 352.095512
1.177054 0.355622 3.397978 83.000000 24 352.095514
1.558672 0.471500 3.429388 90.000000 22 352.095517
1.983587 0.600405 3.460092 81.000000 20 352.095520
2.431479 0.735970 3.437470 6.000000 18 352.095522
2.204321 0.667211 2.575006 14.000000 16 352.095525
2.217336 0.677493 2.358207 13.000000 15 352.095482
2.195739 0.670891 1.933007 8.000000 13 352.095485
2.137634 0.652730 1.549989 16.000000 11 352.095488
2.077546 0.634379 1.223149 38.000000 9 352.095490
2.022717 0.617252 0.942754 43.000000 7 352.095493
2.037691 0.621432 0.715725 50.000000 5 352.095495
1.996903 0.608993 0.487836 63.000000 3 352.095498
1.962448 0.598111 0.276770 49.000000 1 352.095500
2.225827 0.676266 2.152351 8.000000 14 352.095508
2.164392 0.657598 1.730667 19.000000 12 352.095511
2.109733 0.640589 1.380743 22.000000 10 352.095513
2.059529 0.625343 1.082453 47.000000 8 352.095516
1.993412 0.604887 0.813766 30.000000 6 352.095518
2.018871 0.612228 0.599539 58.000000 4 352.095521
1.985655 0.601777 0.381233 63.000000 2 352.095523
1.941019 0.587880 0.175487 54.000000 0 352.095526
0.042234 0.004960 3.319147 97.000000 31 352.095537
0.506496 0.138967 3.339362 96.000000 28 352.095539
0.670345 0.183050 3.364282 85.000000 27 352.095542
1.004198 0.295471 3.391531 86.000000 25 352.095544
1.357593 0.407577 3.398882 83.000000 23 352.095547
1.762489 0.529459 3.438430 74.000000 21 352.095549
2.226743 0.668916 3.487421 10.000000 19 352.095552
2.387501 0.717204 3.060229 7.000000 17 352.095555
0.197139 0.044215 3.323840 98.000000 30 352.095562
0.352046 0.087806 3.335630 96.000000 29 352.095565
0.835161 0.239358 3.380090 94.000000 26 352.095567
1.176635 0.351018 3.393285 83.000000 24 352.095570
1.560308 0.466056 3.429388 90.000000 22 352.095573
1.983172 0.592731 3.455826 81.000000 20 352.095575
2.434033 0.727478 3.437470 6.000000 18 352.095578
2.216382 0.662425 2.586031 14.000000 16 352.095580
2.229930 0.672839 2.368721 12.000000 15 352.095538
2.194341 0.662098 1.929870 10.000000 13 352.095540
2.139899 0.645264 1.549989 17.000000 11 352.095543
2.071265 0.624565 1.218513 38.000000 9 352.095546
2.020421 0.608850 0.940881 45.000000 7 352.095548
2.030660 0.611549 0.712907 55.000000 5 352.095551
1.994313 0.600602 0.486903 62.000000 3 352.095553
1.959756 0.589822 0.276324 49.000000 1 352.095556
2.224597 0.667419 2.149026 7.000000 14 352.095564
2.162803 0.648877 1.727724 19.000000 12 352.095566
2.107826 0.631983 1.378210 18.000000 10 352.095569
2.057351 0.616846 1.080355 42.000000 8 352.095571
1.990987 0.596570 0.812123 30.000000 6 352.095574
2.016339 0.603783 0.598366 59.000000 4 352.095576
1.982999 0.593422 0.380544 63.000000 2 352.095579
1.933487 0.578238 0.175084 54.000000 0 352.095582
0.042251 0.004812 3.319147 97.000000 31 352.095592
0.506978 0.137198 3.339362 96.000000 28 352.095595
0.670980 0.180709 3.364282 85.000000 27 352.095597
1.005223 0.291964 3.391531 86.000000 25 352.095600
1.359007 0.402836 3.398882 83.000000 23 352.095602
1.764326 0.523303 3.438430 74.000000 21 352.095605
2.226366 0.660339 3.483288 10.000000 19 352.095608
2.383842 0.707042 3.052555 7.000000 17 352.095610
0.197292 0.043526 3.323840 98.000000 30 352.095618
0.352350 0.086577 3.335630 96.000000 29 352.095620
0.835991 0.236441 3.380090 94.000000 26 352.095623
1.177853 0.346908 3.393285 83.000000 24 352.095626
1.561925 0.460607 3.429388 90.000000 22 352.095628
1.985229 0.585804 3.455826 81.000000 20 352.095631
2.445230 0.721536 3.449438 7.000000 18 352.095633
2.228435 0.657563 2.597057 13.000000 16 352.095636
2.242519 0.668106 2.379234 12.000000 15 352.095593
2.192908 0.653323 1.926732 13.000000 13 352.095596
2.138131 0.636597 1.547247 18.000000 11 352.095599
2.069186 0.616067 1.216195 38.000000 9 352.095601
2.013647 0.599149 0.937135 43.000000 7 352.095604
2.028184 0.603089 0.711498 56.000000 5 352.095606
1.991689 0.592237 0.485970 62.000000 3 352.095609
1.957028 0.581559 0.275877 49.000000 1 352.095611
2.219753 0.657529 2.142377 7.000000 14 352.095619
2.157304 0.639028 1.721838 19.000000 12 352.095622
2.110019 0.624621 1.378210 18.000000 10 352.095624
2.055140 0.608373 1.078257 42.000000 8 352.095627
1.988529 0.588277 0.810481 30.000000 6 352.095629
2.013773 0.595363 0.597194 59.000000 4 352.095632
1.980309 0.585093 0.379854 60.000000 2 352.095634
1.930702 0.570070 0.174882 54.000000 0 352.095637
0.042224 0.004664 3.314147 97.000000 31 352.095648
0.507454 0.135427 3.339362 97.000000 28 352.095650
0.671606 0.178365 3.364282 84.000000 27 352.095653
1.006236 0.288453 3.391531 86.000000 25 352.095655
1.360405 0.398090 3.398882 83.000000 23 352.095658
1.766142 0.517142 3.438430 74.000000 21 352.095660
2.228657 0.652563 3.483288 10.000000 19 352.095663
2.373989 0.695113 3.037207 7.000000 17 352.095666
0.197443 0.042837 3.323840 98.000000 30 352.095673
0.352650 0.085347 3.335630 96.000000 29 352.095676
0.836811 0.233522 3.380090 94.000000 26 352.095678
1.179057 0.342795 3.393285 83.000000 24 352.095681
1.563524 0.455152 3.429388 91.000000 22 352.095684
1.987262 0.578871 3.455826 80.000000 20 352.095686
2.441946 0.711311 3.441459 6.000000 18 352.095689
2.240481 0.652625 2.608083 13.000000 16 352.095691
2.248259 0.661280 2.382739 10.000000 15 352.095649
2.191440 0.644566 1.923594 16.000000 13 352.095652
2.140340 0.629130 1.547247 20.000000 11 352.095654
2.062823 0.606342 1.211559 39.000000 9 352.095657
2.011278 0.590810 0.935262 43.000000 7 352.095659
2.025674 0.594655 0.710088 56.000000 5 352.095662
1.989030 0.583898 0.485038 64.000000 3 352.095664
1.954268 0.573322 0.275431 40.000000 1 352.095667
2.218450 0.648728 2.139052 7.000000 14 352.095675
2.155642 0.630359 1.718895 19.000000 12 352.095677
2.099772 0.613624 1.370613 23.000000 10 352.095680
2.048539 0.598649 1.074061 42.000000 8 352.095682
1.986037 0.580008 0.808838 29.000000 6 352.095685
2.011173 0.586968 0.596022 60.000000 4 352.095687
1.977585 0.576791 0.379164 62.000000 2 352.095690
1.927884 0.561930 0.174681 51.000000 0 352.095693
0.042240 0.004517 3.314147 93.000000 31 352.095703
0.507923 0.133655 3.339362 97.000000 28 352.095706
0.672225 0.176020 3.364282 84.000000 27 352.095708
1.007237 0.284939 3.391531 85.000000 25 352.095711
1.361787 0.393338 3.398882 83.000000 23 352.095713
1.767937 0.510973 3.438430 74.000000 21 352.095716
2.228218 0.643998 3.479155 10.000000 19 352.095719
2.367161 0.684152 3.025696 7.000000 17 352.095721
0.197591 0.042148 3.323840 98.000000 30 352.095729
0.352946 0.084115 3.335630 96.000000 29 352.095731
0.837621 0.230599 3.380090 93.000000 26 352.095734
1.180246 0.338677 3.393285 83.000000 24 352.095737
1.565103 0.449692 3.429388 90.000000 22 352.095739
1.989270 0.571931 3.455826 80.000000 20 352.095742
2.438621 0.701117 3.433480 5.000000 18 352.095744
2.252521 0.647610 2.619108 13.000000 16 352.095747
2.253978 0.654423 2.386243 8.000000 15 352.095704
2.189938 0.635827 1.920456 16.000000 13 352.095707
2.142524 0.621655 1.547247 19.000000 11 352.095710
2.060673 0.597903 1.209241 39.000000 9 352.095712
2.008876 0.582495 0.933389 43.000000 7 352.095715
2.023130 0.586245 0.708679 56.000000 5 352.095717
1.981620 0.574217 0.483173 64.000000 3 352.095720
1.951474 0.565112 0.274985 40.000000 1 352.095722
2.213525 0.638909 2.132402 8.000000 14 352.095730
2.153945 0.621710 1.715951 21.000000 12 352.095733
2.089474 0.602706 1.363016 25.000000 10 352.095735
2.046255 0.590237 1.071962 42.000000 8 352.095738
1.978974 0.570456 0.805553 28.000000 6 352.095740
2.003868 0.577253 0.593677 59.000000 4 352.095743
1.974828 0.568514 0.378474 62.000000 2 352.095746
1.925032 0.553815 0.174479 51.000000 0 352.095748
0.042256 0.004369 3.314147 93.000000 31 352.095759
0.508387 0.131881 3.339362 96.000000 28 352.095761
0.672835 0.173672 3.364282 84.000000 27 352.095764
1.008225 0.281421 3.391531 86.000000 25 352.095766
1.363151 0.388582 3.398882 84.000000 23 352.095769
1.769709 0.504799 3.438430 74.000000 21 352.095772
2.230453 0.636216 3.479155 10.000000 19 352.095774
2.363369 0.674126 3.018022 8.000000 17 352.095777
0.197737 0.041458 3.323840 98.000000 30 352.095784
0.353237 0.082883 3.335630 96.000000 29 352.095787
0.838421 0.227674 3.380090 93.000000 26 352.095790
1.181421 0.334555 3.393285 85.000000 24 352.095792
1.566663 0.444226 3.429388 91.000000 22 352.095795
1.991254 0.564983 3.455826 81.000000 20 352.095797
2.435254 0.690955 3.425501 5.000000 18 352.095800
2.264551 0.642519 2.630133 13.000000 16 352.095802
2.252820 0.645568 2.382739 7.000000 15 352.095760
2.188402 0.627106 1.917319 16.000000 13 352.095763
2.148700 0.615324 1.549989 19.000000 11 352.095765
2.054229 0.588267 1.204605 39.000000 9 352.095768
2.006440 0.574203 0.931516 42.000000 7 352.095770
2.015939 0.576541 0.705861 55.000000 5 352.095773
1.978889 0.565945 0.482240 64.000000 3 352.095775
1.943858 0.555560 0.274093 49.000000 1 352.095778
2.212151 0.630156 2.129077 11.000000 14 352.095786
2.156102 0.614187 1.715951 23.000000 12 352.095788
2.079126 0.591868 1.355418 22.000000 10 352.095791
2.043938 0.581848 1.069865 40.000000 8 352.095793
1.976411 0.562252 0.803910 27.000000 6 352.095796
2.001196 0.568926 0.592505 59.000000 4 352.095798
1.972037 0.560264 0.377784 62.000000 2 352.095801
1.926954 0.547092 0.174479 53.000000 0 352.095804
0.042271 0.004222 3.314147 97.000000 31 352.095814
0.509597 0.130298 3.344302 92.000000 28 352.095817
0.673437 0.171323 3.364282 84.000000 27 352.095819
1.009202 0.277900 3.391531 86.000000 25 352.095822
1.364499 0.383822 3.398882 83.000000 23 352.095824
1.771461 0.498618 3.438430 74.000000 21 352.095827
2.229951 0.627664 3.475022 11.000000 19 352.095829
2.356450 0.663266 3.006511 8.000000 17 352.095832
0.197881 0.040767 3.323840 98.000000 30 352.095840
0.353525 0.081649 3.335630 95.000000 29 352.095842
0.839211 0.224746 3.380090 93.000000 26 352.095845
1.182582 0.330429 3.393285 83.000000 24 352.095847
1.568204 0.438754 3.429388 91.000000 22 352.095850
1.993214 0.558029 3.455826 81.000000 20 352.095852
2.428944 0.680012 3.413532 5.000000 18 352.095855
2.273310 0.636439 2.637484 11.000000 16 352.095858
2.248197 0.635760 2.375730 6.000000 15 352.095815
2.183086 0.617345 1.911043 16.000000 13 352.095818
2.150835 0.607819 1.549989 25.000000 11 352.095820
2.052006 0.579888 1.202287 39.000000 9 352.095823
2.003971 0.565936 0.929643 42.000000 7 352.095826
2.013322 0.568198 0.704452 53.000000 5 352.095828
1.976125 0.557700 0.481307 66.000000 3 352.095831
1.940992 0.547419 0.273646 50.000000 1 352.095833
2.207146 0.620409 2.122427 14.000000 14 352.095841
2.158233 0.606657 1.715951 25.000000 12 352.095844
2.068727 0.581109 1.347821 21.000000 10 352.095846
2.041587 0.573482 1.067766 42.000000 8 352.095849
1.973815 0.554074 0.802267 25.000000 6 352.095851
1.998489 0.560624 0.591333 59.000000 4 352.095854
1.969212 0.552040 0.377094 62.000000 2 352.095856
1.924041 0.539015 0.174278 53.000000 0 352.095859
0.042285 0.004074 3.314147 97.000000 31 352.095870
0.510049 0.128518 3.344302 93.000000 28 352.095872
0.674031 0.168971 3.364282 84.000000 27 352.095875
1.010165 0.274376 3.391531 86.000000 25 352.095877
1.365831 0.379056 3.398882 83.000000 23 352.095880
1.773190 0.492432 3.438430 76.000000 21 352.095882
2.232129 0.619877 3.475022 12.000000 19 352.095885
2.352573 0.653321 2.998837 8.000000 17 352.095887
0.198022 0.040076 3.323840 98.000000 30 352.095895
0.353807 0.080415 3.335630 95.000000 29 352.095898
0.839990 0.221815 3.380090 93.000000 26 352.095900
1.183728 0.326299 3.393285 82.000000 24 352.095903
1.569726 0.433278 3.429388 91.000000 22 352.095905
1.995150 0.551068 3.455826 81.000000 20 352.095908
2.425493 0.669925 3.405554 6.000000 18 352.095911
2.288589 0.632110 2.652184 9.000000 16 352.095913
2.246967 0.626950 2.372225 6.000000 15 352.095871
2.181478 0.608674 1.907905 16.000000 13 352.095873
2.152944 0.600308 1.549989 33.000000 11 352.095876
2.045483 0.570342 1.197651 39.000000 9 352.095878
2.001468 0.557693 0.927770 42.000000 7 352.095881
2.006050 0.558593 0.701633 53.000000 5 352.095884
1.973328 0.549481 0.480375 62.000000 3 352.095886
1.938094 0.539305 0.273200 50.000000 1 352.095889
2.205700 0.611703 2.119102 15.000000 14 352.095896
2.160337 0.599120 1.715951 22.000000 12 352.095899
2.062434 0.571581 1.342756 20.000000 10 352.095902
2.034829 0.563928 1.063570 43.000000 8 352.095904
1.975737 0.547180 0.802267 25.000000 6 352.095907
1.995750 0.552348 0.590160 59.000000 4 352.095909
1.966353 0.543843 0.376405 64.000000 2 352.095912
1.921095 0.530965 0.174076 53.000000 0 352.095914
0.042343 0.003926 3.319147 97.000000 31 352.095925
0.510494 0.126737 3.344302 97.000000 28 352.095928
0.674617 0.166617 3.364282 82.000000 27 352.095930
1.011117 0.270848 3.391531 85.000000 25 352.095933
1.367146 0.374287 3.398882 83.000000 23 352.095935
1.772588 0.485606 3.434041 76.000000 21 352.095938
2.234279 0.612081 3.475022 13.000000 19 352.095940
2.348655 0.643411 2.991163 8.000000 17 352.095943
0.198160 0.039385 3.323840 98.000000 30 352.095951
0.354086 0.079179 3.335630 96.000000 29 352.095953
0.840759 0.218882 3.380090 93.000000 26 352.095956
1.184860 0.322165 3.393285 83.000000 24 352.095958
1.571229 0.427796 3.429388 90.000000 22 352.095961
1.997061 0.544100 3.455826 81.000000 20 352.095964
2.419092 0.659077 3.393585 7.000000 18 352.095966
2.287510 0.623226 2.648509 6.000000 16 352.095969
2.242265 0.617210 2.365216 6.000000 15 352.095926
2.183589 0.601056 1.907905 16.000000 13 352.095929
2.150994 0.591680 1.547247 38.000000 11 352.095931
2.043190 0.562024 1.195333 39.000000 9 352.095934
1.994462 0.548246 0.924024 43.000000 7 352.095937
2.003362 0.550316 0.700224 55.000000 5 352.095939
1.970497 0.541288 0.479442 64.000000 3 352.095942
1.935162 0.531219 0.272754 50.000000 1 352.095944
2.200618 0.602029 2.112453 15.000000 14 352.095952
2.166314 0.592642 1.718895 22.000000 12 352.095955
2.056100 0.562105 1.337691 19.000000 10 352.095957
2.032407 0.555625 1.061472 43.000000 8 352.095960
1.973079 0.539036 0.800624 24.000000 6 352.095962
1.992977 0.544098 0.588988 59.000000 4 352.095965
1.963463 0.535672 0.375715 62.000000 2 352.095967
1.918117 0.522941 0.173875 53.000000 0 352.095970
0.042356 0.003779 3.319147 97.000000 31 352.095981
0.510179 0.124770 3.339362 97.000000 28 352.095983
0.675195 0.164261 3.364282 82.000000 27 352.095986
1.012056 0.267317 3.391531 86.000000 25 352.095988
1.368444 0.369512 3.398882 84.000000 23 352.095991
1.774272 0.479416 3.434041 74.000000 21 352.095993
2.236402 0.604278 3.475022 14.000000 19 352.095996
2.344696 0.633536 2.983490 7.000000 17 352.095998
0.198297 0.038693 3.323840 98.000000 30 352.096006
0.354360 0.077943 3.335630 96.000000 29 352.096009
0.841518 0.215946 3.380090 93.000000 26 352.096011
1.185977 0.318027 3.393285 83.000000 24 352.096014
1.572713 0.422308 3.429388 91.000000 22 352.096016
1.998949 0.537126 3.455826 81.000000 20 352.096019
2.412647 0.648283 3.381617 7.000000 18 352.096022
2.283124 0.613478 2.641159 5.000000 16 352.096024
2.237523 0.607510 2.358207 8.000000 15 352.095982
2.181917 0.592410 1.904768 19.000000 13 352.095984
2.153047 0.584168 1.547247 38.000000 11 352.095987
2.040864 0.553728 1.193015 39.000000 9 352.095990
1.991889 0.540067 0.922151 42.000000 7 352.095992
2.000641 0.542065 0.698815 53.000000 5 352.095995
1.962892 0.531837 0.477577 66.000000 3 352.095997
1.932197 0.523159 0.272308 50.000000 1 352.096000
2.199100 0.593371 2.109128 15.000000 14 352.096008
2.168370 0.585076 1.718895 30.000000 12 352.096010
2.053886 0.553802 1.335159 19.000000 10 352.096013
2.029953 0.547346 1.059374 42.000000 8 352.096015
1.974949 0.532145 0.800624 23.000000 6 352.096018
1.990170 0.535874 0.587816 58.000000 4 352.096020
1.960538 0.527528 0.375025 64.000000 2 352.096023
1.915106 0.514946 0.173673 53.000000 0 352.096025
0.042369 0.003631 3.319147 97.000000 31 352.096036
0.510611 0.122989 3.339362 97.000000 28 352.096039
0.675764 0.161903 3.364282 84.000000 27 352.096041
1.012983 0.263783 3.391531 85.000000 25 352.096044
1.369725 0.364733 3.398882 84.000000 23 352.096046
1.775935 0.473220 3.434041 76.000000 21 352.096049
2.238497 0.596468 3.475022 14.000000 19 352.096051
2.337600 0.622872 2.971979 7.000000 17 352.096054
0.198715 0.038053 3.328832 98.000000 30 352.096062
0.354630 0.076705 3.335630 95.000000 29 352.096064
0.842267 0.213007 3.380090 94.000000 26 352.096067
1.187080 0.313886 3.393285 82.000000 24 352.096069
1.574177 0.416816 3.429388 91.000000 22 352.096072
2.000811 0.530145 3.455826 81.000000 20 352.096075
2.406154 0.637541 3.369648 8.000000 18 352.096077
2.281974 0.604636 2.637484 6.000000 16 352.096080
2.232740 0.597851 2.351198 10.000000 15 352.096037
2.183972 0.584790 1.904768 20.000000 13 352.096040
2.151033 0.575568 1.544506 38.000000 11 352.096042
2.034225 0.544311 1.188379 39.000000 9 352.096045
1.989284 0.531913 0.920277 43.000000 7 352.096048
1.997886 0.533840 0.697406 53.000000 5 352.096050
1.959991 0.523714 0.476644 68.000000 3 352.096053
1.929200 0.515126 0.271862 50.000000 1 352.096055
2.201158 0.585691 2.109128 15.000000 14 352.096063
2.170399 0.577504 1.718895 34.000000 12 352.096066
2.047474 0.544413 1.330094 19.000000 10 352.096068
2.023078 0.537924 1.055178 43.000000 8 352.096071
1.972231 0.524036 0.798982 23.000000 6 352.096073
1.982633 0.526429 0.585471 58.000000 4 352.096076
1.957581 0.519412 0.374335 64.000000 2 352.096078
1.912063 0.506977 0.173472 53.000000 0 352.096081
0.042382 0.003483 3.319147 97.000000 31 352.096092
0.511037 0.121206 3.339362 96.000000 28 352.096094
0.676325 0.159543 3.364282 84.000000 27 352.096097
1.013898 0.260245 3.391531 86.000000 25 352.096099
1.370990 0.359950 3.398882 84.000000 23 352.096102
1.777576 0.467018 3.434041 76.000000 21 352.096104
2.240566 0.588651 3.475022 14.000000 19 352.096107
2.327357 0.611450 2.956631 8.000000 17 352.096110
0.198847 0.037360 3.328832 98.000000 30 352.096117
0.354896 0.075467 3.335630 95.000000 29 352.096120
0.843005 0.210066 3.380090 94.000000 26 352.096122
1.188168 0.309740 3.393285 82.000000 24 352.096125
1.575694 0.411044 3.429388 91.000000 22 352.096128
2.002741 0.522808 3.455826 81.000000 20 352.096130
2.399726 0.626434 3.357679 8.000000 18 352.096133
2.277615 0.594556 2.630133 6.000000 16 352.096135
2.227917 0.588233 2.344189 13.000000 15 352.096093
2.186000 0.577163 1.904768 18.000000 13 352.096095
2.144943 0.565923 1.539023 38.000000 11 352.096098
2.031829 0.536076 1.186061 39.000000 9 352.096101
1.986646 0.523784 0.918404 43.000000 7 352.096103
1.995098 0.525641 0.695997 55.000000 5 352.096106
1.957147 0.515276 0.475712 62.000000 3 352.096108
1.926259 0.506785 0.271415 49.000000 1 352.096111
2.203290 0.577619 2.109128 15.000000 14 352.096119
2.168591 0.568520 1.715951 37.000000 12 352.096121
2.045285 0.535813 1.327562 19.000000 10 352.096124
2.020646 0.529355 1.053080 42.000000 8 352.096126
1.969570 0.515607 0.797339 23.000000 6 352.096129
1.979847 0.517929 0.584299 58.000000 4 352.096131
1.954680 0.510981 0.373645 61.000000 2 352.096134
1.908988 0.499036 0.173270 52.000000 0 352.096136
0.042394 0.003327 3.319147 97.000000 31 352.096147
0.511478 0.119332 3.339362 96.000000 28 352.096150
0.676905 0.157063 3.364282 84.000000 27 352.096152
1.014845 0.256527 3.391531 86.000000 25 352.096155
1.372300 0.354922 3.398882 82.000000 23 352.096157
1.779276 0.460499 3.434041 76.000000 21 352.096160
2.242708 0.580435 3.475022 14.000000 19 352.096162
2.320272 0.600506 2.945120 7.000000 17 352.096165
0.198983 0.036631 3.328832 98.000000 30 352.096173
0.355693 0.074274 3.340601 96.000000 29 352.096175
0.843770 0.206975 3.380090 94.000000 26 352.096178
1.189296 0.305383 3.393285 82.000000 24 352.096180
1.577120 0.405541 3.429388 91.000000 22 352.096183
2.004554 0.515814 3.455826 81.000000 20 352.096186
2.396060 0.616552 3.349700 8.000000 18 352.096188
2.273110 0.584912 2.622783 7.000000 16 352.096191
2.223155 0.578268 2.337179 13.000000 15 352.096148
2.188101 0.569147 1.904768 18.000000 13 352.096151
2.142956 0.557005 1.536281 38.000000 11 352.096154
2.029493 0.527511 1.183743 39.000000 9 352.096156
1.979578 0.514169 0.914658 47.000000 7 352.096159
1.992368 0.517119 0.694587 55.000000 5 352.096161
1.954179 0.507207 0.474779 64.000000 3 352.096164
1.923196 0.498808 0.270969 49.000000 1 352.096166
2.205293 0.569925 2.109128 17.000000 14 352.096174
2.166649 0.559935 1.713008 37.000000 12 352.096177
2.042969 0.527592 1.325029 19.000000 10 352.096179
2.018087 0.521164 1.050982 40.000000 8 352.096182
1.966785 0.507549 0.795696 24.000000 6 352.096184
1.976936 0.509801 0.583126 58.000000 4 352.096187
1.951657 0.502919 0.372956 63.000000 2 352.096189
1.905966 0.490790 0.173069 51.000000 0 352.096192
0.042405 0.003179 3.319147 97.000000 31 352.096203
0.511892 0.117546 3.339362 96.000000 28 352.096205
0.677449 0.154700 3.364282 84.000000 27 352.096208
1.015734 0.252983 3.391531 85.000000 25 352.096210
1.373531 0.350130 3.398882 79.000000 23 352.096213
1.780872 0.454286 3.434041 76.000000 21 352.096215
2.244721 0.572603 3.475022 14.000000 19 352.096218
2.316141 0.590818 2.937446 7.000000 17 352.096221
0.199109 0.035936 3.328832 98.000000 30 352.096228
0.355950 0.073032 3.340601 96.000000 29 352.096231
0.844487 0.204028 3.380090 94.000000 26 352.096233
1.190354 0.301230 3.393285 83.000000 24 352.096236
1.578526 0.400033 3.429388 91.000000 22 352.096239
2.003814 0.508173 3.451560 81.000000 20 352.096241
2.389434 0.605962 3.337732 8.000000 18 352.096244
2.268565 0.575307 2.615433 10.000000 16 352.096246
2.218251 0.568733 2.330170 19.000000 15 352.096204
2.190074 0.561506 1.904768 26.000000 13 352.096206
2.136786 0.547446 1.530798 38.000000 11 352.096209
2.027030 0.519324 1.181424 39.000000 9 352.096212
1.976870 0.506106 0.912785 47.000000 7 352.096214
1.989513 0.508973 0.693178 56.000000 5 352.096217
1.951178 0.499165 0.473846 66.000000 3 352.096219
1.920101 0.490858 0.270523 50.000000 1 352.096222
2.207269 0.562224 2.109128 18.000000 14 352.096230
2.164673 0.551371 1.710065 37.000000 12 352.096232
2.036442 0.518331 1.319964 21.000000 10 352.096235
2.015496 0.512997 1.048884 40.000000 8 352.096237
1.963968 0.499517 0.794054 24.000000 6 352.096240
1.969282 0.500502 0.580782 61.000000 4 352.096242
1.943801 0.493665 0.371576 63.000000 2 352.096245
1.902825 0.482905 0.172867 51.000000 0 352.096248
0.042416 0.003031 3.319147 97.000000 31 352.096258
0.512299 0.115758 3.339362 96.000000 28 352.096261
0.677985 0.152334 3.364282 85.000000 27 352.096263
1.016611 0.249436 3.391531 86.000000 25 352.096266
1.374745 0.345333 3.398882 83.000000 23 352.096268
1.782447 0.448066 3.434041 76.000000 21 352.096271
2.246706 0.564764 3.475022 13.000000 19 352.096274
2.308862 0.580385 2.925935 8.000000 17 352.096276
0.199233 0.035240 3.328832 98.000000 30 352.096284
0.356203 0.071789 3.340601 96.000000 29 352.096286
0.845194 0.201079 3.380090 94.000000 26 352.096289
1.191399 0.297073 3.393285 82.000000 24 352.096292
1.579912 0.394521 3.429388 91.000000 22 352.096294
2.005576 0.501175 3.451560 81.000000 20 352.096297
2.382762 0.595425 3.325763 8.000000 18 352.096299
2.263982 0.565741 2.608083 13.000000 16 352.096302
2.213308 0.559239 2.323161 23.000000 15 352.096259
2.192021 0.553858 1.904768 31.000000 13 352.096262
2.134630 0.538961 1.528057 38.000000 11 352.096265
2.020240 0.510077 1.176788 39.000000 9 352.096267
1.974130 0.498068 0.910912 50.000000 7 352.096270
1.986626 0.500852 0.691769 56.000000 5 352.096272
1.948146 0.491151 0.472914 66.000000 3 352.096275
1.916973 0.482936 0.270077 49.000000 1 352.096277
2.212840 0.555424 2.112453 18.000000 14 352.096285
2.158744 0.541844 1.704179 37.000000 12 352.096288
2.034057 0.510170 1.317432 21.000000 10 352.096290
2.012872 0.504854 1.046786 40.000000 8 352.096293
1.961119 0.491510 0.792411 26.000000 6 352.096295
1.966302 0.492444 0.579609 61.000000 4 352.096298
1.940708 0.485675 0.370886 63.000000 2 352.096300
1.899652 0.475048 0.172666 52.000000 0 352.096303
0.042427 0.002883 3.319147 97.000000 31 352.096314
0.512700 0.113969 3.339362 97.000000 28 352.096316
0.678513 0.149966 3.364282 85.000000 27 352.096319
1.017476 0.245886 3.391531 86.000000 25 352.096321
1.374045 0.340063 3.394280 83.000000 23 352.096324
1.784000 0.441842 3.434041 74.000000 21 352.096326
2.251395 0.557594 3.479155 13.000000 19 352.096329
2.304650 0.570781 2.918261 8.000000 17 352.096332
0.199070 0.034497 3.323840 98.000000 30 352.096339
0.356451 0.070545 3.340601 96.000000 29 352.096342
0.845891 0.198127 3.380090 94.000000 26 352.096344
1.192428 0.292912 3.393285 82.000000 24 352.096347
1.581280 0.389003 3.429388 91.000000 22 352.096350
2.007313 0.494171 3.451560 81.000000 20 352.096352
2.376046 0.584943 3.313795 8.000000 18 352.096355
2.259359 0.556214 2.600732 14.000000 16 352.096357
2.208325 0.549787 2.316152 31.000000 15 352.096315
2.190163 0.545262 1.901630 35.000000 13 352.096318
2.128383 0.529487 1.522574 37.000000 11 352.096320
2.017709 0.501952 1.174470 39.000000 9 352.096323
1.971357 0.490056 0.909039 50.000000 7 352.096325
1.983706 0.492758 0.690360 53.000000 5 352.096328
1.945081 0.483163 0.471981 65.000000 3 352.096330
1.913814 0.475042 0.269630 47.000000 1 352.096333
2.214765 0.547697 2.112453 18.000000 14 352.096341
2.156698 0.533335 1.701236 37.000000 12 352.096343
2.027455 0.500999 1.312367 22.000000 10 352.096346
2.010216 0.496736 1.044688 42.000000 8 352.096348
1.958237 0.483529 0.790768 26.000000 6 352.096351
1.963290 0.484413 0.578437 61.000000 4 352.096353
1.937583 0.477712 0.370196 59.000000 2 352.096356
1.896448 0.467219 0.172464 52.000000 0 352.096359
0.042436 0.002735 3.319147 97.000000 31 352.096369
0.513094 0.112179 3.339362 97.000000 28 352.096372
0.679032 0.147597 3.364282 84.000000 27 352.096374
1.018328 0.242333 3.391531 86.000000 25 352.096377
1.375224 0.335265 3.394280 84.000000 23 352.096379
1.785532 0.435612 3.434041 76.000000 21 352.096382
2.253328 0.549732 3.479155 10.000000 19 352.096385
2.303514 0.561973 2.914424 8.000000 17 352.096387
0.199189 0.033802 3.323840 98.000000 30 352.096395
0.356695 0.069300 3.340601 96.000000 29 352.096397
0.846577 0.195173 3.380090 93.000000 26 352.096400
1.193444 0.288748 3.393285 82.000000 24 352.096403
1.582628 0.383481 3.429388 91.000000 22 352.096405
2.009026 0.487161 3.451560 81.000000 20 352.096408
2.372216 0.575225 3.305816 8.000000 18 352.096410
2.254698 0.546726 2.593382 15.000000 16 352.096413
2.203304 0.540376 2.309143 31.000000 15 352.096370
2.192053 0.537614 1.901630 35.000000 13 352.096373
2.126157 0.521059 1.519832 37.000000 11 352.096376
2.015146 0.493851 1.172152 40.000000 9 352.096378
1.968553 0.482069 0.907166 50.000000 7 352.096381
1.980754 0.484690 0.688951 53.000000 5 352.096383
1.941984 0.475203 0.471049 65.000000 3 352.096386
1.910623 0.467176 0.269184 49.000000 1 352.096388
2.216664 0.539962 2.112453 23.000000 14 352.096396
2.150693 0.523890 1.695349 37.000000 12 352.096399
2.025002 0.492899 1.309835 23.000000 10 352.096401
2.007528 0.488643 1.042590 42.000000 8 352.096404
1.955325 0.475575 0.789126 26.000000 6 352.096406
1.964969 0.477557 0.578437 61.000000 4 352.096409
1.934427 0.469777 0.369507 61.000000 2 352.096412
1.893212 0.459418 0.172262 52.000000 0 352.096414
0.042446 0.002587 3.319147 97.000000 31 352.096425
0.513483 0.110387 3.339362 96.000000 28 352.096427
0.679543 0.145226 3.364282 84.000000 27 352.096430
1.017713 0.238436 3.386759 86.000000 25 352.096432
1.376386 0.330462 3.394280 84.000000 23 352.096435
1.787042 0.429376 3.434041 76.000000 21 352.096438
2.255233 0.541863 3.479155 10.000000 19 352.096440
2.299227 0.552431 2.906751 8.000000 17 352.096443
0.199306 0.033106 3.323840 98.000000 30 352.096450
0.356935 0.068055 3.340601 96.000000 29 352.096453
0.847253 0.192217 3.380090 93.000000 26 352.096456
1.192765 0.284181 3.388592 82.000000 24 352.096458
1.581839 0.377449 3.424887 90.000000 22 352.096461
2.010714 0.480146 3.451560 81.000000 20 352.096463
2.365414 0.564841 3.293848 8.000000 18 352.096466
2.246700 0.536491 2.582356 21.000000 16 352.096468
2.198243 0.531007 2.302134 31.000000 15 352.096426
2.190132 0.529045 1.898492 35.000000 13 352.096429
2.119833 0.511672 1.514349 37.000000 11 352.096431
2.012550 0.485775 1.169834 40.000000 9 352.096434
1.965717 0.474107 0.905293 50.000000 7 352.096436
1.977771 0.476649 0.687541 56.000000 5 352.096439
1.938855 0.467270 0.470116 67.000000 3 352.096441
1.907400 0.459338 0.268738 50.000000 1 352.096444
2.214904 0.531350 2.109128 29.000000 14 352.096452
2.148578 0.515437 1.692406 37.000000 12 352.096454
2.018326 0.483817 1.304770 25.000000 10 352.096457
2.004808 0.480574 1.040492 43.000000 8 352.096459
1.952380 0.467647 0.787483 26.000000 6 352.096462
1.961897 0.469564 0.577265 63.000000 4 352.096464
1.931239 0.461870 0.368817 61.000000 2 352.096467
1.889945 0.451646 0.172061 53.000000 0 352.096470
0.042411 0.002440 3.314147 97.000000 31 352.096481
0.513865 0.108594 3.339362 96.000000 28 352.096484
0.680046 0.142853 3.364282 84.000000 27 352.096486
1.018539 0.234882 3.386759 86.000000 25 352.096489
1.377531 0.325656 3.394280 84.000000 23 352.096491
1.788530 0.423136 3.434041 76.000000 21 352.096494
2.254372 0.533340 3.475022 13.000000 19 352.096496
2.291782 0.542187 2.895240 10.000000 17 352.096499
0.199420 0.032410 3.323840 98.000000 30 352.096507
0.357170 0.066808 3.340601 96.000000 29 352.096509
0.846691 0.188985 3.375251 94.000000 26 352.096512
1.193750 0.280015 3.388592 83.000000 24 352.096514
1.583147 0.371925 3.424887 90.000000 22 352.096517
2.012378 0.473124 3.451560 81.000000 20 352.096519
2.361504 0.555201 3.285869 8.000000 18 352.096522
2.238658 0.526317 2.571331 27.000000 16 352.096525
2.196614 0.522505 2.298630 31.000000 15 352.096482
2.184391 0.519595 1.892216 35.000000 13 352.096485
2.117538 0.503303 1.511608 37.000000 11 352.096487
2.009924 0.477722 1.167516 39.000000 9 352.096490
1.962849 0.466171 0.903420 50.000000 7 352.096493
1.974754 0.468635 0.686132 56.000000 5 352.096495
1.935695 0.459366 0.469183 65.000000 3 352.096498
1.904146 0.451528 0.268292 45.000000 1 352.096500
2.216745 0.523616 2.109128 36.000000 14 352.096508
2.142497 0.506075 1.686520 37.000000 12 352.096511
2.015806 0.475779 1.302237 25.000000 10 352.096513
2.002056 0.472531 1.038394 45.000000 8 352.096516
1.949405 0.459745 0.785840 27.000000 6 352.096518
1.958793 0.461598 0.576092 64.000000 4 352.096521
1.928019 0.453991 0.368127 61.000000 2 352.096523
1.886647 0.443902 0.171859 55.000000 0 352.096526
0.042419 0.002292 3.314147 97.000000 31 352.096537
0.514241 0.106800 3.339362 96.000000 28 352.096539
0.680540 0.140478 3.364282 84.000000 27 352.096542
1.019353 0.231325 3.386759 86.000000 25 352.096544
1.378659 0.320845 3.394280 85.000000 23 352.096547
1.787662 0.416347 3.429652 74.000000 21 352.096549
2.256220 0.525467 3.475022 24.000000 19 352.096552
2.287416 0.532730 2.887566 12.000000 17 352.096554
0.199532 0.031714 3.323840 98.000000 30 352.096562
0.357401 0.065561 3.340601 96.000000 29 352.096565
0.847346 0.186028 3.375251 94.000000 26 352.096567
1.194720 0.275847 3.388592 82.000000 24 352.096570
1.584435 0.366397 3.424887 88.000000 22 352.096572
2.014017 0.466097 3.451560 81.000000 20 352.096575
2.357555 0.545595 3.277890 8.000000 18 352.096578
2.230573 0.516207 2.560305 31.000000 16 352.096580
2.191480 0.513208 2.291620 30.000000 15 352.096538
2.182401 0.511079 1.889079 35.000000 13 352.096540
2.115211 0.494955 1.508867 37.000000 11 352.096543
2.007265 0.469694 1.165198 40.000000 9 352.096545
1.955436 0.457206 0.899674 52.000000 7 352.096548
1.971707 0.460647 0.684723 55.000000 5 352.096551
1.932503 0.451488 0.468251 65.000000 3 352.096553
1.905711 0.444878 0.268292 40.000000 1 352.096556
2.214922 0.515029 2.105803 36.000000 14 352.096563
2.140313 0.497678 1.683577 37.000000 12 352.096566
2.013255 0.467764 1.299705 26.000000 10 352.096569
1.994852 0.463485 1.034198 49.000000 8 352.096571
1.946397 0.451869 0.784198 27.000000 6 352.096574
1.950922 0.452561 0.573748 63.000000 4 352.096576
1.924767 0.446140 0.367437 61.000000 2 352.096579
1.883318 0.436186 0.171658 52.000000 0 352.096581
0.042427 0.002144 3.314147 93.000000 31 352.096592
0.514611 0.105004 3.339362 96.000000 28 352.096595
0.681027 0.138102 3.364282 84.000000 27 352.096597
1.020154 0.227766 3.386759 86.000000 25 352.096600
1.379771 0.316031 3.394280 84.000000 23 352.096602
1.789105 0.410104 3.429652 76.000000 21 352.096605
2.255298 0.516960 3.470889 41.000000 19 352.096607
2.283011 0.523309 2.879892 11.000000 17 352.096610
0.199641 0.031017 3.323840 98.000000 30 352.096618
0.357628 0.064313 3.340601 96.000000 29 352.096620
0.847990 0.183069 3.375251 91.000000 26 352.096623
1.195676 0.271675 3.388592 82.000000 24 352.096625
1.585705 0.360864 3.424887 90.000000 22 352.096628
2.015632 0.459064 3.451560 81.000000 20 352.096631
2.350629 0.535355 3.265921 8.000000 18 352.096633
2.222445 0.506159 2.549280 30.000000 16 352.096636
2.186307 0.503953 2.284611 30.000000 15 352.096593
2.176585 0.501709 1.882803 35.000000 13 352.096596
2.112851 0.486630 1.506125 37.000000 11 352.096598
2.000258 0.460696 1.160562 40.000000 9 352.096601
1.952502 0.449338 0.897801 50.000000 7 352.096604
1.968627 0.452687 0.683314 56.000000 5 352.096606
1.924493 0.442538 0.466385 64.000000 3 352.096609
1.902399 0.437108 0.267846 40.000000 1 352.096611
2.213066 0.506461 2.102479 36.000000 14 352.096619
2.134157 0.488400 1.677690 38.000000 12 352.096622
2.010673 0.459772 1.297173 25.000000 10 352.096624
1.992033 0.455507 1.032099 50.000000 8 352.096627
1.943359 0.444020 0.782555 27.000000 6 352.096629
1.947752 0.444666 0.572576 62.000000 4 352.096632
1.921485 0.438317 0.366747 63.000000 2 352.096634
1.879958 0.428499 0.171456 53.000000 0 352.096637
0.042434 0.001996 3.314147 91.000000 31 352.096648
0.514974 0.103207 3.339362 97.000000 28 352.096650
0.681504 0.135724 3.364282 82.000000 27 352.096653
1.020943 0.224203 3.386759 86.000000 25 352.096655
1.380866 0.311213 3.394280 84.000000 23 352.096658
1.790525 0.403857 3.429652 76.000000 21 352.096660
2.254344 0.508465 3.466756 74.000000 19 352.096663
2.278570 0.513926 2.872218 11.000000 17 352.096665
0.199748 0.030320 3.323840 97.000000 30 352.096673
0.357850 0.063064 3.340601 96.000000 29 352.096676
0.848624 0.180108 3.375251 94.000000 26 352.096678
1.196617 0.267499 3.388592 82.000000 24 352.096681
1.587017 0.355050 3.424887 90.000000 22 352.096683
2.017301 0.451673 3.451560 81.000000 20 352.096686
2.346693 0.525419 3.257942 8.000000 18 352.096689
2.217669 0.496528 2.541929 30.000000 16 352.096691
2.181098 0.494741 2.277602 28.000000 15 352.096649
2.170731 0.492386 1.876528 35.000000 13 352.096651
2.106380 0.477403 1.500642 38.000000 11 352.096654
1.997534 0.452731 1.158244 40.000000 9 352.096657
1.949537 0.441496 0.895928 49.000000 7 352.096659
1.965517 0.444754 0.681905 58.000000 5 352.096662
1.921311 0.434398 0.465453 66.000000 3 352.096664
1.899130 0.429035 0.267399 45.000000 1 352.096667
2.207621 0.496707 2.095829 35.000000 14 352.096675
2.131989 0.479688 1.674747 38.000000 12 352.096677
2.008138 0.451454 1.294640 26.000000 10 352.096680
1.989262 0.447208 1.030001 54.000000 8 352.096682
1.944973 0.436895 0.782555 27.000000 6 352.096685
1.944625 0.436460 0.571403 63.000000 4 352.096687
1.918246 0.430188 0.366057 59.000000 2 352.096690
1.876568 0.420841 0.171255 55.000000 0 352.096692
0.042441 0.001841 3.314147 97.000000 31 352.096703
0.515349 0.101319 3.339362 95.000000 28 352.096706
0.680998 0.133030 3.359387 82.000000 27 352.096708
1.021758 0.220460 3.386759 86.000000 25 352.096711
1.381997 0.306149 3.394280 84.000000 23 352.096713
1.791994 0.397291 3.429652 76.000000 21 352.096716
2.253445 0.499590 3.462623 84.000000 19 352.096718
2.277308 0.504878 2.868381 13.000000 17 352.096721
0.199858 0.029588 3.323840 98.000000 30 352.096729
0.357553 0.061663 3.335630 96.000000 29 352.096731
0.849278 0.176996 3.375251 94.000000 26 352.096734
1.199275 0.263482 3.393285 82.000000 24 352.096736
1.588246 0.349508 3.424887 90.000000 22 352.096739
2.018865 0.444628 3.451560 81.000000 20 352.096742
2.339682 0.515279 3.245974 9.000000 18 352.096744
2.212766 0.487326 2.534579 29.000000 16 352.096747
2.175935 0.485191 2.270593 28.000000 15 352.096704
2.168721 0.483580 1.873390 35.000000 13 352.096707
2.104035 0.468771 1.497901 38.000000 11 352.096709
1.994855 0.444444 1.155926 40.000000 9 352.096712
1.946617 0.433340 0.894055 49.000000 7 352.096715
1.962451 0.436505 0.680495 58.000000 5 352.096717
1.918020 0.426623 0.464520 64.000000 3 352.096720
1.900616 0.422403 0.267399 47.000000 1 352.096722
2.205695 0.488191 2.092504 36.000000 14 352.096730
2.129704 0.471369 1.671804 38.000000 12 352.096733
