# .PCD v.7 - Point Cloud Data file format
VERSION .7
FIELDS x y z intensity ring timestamp
SIZE 4 4 4 4 2 8
TYPE F F F F U D
COUNT 1 1 1 1 1 1
WIDTH 925
HEIGHT 1
VIEWPOINT 0 0 0 1 0 0 0
POINTS 925
DATA ascii
0.943849 -1.402461 2.312431 38.000000 18 352.815496
1.340767 -1.992252 2.681586 20.000000 16 352.815499
1.327513 -1.961452 2.407270 23.000000 15 352.815456
1.271595 -1.878836 1.911043 31.000000 13 352.815459
1.233681 -1.823501 1.528057 34.000000 11 352.815461
1.209770 -1.788163 1.216195 38.000000 9 352.815464
1.179531 -1.744122 0.939008 40.000000 7 352.815467
1.152822 -1.705269 0.694587 43.000000 5 352.815469
1.133476 -1.676653 0.475712 47.000000 3 352.815472
1.112460 -1.646185 0.270969 38.000000 1 352.815474
1.290412 -1.913101 2.135727 29.000000 14 352.815482
1.249124 -1.851894 1.710065 36.000000 12 352.815485
1.215745 -1.803086 1.363016 38.000000 10 352.815487
1.198208 -1.777081 1.078257 40.000000 8 352.815490
1.164290 -1.727427 0.813766 46.000000 6 352.815492
1.138054 -1.689137 0.581954 51.000000 4 352.815495
1.123074 -1.667531 0.372266 46.000000 2 352.815497
1.099149 -1.632621 0.173069 37.000000 0 352.815500
0.018171 -0.041929 3.684133 77.000000 31 352.815511
0.308399 -0.485230 3.655475 63.000000 28 352.815513
0.404747 -0.638503 3.657995 54.000000 27 352.815516
0.593342 -0.896591 3.482193 68.000000 25 352.815518
0.769179 -1.148515 3.316037 71.000000 23 352.815521
0.980292 -1.463210 3.293604 67.000000 21 352.815523
1.027835 -1.534180 2.784820 66.000000 19 352.815526
1.251908 -1.868648 2.768620 49.000000 17 352.815528
0.110326 -0.193331 3.678245 90.000000 30 352.815536
0.206134 -0.341789 3.673686 83.000000 29 352.815539
0.513480 -0.787934 3.655925 51.000000 26 352.815541
0.684352 -1.025712 3.407363 34.000000 24 352.815544
0.870388 -1.303580 3.303365 73.000000 22 352.815546
0.946861 -1.417590 2.858595 29.000000 20 352.815549
0.938947 -1.405747 2.312431 37.000000 18 352.815552
1.326272 -1.985644 2.666885 20.000000 16 352.815554
1.312704 -1.954233 2.393252 23.000000 15 352.815512
1.258518 -1.873569 1.901630 31.000000 13 352.815514
1.220315 -1.817381 1.519832 35.000000 11 352.815517
1.198582 -1.785019 1.211559 38.000000 9 352.815519
1.168269 -1.740530 0.935262 40.000000 7 352.815522
1.141516 -1.701316 0.691769 45.000000 5 352.815525
1.122143 -1.672441 0.473846 49.000000 3 352.815527
1.101159 -1.641786 0.270077 38.000000 1 352.815530
1.277494 -1.908284 2.125752 29.000000 14 352.815537
1.235907 -1.846166 1.701236 36.000000 12 352.815540
1.202251 -1.796570 1.355418 38.000000 10 352.815543
1.186949 -1.773709 1.074061 42.000000 8 352.815545
1.153002 -1.723631 0.810481 44.000000 6 352.815548
1.126747 -1.685018 0.579609 53.000000 4 352.815550
1.114494 -1.667324 0.371576 48.000000 2 352.815553
1.087892 -1.628140 0.172666 37.000000 0 352.815555
0.018024 -0.041992 3.684133 76.000000 31 352.815566
0.306704 -0.486304 3.655475 77.000000 28 352.815569
0.402516 -0.639912 3.657995 50.000000 27 352.815571
0.591848 -0.901154 3.491737 56.000000 25 352.815574
0.765165 -1.151193 3.316037 71.000000 23 352.815576
0.975179 -1.466623 3.293604 67.000000 21 352.815579
1.022474 -1.537758 2.784820 64.000000 19 352.815581
1.245378 -1.873007 2.768620 45.000000 17 352.815584
0.109684 -0.193696 3.678245 90.000000 30 352.815592
0.205000 -0.342470 3.673686 82.000000 29 352.815594
0.510864 -0.789632 3.655925 50.000000 26 352.815597
0.677135 -1.022221 3.388592 33.000000 24 352.815599
0.865832 -1.306610 3.303365 73.000000 22 352.815602
0.937584 -1.414366 2.845798 30.000000 20 352.815605
0.935700 -1.411528 2.316420 35.000000 18 352.815607
1.312186 -1.978729 2.652184 20.000000 16 352.815610
1.297962 -1.946934 2.379234 23.000000 15 352.815567
1.245492 -1.868233 1.892216 31.000000 13 352.815570
1.209326 -1.814671 1.514349 35.000000 11 352.815572
1.184973 -1.778132 1.204605 38.000000 9 352.815575
1.154778 -1.732822 0.929643 40.000000 7 352.815578
1.130549 -1.697107 0.688951 43.000000 5 352.815580
1.110853 -1.668170 0.471981 50.000000 3 352.815583
1.089903 -1.637329 0.269184 38.000000 1 352.815585
1.264626 -1.903401 2.115778 30.000000 14 352.815593
1.222744 -1.840369 1.692406 36.000000 12 352.815596
1.191515 -1.793365 1.350353 38.000000 10 352.815598
1.173526 -1.766295 1.067766 40.000000 8 352.815601
1.139442 -1.715643 0.805553 44.000000 6 352.815603
1.115776 -1.680646 0.577265 53.000000 4 352.815606
1.103482 -1.662758 0.370196 45.000000 2 352.815608
1.079725 -1.627576 0.172464 37.000000 0 352.815611
0.017871 -0.042010 3.679133 76.000000 31 352.815622
0.305089 -0.487318 3.655475 78.000000 28 352.815624
0.400391 -0.641244 3.657995 52.000000 27 352.815627
0.589672 -0.904362 3.496508 38.000000 25 352.815629
0.761343 -1.153724 3.316037 71.000000 23 352.815632
0.968990 -1.467849 3.289215 61.000000 21 352.815634
1.017369 -1.541141 2.784820 64.000000 19 352.815637
1.239160 -1.877126 2.768620 41.000000 17 352.815639
0.109007 -0.194077 3.678245 90.000000 30 352.815647
0.203531 -0.342724 3.668715 82.000000 29 352.815650
0.508105 -0.791411 3.655925 50.000000 26 352.815652
0.670718 -1.020253 3.374514 34.000000 24 352.815655
0.861495 -1.309474 3.303365 74.000000 22 352.815657
0.928588 -1.410931 2.833000 33.000000 20 352.815660
0.931014 -1.414623 2.316420 35.000000 18 352.815663
1.299680 -1.974802 2.641159 20.000000 16 352.815665
1.283625 -1.939332 2.365216 24.000000 15 352.815623
1.232844 -1.862615 1.882803 32.000000 13 352.815625
1.196380 -1.808210 1.506125 35.000000 11 352.815628
1.174181 -1.774662 1.199969 38.000000 9 352.815631
1.143607 -1.729108 0.925897 40.000000 7 352.815633
1.119327 -1.693039 0.686132 45.000000 5 352.815636
1.099896 -1.663649 0.470116 49.000000 3 352.815638
1.078975 -1.632625 0.268292 37.000000 1 352.815641
1.250082 -1.895115 2.102479 30.000000 14 352.815649
1.209958 -1.834291 1.683577 36.000000 12 352.815651
1.178128 -1.786716 1.342756 38.000000 10 352.815654
1.162357 -1.762802 1.063570 42.000000 8 352.815656
1.128249 -1.711724 0.802267 44.000000 6 352.815659
1.104555 -1.676413 0.574920 55.000000 4 352.815661
1.092224 -1.658328 0.368817 48.000000 2 352.815664
1.068542 -1.622989 0.172061 37.000000 0 352.815666
0.017725 -0.042072 3.679133 76.000000 31 352.815677
0.303386 -0.488380 3.655475 78.000000 28 352.815680
0.398151 -0.642637 3.657995 52.000000 27 352.815682
0.588134 -0.908923 3.506052 35.000000 25 352.815685
0.757311 -1.156375 3.316037 73.000000 23 352.815687
0.961235 -1.467215 3.280438 46.000000 21 352.815690
1.011983 -1.544683 2.784820 64.000000 19 352.815692
1.232600 -1.881440 2.768620 39.000000 17 352.815695
0.108329 -0.194457 3.678245 90.000000 30 352.815703
0.202334 -0.343433 3.668715 82.000000 29 352.815705
0.505339 -0.793180 3.655925 51.000000 26 352.815708
0.664324 -1.018252 3.360435 39.000000 24 352.815710
0.856919 -1.312474 3.303365 74.000000 22 352.815713
0.920805 -1.409797 2.824468 35.000000 20 352.815716
0.927719 -1.420388 2.320410 33.000000 18 352.815718
1.285363 -1.967973 2.626458 20.000000 16 352.815721
1.269016 -1.931878 2.351198 24.000000 15 352.815678
1.222060 -1.860399 1.876528 32.000000 13 352.815681
1.185471 -1.805384 1.500642 34.000000 11 352.815683
1.160684 -1.767640 1.193015 38.000000 9 352.815686
1.132477 -1.725339 0.922151 39.000000 7 352.815689
1.108147 -1.688914 0.683314 45.000000 5 352.815691
1.088693 -1.659265 0.468251 51.000000 3 352.815694
1.067807 -1.628052 0.267399 37.000000 1 352.815696
1.237323 -1.890093 2.092504 31.000000 14 352.815704
1.196906 -1.828358 1.674747 36.000000 12 352.815707
1.167163 -1.783602 1.337691 38.000000 10 352.815709
1.148741 -1.755456 1.057276 43.000000 8 352.815712
1.117096 -1.707748 0.798982 46.000000 6 352.815714
1.093376 -1.672122 0.572576 53.000000 4 352.815717
1.081010 -1.653840 0.367437 48.000000 2 352.815719
1.057405 -1.618345 0.171658 37.000000 0 352.815722
0.017578 -0.042134 3.679133 76.000000 31 352.815733
0.301680 -0.489436 3.655475 78.000000 28 352.815735
0.396438 -0.644891 3.662891 53.000000 27 352.815738
0.586572 -0.913484 3.515595 34.000000 25 352.815740
0.753270 -1.159011 3.316037 73.000000 23 352.815743
0.946966 -1.456501 3.249717 34.000000 21 352.815745
1.006585 -1.548206 2.784820 66.000000 19 352.815748
1.224277 -1.883044 2.764784 39.000000 17 352.815751
0.107650 -0.194834 3.678245 92.000000 30 352.815758
0.201134 -0.344137 3.668715 83.000000 29 352.815761
0.502567 -0.794939 3.655925 52.000000 26 352.815763
0.658890 -1.017668 3.351050 45.000000 24 352.815766
0.851148 -1.313629 3.298864 73.000000 22 352.815769
0.914459 -1.410814 2.820202 39.000000 20 352.815771
0.924394 -1.426146 2.324399 31.000000 18 352.815774
1.271110 -1.961068 2.611758 21.000000 16 352.815776
1.254474 -1.924346 2.337179 25.000000 15 352.815734
1.209181 -1.854870 1.867114 32.000000 13 352.815736
1.172313 -1.799001 1.492418 35.000000 11 352.815739
1.149669 -1.764258 1.188379 38.000000 9 352.815742
1.121387 -1.721512 0.918404 40.000000 7 352.815744
1.097009 -1.684731 0.680495 46.000000 5 352.815747
1.077534 -1.654822 0.466385 49.000000 3 352.815749
1.056684 -1.623422 0.266507 37.000000 1 352.815752
1.222580 -1.881875 2.079205 31.000000 14 352.815760
1.186113 -1.825746 1.668861 37.000000 12 352.815762
1.153886 -1.776819 1.330094 38.000000 10 352.815765
1.137663 -1.751842 1.053080 43.000000 8 352.815767
1.105986 -1.703715 0.795696 46.000000 6 352.815770
1.082241 -1.667774 0.570231 55.000000 4 352.815772
1.069840 -1.649294 0.366057 48.000000 2 352.815775
1.049032 -1.617834 0.171456 37.000000 0 352.815777
0.017431 -0.042195 3.679133 76.000000 31 352.815788
0.299969 -0.490486 3.655475 78.000000 28 352.815791
0.394184 -0.646271 3.662891 53.000000 27 352.815793
0.584985 -0.918046 3.525139 34.000000 25 352.815796
0.749220 -1.161633 3.316037 68.000000 23 352.815798
0.936681 -1.451746 3.232162 27.000000 21 352.815801
0.999649 -1.549345 2.780687 64.000000 19 352.815803
1.215959 -1.884612 2.760947 37.000000 17 352.815806
0.106969 -0.195208 3.678245 91.000000 30 352.815814
0.199931 -0.344837 3.668715 83.000000 29 352.815816
0.499789 -0.796688 3.655925 52.000000 26 352.815819
0.654401 -1.018509 3.346357 59.000000 24 352.815821
0.846557 -1.316592 3.298864 71.000000 22 352.815824
0.906707 -1.409611 2.811670 42.000000 20 352.815827
0.921041 -1.431899 2.328389 29.000000 18 352.815829
1.258755 -1.956939 2.600732 21.000000 16 352.815832
1.241938 -1.919730 2.326666 25.000000 15 352.815789
1.196355 -1.849274 1.857701 33.000000 13 352.815792
1.161485 -1.796060 1.486935 35.000000 11 352.815795
1.138693 -1.760820 1.183743 38.000000 9 352.815797
1.107820 -1.713736 0.912785 40.000000 7 352.815800
1.085914 -1.680492 0.677677 46.000000 5 352.815802
1.066419 -1.650321 0.464520 49.000000 3 352.815805
1.048309 -1.622918 0.266061 37.000000 1 352.815807
1.209933 -1.876715 2.069230 31.000000 14 352.815815
1.173162 -1.819684 1.660031 37.000000 12 352.815818
1.143005 -1.773588 1.325029 38.000000 10 352.815820
1.126624 -1.748173 1.048884 43.000000 8 352.815823
1.094917 -1.699625 0.792411 44.000000 6 352.815825
1.073781 -1.667455 0.569059 55.000000 4 352.815828
1.058715 -1.644691 0.364678 48.000000 2 352.815830
1.037971 -1.613083 0.171053 37.000000 0 352.815833
0.017296 -0.042297 3.684133 76.000000 31 352.815844
0.298256 -0.491530 3.655475 77.000000 28 352.815846
0.391926 -0.647643 3.662891 52.000000 27 352.815849
0.583373 -0.922607 3.534683 34.000000 25 352.815851
0.745161 -1.164242 3.316037 68.000000 23 352.815854
0.925148 -1.444918 3.210219 25.000000 21 352.815856
0.994234 -1.552825 2.780687 64.000000 19 352.815859
1.207644 -1.886145 2.757110 36.000000 17 352.815862
0.106287 -0.195581 3.678245 91.000000 30 352.815869
0.198726 -0.345532 3.668715 82.000000 29 352.815872
0.497005 -0.798428 3.655925 52.000000 26 352.815874
0.649914 -1.019333 3.341664 61.000000 24 352.815877
0.841956 -1.319539 3.298864 71.000000 22 352.815880
0.900378 -1.410569 2.807404 56.000000 20 352.815882
0.917659 -1.437646 2.332378 27.000000 18 352.815885
1.244620 -1.949891 2.586031 22.000000 16 352.815887
1.227523 -1.912050 2.312648 25.000000 15 352.815845
1.185687 -1.846887 1.851425 33.000000 13 352.815847
1.148433 -1.789546 1.478710 35.000000 11 352.815850
1.125361 -1.753599 1.176788 39.000000 9 352.815853
1.096825 -1.709789 0.909039 43.000000 7 352.815855
1.074862 -1.676196 0.674859 45.000000 5 352.815858
1.058000 -1.649899 0.463588 47.000000 3 352.815860
1.037263 -1.618182 0.265168 37.000000 1 352.815863
1.195325 -1.868345 2.055931 31.000000 14 352.815871
1.160268 -1.813553 1.651202 37.000000 12 352.815873
1.129839 -1.766671 1.317432 38.000000 10 352.815876
1.113179 -1.740625 1.042590 43.000000 8 352.815878
1.083890 -1.695479 0.789126 46.000000 6 352.815881
1.062719 -1.663001 0.566714 55.000000 4 352.815883
1.047636 -1.640030 0.363298 50.000000 2 352.815886
1.026957 -1.608275 0.170650 37.000000 0 352.815889
0.017148 -0.042358 3.684133 76.000000 31 352.815899
0.296538 -0.492569 3.655475 78.000000 28 352.815902
0.389663 -0.649007 3.662891 52.000000 27 352.815904
0.581736 -0.927168 3.544226 34.000000 25 352.815907
0.741092 -1.166836 3.316037 71.000000 23 352.815909
0.913675 -1.438028 3.188276 23.000000 21 352.815912
0.988808 -1.556286 2.780687 62.000000 19 352.815915
1.197614 -1.884937 2.749436 33.000000 17 352.815917
0.105603 -0.195950 3.678245 91.000000 30 352.815925
0.197519 -0.346224 3.668715 82.000000 29 352.815927
0.494215 -0.800158 3.655925 49.000000 26 352.815930
0.645429 -1.020136 3.336972 63.000000 24 352.815933
0.837345 -1.322470 3.298864 73.000000 22 352.815935
0.894053 -1.411500 2.803138 58.000000 20 352.815938
0.912635 -1.440841 2.332378 25.000000 18 352.815940
1.230550 -1.942768 2.571331 22.000000 16 352.815943
1.215093 -1.907299 2.302134 25.000000 15 352.815900
1.172958 -1.841165 1.842012 33.000000 13 352.815903
1.135441 -1.782963 1.470486 35.000000 11 352.815906
1.114474 -1.750043 1.172152 39.000000 9 352.815908
1.085871 -1.705785 0.905293 42.000000 7 352.815911
1.063854 -1.671843 0.672040 46.000000 5 352.815913
1.046960 -1.645293 0.461722 49.000000 3 352.815916
1.028935 -1.617591 0.264722 37.000000 1 352.815918
1.182791 -1.863047 2.045956 31.000000 14 352.815926
1.147431 -1.807355 1.642372 37.000000 12 352.815929
1.119045 -1.763324 1.312367 38.000000 10 352.815931
1.102232 -1.736836 1.038394 43.000000 8 352.815934
1.072906 -1.691277 0.785840 48.000000 6 352.815936
1.051702 -1.658491 0.564369 55.000000 4 352.815939
1.036602 -1.635311 0.361919 50.000000 2 352.815941
1.018662 -1.607630 0.170449 37.000000 0 352.815944
0.017000 -0.042417 3.684133 77.000000 31 352.815955
0.294817 -0.493601 3.655475 79.000000 28 352.815957
0.387395 -0.650363 3.662891 53.000000 27 352.815960
0.580074 -0.931729 3.553769 34.000000 25 352.815962
0.735973 -1.167762 3.311435 73.000000 23 352.815965
0.903539 -1.433102 3.170721 23.000000 21 352.815967
0.983370 -1.559729 2.780687 62.000000 19 352.815970
1.202996 -1.908089 2.776294 30.000000 17 352.815973
0.104919 -0.196318 3.678245 90.000000 30 352.815980
0.196309 -0.346911 3.668715 83.000000 29 352.815983
0.490762 -0.800806 3.651086 49.000000 26 352.815985
0.641865 -1.022383 3.336972 67.000000 24 352.815988
0.833882 -1.327229 3.303365 73.000000 22 352.815991
0.889121 -1.414612 2.803138 62.000000 20 352.815993
0.910807 -1.449121 2.340357 23.000000 18 352.815996
1.216545 -1.935570 2.556630 23.000000 16 352.815998
1.202711 -1.902486 2.291620 26.000000 15 352.815956
1.160283 -1.835377 1.832599 33.000000 13 352.815959
1.124743 -1.779846 1.465003 35.000000 11 352.815961
1.103625 -1.746432 1.167516 39.000000 9 352.815964
1.074959 -1.701727 0.901547 40.000000 7 352.815966
1.052889 -1.667433 0.669222 42.000000 5 352.815969
1.035965 -1.640630 0.459857 51.000000 3 352.815971
1.017966 -1.612750 0.263830 37.000000 1 352.815974
1.170309 -1.857686 2.035981 32.000000 14 352.815982
1.136806 -1.804510 1.636486 37.000000 12 352.815984
1.105991 -1.756275 1.304770 38.000000 10 352.815987
1.091326 -1.732992 1.034198 45.000000 8 352.815989
1.061964 -1.687018 0.782555 48.000000 6 352.815992
1.043317 -1.658038 0.563197 55.000000 4 352.815994
1.028251 -1.634728 0.361229 48.000000 2 352.815997
1.007726 -1.602717 0.170046 37.000000 0 352.816000
0.016852 -0.042476 3.684133 77.000000 31 352.816010
0.293092 -0.494627 3.655475 79.000000 28 352.816013
0.384605 -0.650835 3.657995 53.000000 27 352.816015
0.578388 -0.936290 3.563313 35.000000 25 352.816018
0.731892 -1.170324 3.311435 73.000000 23 352.816020
0.893449 -1.428123 3.153167 24.000000 21 352.816023
0.977919 -1.563152 2.780687 64.000000 19 352.816026
1.199728 -1.917713 2.783968 26.000000 17 352.816028
0.104267 -0.196665 3.678245 91.000000 30 352.816036
0.195158 -0.347561 3.668715 82.000000 29 352.816038
0.488104 -0.802429 3.651086 52.000000 26 352.816041
0.637558 -1.023042 3.332278 64.000000 24 352.816044
0.829244 -1.330132 3.303365 73.000000 22 352.816046
0.882797 -1.415494 2.798872 62.000000 20 352.816049
0.908933 -1.457406 2.348337 21.000000 18 352.816051
1.202942 -1.928089 2.541929 23.000000 16 352.816054
1.188482 -1.894589 2.277602 26.000000 15 352.816011
1.149732 -1.832820 1.826323 33.000000 13 352.816014
1.111860 -1.773134 1.456779 36.000000 11 352.816017
1.092815 -1.742767 1.162880 39.000000 9 352.816019
1.064384 -1.697427 0.897801 40.000000 7 352.816022
1.042258 -1.662786 0.666403 43.000000 5 352.816024
1.025015 -1.635911 0.457992 49.000000 3 352.816027
1.007043 -1.607852 0.262937 37.000000 1 352.816029
1.157879 -1.852260 2.026007 32.000000 14 352.816037
1.124073 -1.798184 1.627657 37.000000 12 352.816040
1.095591 -1.752621 1.299705 39.000000 10 352.816042
1.080762 -1.728904 1.030001 42.000000 8 352.816045
1.051359 -1.682521 0.779270 48.000000 6 352.816047
1.032663 -1.653244 0.560852 55.000000 4 352.816050
1.017579 -1.629727 0.359849 46.000000 2 352.816053
0.997115 -1.597574 0.169643 37.000000 0 352.816055
0.016711 -0.042532 3.684133 77.000000 31 352.816066
0.291450 -0.495596 3.655475 78.000000 28 352.816068
0.382445 -0.652106 3.657995 53.000000 27 352.816071
0.576841 -0.940749 3.572856 35.000000 25 352.816073
0.728007 -1.172745 3.311435 73.000000 23 352.816076
0.882389 -1.420902 3.131223 24.000000 21 352.816079
0.972730 -1.566386 2.780687 64.000000 19 352.816081
1.206893 -1.943469 2.814664 18.000000 17 352.816084
0.103580 -0.197027 3.678245 91.000000 30 352.816091
0.193943 -0.348240 3.668715 82.000000 29 352.816094
0.485300 -0.804127 3.651086 51.000000 26 352.816097
0.633983 -1.025261 3.332278 64.000000 24 352.816099
0.824829 -1.332874 3.303365 73.000000 22 352.816102
0.878099 -1.418414 2.798872 60.000000 20 352.816104
0.915200 -1.478351 2.376263 18.000000 18 352.816107
1.189067 -1.920746 2.527229 23.000000 16 352.816109
1.176538 -1.889437 2.267089 27.000000 15 352.816067
1.137475 -1.826709 1.816910 33.000000 13 352.816070
1.101554 -1.769711 1.451296 36.000000 11 352.816072
1.080006 -1.735098 1.155926 39.000000 9 352.816075
1.053554 -1.693259 0.894055 42.000000 7 352.816077
1.031380 -1.658267 0.663585 45.000000 5 352.816080
1.014396 -1.630959 0.456127 47.000000 3 352.816082
0.996447 -1.602724 0.262045 37.000000 1 352.816085
1.145824 -1.846570 2.016032 31.000000 14 352.816093
1.111710 -1.791598 1.618827 37.000000 12 352.816095
1.082649 -1.745444 1.292108 38.000000 10 352.816098
1.069936 -1.724952 1.025805 42.000000 8 352.816100
1.040502 -1.678153 0.775984 50.000000 6 352.816103
1.021765 -1.648576 0.558508 57.000000 4 352.816105
1.006668 -1.624850 0.358469 48.000000 2 352.816108
0.986272 -1.592550 0.169239 37.000000 0 352.816111
0.016563 -0.042590 3.684133 78.000000 31 352.816122
0.289718 -0.496610 3.655475 78.000000 28 352.816125
0.380166 -0.653437 3.657995 52.000000 27 352.816127
0.575106 -0.945309 3.582400 35.000000 25 352.816130
0.722885 -1.173616 3.306832 71.000000 23 352.816132
0.872396 -1.415815 3.113669 24.000000 21 352.816135
0.967256 -1.569772 2.780687 64.000000 19 352.816137
1.191693 -1.934023 2.795479 16.000000 17 352.816140
0.102892 -0.197388 3.678245 91.000000 30 352.816148
0.192727 -0.348915 3.668715 82.000000 29 352.816150
0.482490 -0.805817 3.651086 49.000000 26 352.816153
0.630400 -1.027468 3.332278 66.000000 24 352.816155
0.819032 -1.333890 3.298864 73.000000 22 352.816158
0.871777 -1.419248 2.794606 60.000000 20 352.816160
0.928964 -1.512355 2.424137 17.000000 18 352.816163
1.175257 -1.913330 2.512528 23.000000 16 352.816166
1.164312 -1.884431 2.256575 27.000000 15 352.816123
1.124953 -1.820733 1.807497 33.000000 13 352.816126
1.090976 -1.766430 1.445813 36.000000 11 352.816128
1.069287 -1.731319 1.151290 39.000000 9 352.816131
1.042766 -1.689037 0.890309 42.000000 7 352.816134
1.020547 -1.653692 0.660767 43.000000 5 352.816136
1.003537 -1.626129 0.454261 47.000000 3 352.816139
0.985617 -1.597716 0.261152 37.000000 1 352.816141
1.135455 -1.844199 2.009383 32.000000 14 352.816149
1.099092 -1.785142 1.609998 37.000000 12 352.816152
1.072030 -1.741869 1.287043 38.000000 10 352.816154
1.056772 -1.717081 1.019511 42.000000 8 352.816157
1.032164 -1.677753 0.774342 52.000000 6 352.816159
1.008366 -1.639711 0.554991 58.000000 4 352.816162
0.995803 -1.619916 0.357090 46.000000 2 352.816164
0.978091 -1.591726 0.169038 37.000000 0 352.816167
0.016414 -0.042647 3.684133 78.000000 31 352.816178
0.287983 -0.497619 3.655475 79.000000 28 352.816180
0.377883 -0.654760 3.657995 54.000000 27 352.816183
0.573346 -0.949868 3.591943 36.000000 25 352.816185
0.718784 -1.176132 3.306832 71.000000 23 352.816188
0.862450 -1.410675 3.096114 24.000000 21 352.816190
0.961771 -1.573138 2.780687 64.000000 19 352.816193
1.179918 -1.929965 2.783968 15.000000 17 352.816195
0.102070 -0.197488 3.673253 91.000000 30 352.816203
0.191252 -0.349116 3.663743 83.000000 29 352.816206
0.479674 -0.807496 3.651086 49.000000 26 352.816208
0.626810 -1.029662 3.332278 66.000000 24 352.816211
0.814371 -1.336740 3.298864 72.000000 22 352.816213
0.866818 -1.422282 2.794606 62.000000 20 352.816216
0.951912 -1.561914 2.495948 17.000000 18 352.816219
1.161514 -1.905841 2.497828 23.000000 16 352.816221
1.152135 -1.879362 2.246061 28.000000 15 352.816179
1.112487 -1.814692 1.798083 34.000000 13 352.816181
1.078249 -1.759532 1.437588 36.000000 11 352.816184
1.058608 -1.727486 1.146654 39.000000 9 352.816186
1.032021 -1.684760 0.886563 42.000000 7 352.816189
1.009758 -1.649062 0.657948 45.000000 5 352.816192
0.995289 -1.625433 0.453329 44.000000 3 352.816194
0.977434 -1.596899 0.260706 34.000000 1 352.816197
1.123171 -1.838591 1.999408 32.000000 14 352.816204
1.086533 -1.778620 1.601168 37.000000 12 352.816207
1.061450 -1.738241 1.281978 39.000000 10 352.816210
1.046041 -1.713013 1.015315 42.000000 8 352.816212
1.021380 -1.673284 0.771056 52.000000 6 352.816215
0.997572 -1.634922 0.552646 58.000000 4 352.816217
0.984985 -1.614927 0.355710 45.000000 2 352.816220
0.967328 -1.586600 0.168635 37.000000 0 352.816222
0.016265 -0.042705 3.684133 70.000000 31 352.816233
0.286244 -0.498621 3.655475 79.000000 28 352.816236
0.375595 -0.656076 3.657995 54.000000 27 352.816238
0.571562 -0.954426 3.601486 38.000000 25 352.816241
0.714674 -1.178634 3.306832 71.000000 23 352.816243
0.851308 -1.403435 3.074171 24.000000 21 352.816246
0.956274 -1.576486 2.780687 62.000000 19 352.816248
1.149897 -1.895697 2.730251 12.000000 17 352.816251
0.101380 -0.197843 3.673253 90.000000 30 352.816259
0.190032 -0.349782 3.663743 83.000000 29 352.816261
0.476853 -0.809165 3.651086 49.000000 26 352.816264
0.622320 -1.030366 3.327586 66.000000 24 352.816266
0.809700 -1.339575 3.298864 72.000000 22 352.816269
0.861848 -1.425299 2.794606 62.000000 20 352.816272
0.988561 -1.634863 2.603664 23.000000 18 352.816274
1.147838 -1.898280 2.483127 19.000000 16 352.816277
1.138155 -1.871185 2.232043 27.000000 15 352.816234
1.100077 -1.808587 1.788670 33.000000 13 352.816237
1.067756 -1.756139 1.432106 36.000000 11 352.816239
1.047968 -1.723600 1.142018 39.000000 9 352.816242
1.021318 -1.680429 0.882817 40.000000 7 352.816245
0.999014 -1.644377 0.655130 45.000000 5 352.816247
0.984508 -1.620501 0.451464 46.000000 3 352.816250
0.966684 -1.591788 0.259814 34.000000 1 352.816252
1.110939 -1.832919 1.989434 32.000000 14 352.816260
1.076127 -1.775488 1.595282 37.000000 12 352.816263
1.048674 -1.730874 1.274381 39.000000 10 352.816265
1.035351 -1.708890 1.011119 42.000000 8 352.816268
1.010640 -1.668760 0.767771 52.000000 6 352.816270
0.986825 -1.630079 0.550301 57.000000 4 352.816273
0.976778 -1.614118 0.355020 43.000000 2 352.816275
0.956612 -1.581417 0.168232 37.000000 0 352.816278
0.016116 -0.042761 3.684133 70.000000 31 352.816289
0.284886 -0.500292 3.660414 79.000000 28 352.816291
0.373302 -0.657383 3.657995 53.000000 27 352.816294
0.568989 -0.957700 3.606258 40.000000 25 352.816296
0.710555 -1.181121 3.306832 73.000000 23 352.816299
0.841463 -1.398187 3.056616 24.000000 21 352.816301
0.950765 -1.579815 2.780687 62.000000 19 352.816304
1.103598 -1.833775 2.638164 9.000000 17 352.816306
0.100689 -0.198196 3.673253 91.000000 30 352.816314
0.188810 -0.350443 3.663743 83.000000 29 352.816317
0.474025 -0.810825 3.651086 52.000000 26 352.816319
0.618719 -1.032532 3.327586 66.000000 24 352.816322
0.805019 -1.342393 3.298864 73.000000 22 352.816324
0.856867 -1.428299 2.794606 64.000000 20 352.816327
1.020060 -1.700333 2.699412 34.000000 18 352.816330
1.134228 -1.890646 2.468426 14.000000 16 352.816332
1.124246 -1.862933 2.218025 19.000000 15 352.816290
1.089734 -1.805750 1.782394 34.000000 13 352.816292
1.057299 -1.752695 1.426623 36.000000 11 352.816295
1.035080 -1.715867 1.135064 39.000000 9 352.816298
1.010659 -1.676044 0.879071 42.000000 7 352.816300
0.988314 -1.639636 0.652311 45.000000 5 352.816303
0.973774 -1.615514 0.449598 46.000000 3 352.816305
0.955981 -1.586621 0.258921 36.000000 1 352.816308
1.098761 -1.827186 1.979459 32.000000 14 352.816316
1.063674 -1.768842 1.586452 37.000000 12 352.816318
1.038183 -1.727134 1.269316 39.000000 10 352.816321
1.024704 -1.704714 1.006923 43.000000 8 352.816323
1.002377 -1.668230 0.766128 52.000000 6 352.816326
0.978626 -1.629346 0.549129 61.000000 4 352.816328
0.966040 -1.609027 0.353641 46.000000 2 352.816331
0.945944 -1.576179 0.167829 37.000000 0 352.816333
0.015966 -0.042817 3.684133 78.000000 31 352.816344
0.283138 -0.501284 3.660414 75.000000 28 352.816347
0.371005 -0.658682 3.657995 53.000000 27 352.816349
0.567159 -0.962254 3.615802 55.000000 25 352.816352
0.706428 -1.183594 3.306832 73.000000 23 352.816354
0.831664 -1.392888 3.039062 24.000000 21 352.816357
0.943802 -1.580708 2.776554 64.000000 19 352.816359
1.046242 -1.752285 2.519219 8.000000 17 352.816362
0.099997 -0.198546 3.673253 92.000000 30 352.816370
0.187586 -0.351100 3.663743 83.000000 29 352.816372
0.470561 -0.811386 3.646246 50.000000 26 352.816375
0.615111 -1.034686 3.327586 68.000000 24 352.816377
0.800328 -1.345195 3.298864 73.000000 22 352.816380
0.850542 -1.429040 2.790340 66.000000 20 352.816383
1.029533 -1.729783 2.739307 39.000000 18 352.816385
1.120686 -1.882941 2.453726 7.000000 16 352.816388
1.108576 -1.851547 2.200502 13.000000 15 352.816345
1.077425 -1.799523 1.772981 34.000000 13 352.816348
1.046880 -1.749199 1.421139 37.000000 11 352.816350
1.024534 -1.711867 1.130428 39.000000 9 352.816353
1.002422 -1.675583 0.877198 43.000000 7 352.816356
0.980123 -1.638959 0.650902 45.000000 5 352.816358
0.963087 -1.610471 0.447733 48.000000 3 352.816361
0.947882 -1.585674 0.258475 37.000000 1 352.816363
1.086636 -1.821388 1.969484 32.000000 14 352.816371
1.053352 -1.765602 1.580566 37.000000 12 352.816374
1.027732 -1.723342 1.264251 39.000000 10 352.816376
1.014098 -1.700485 1.002727 40.000000 8 352.816379
0.991711 -1.663606 0.762843 52.000000 6 352.816381
0.967956 -1.624402 0.546785 61.000000 4 352.816384
0.957883 -1.608134 0.352951 45.000000 2 352.816386
0.935325 -1.570886 0.167426 37.000000 0 352.816389
0.015817 -0.042872 3.684133 79.000000 31 352.816400
0.281386 -0.502269 3.660414 75.000000 28 352.816402
0.368704 -0.659973 3.657995 53.000000 27 352.816405
0.564551 -0.965517 3.620573 65.000000 25 352.816407
0.702292 -1.186053 3.306832 73.000000 23 352.816410
0.821913 -1.387538 3.021507 24.000000 21 352.816412
0.938279 -1.583992 2.776554 64.000000 19 352.816415
0.973131 -1.642836 2.361904 8.000000 17 352.816418
0.099338 -0.198876 3.673253 92.000000 30 352.816425
0.186420 -0.351720 3.663743 84.000000 29 352.816428
0.467868 -0.812942 3.646246 46.000000 26 352.816430
0.611677 -1.036720 3.327586 68.000000 24 352.816433
0.795627 -1.347980 3.298864 73.000000 22 352.816436
0.845549 -1.432001 2.790340 64.000000 20 352.816438
1.031151 -1.746343 2.759255 55.000000 18 352.816441
1.109263 -1.877890 2.442700 6.000000 16 352.816443
1.093000 -1.840075 2.182980 7.000000 15 352.816401
1.065173 -1.793232 1.763567 32.000000 13 352.816403
1.036498 -1.745652 1.415657 37.000000 11 352.816406
1.014029 -1.707814 1.125792 39.000000 9 352.816409
0.992126 -1.670926 0.873452 43.000000 7 352.816411
0.969785 -1.633949 0.648084 45.000000 5 352.816414
0.952446 -1.605374 0.445868 50.000000 3 352.816416
0.937261 -1.580406 0.257583 36.000000 1 352.816419
1.074566 -1.815530 1.959510 32.000000 14 352.816427
1.043064 -1.762311 1.574680 37.000000 12 352.816429
1.017619 -1.719320 1.259186 39.000000 10 352.816432
1.003830 -1.696027 0.998531 42.000000 8 352.816434
0.981380 -1.658756 0.759557 52.000000 6 352.816437
0.960090 -1.623419 0.545612 61.000000 4 352.816439
0.947505 -1.602776 0.351571 45.000000 2 352.816442
0.927569 -1.569678 0.167224 37.000000 0 352.816444
0.015675 -0.042925 3.684133 76.000000 31 352.816455
0.279342 -0.502520 3.655475 79.000000 28 352.816458
0.366513 -0.661192 3.657995 49.000000 27 352.816460
0.561346 -0.967384 3.620573 61.000000 25 352.816463
0.698355 -1.188375 3.306832 73.000000 23 352.816465
0.812451 -1.381994 3.003952 24.000000 21 352.816468
0.933021 -1.587095 2.776554 64.000000 19 352.816470
0.943307 -1.604598 2.304350 11.000000 17 352.816473
0.098643 -0.199222 3.673253 92.000000 30 352.816481
0.185439 -0.352842 3.668715 85.000000 29 352.816483
0.465027 -0.814571 3.646246 45.000000 26 352.816486
0.608054 -1.038849 3.327586 66.000000 24 352.816488
0.791153 -1.350612 3.298864 74.000000 22 352.816491
0.840796 -1.434797 2.790340 64.000000 20 352.816494
1.026878 -1.752353 2.763244 57.000000 18 352.816496
1.095846 -1.870051 2.427999 6.000000 16 352.816499
1.079648 -1.831401 2.168962 7.000000 15 352.816456
1.053289 -1.786694 1.754154 32.000000 13 352.816459
1.024335 -1.738272 1.407432 37.000000 11 352.816462
1.003862 -1.703534 1.121156 39.000000 9 352.816464
0.981582 -1.666390 0.869706 45.000000 7 352.816467
0.961642 -1.633191 0.646675 45.000000 5 352.816469
0.944625 -1.604290 0.444935 48.000000 3 352.816472
0.926963 -1.574922 0.256690 36.000000 1 352.816474
1.064756 -1.812643 1.952860 32.000000 14 352.816482
1.031073 -1.755305 1.565850 37.000000 12 352.816485
1.007246 -1.715427 1.254121 39.000000 10 352.816487
0.993307 -1.691693 0.994335 40.000000 8 352.816490
0.970803 -1.654026 0.756272 52.000000 6 352.816492
0.949498 -1.618376 0.543268 61.000000 4 352.816495
0.939399 -1.601802 0.350881 45.000000 2 352.816497
0.917031 -1.564287 0.166821 37.000000 0 352.816500
0.015525 -0.042979 3.684133 76.000000 31 352.816511
0.277587 -0.503492 3.655475 79.000000 28 352.816513
0.364203 -0.662467 3.657995 49.000000 27 352.816516
0.558711 -0.970632 3.625345 51.000000 25 352.816518
0.694203 -1.190806 3.306832 73.000000 23 352.816521
0.804001 -1.378613 2.990786 24.000000 21 352.816523
0.927475 -1.590342 2.776554 62.000000 19 352.816526
0.939315 -1.610650 2.308187 13.000000 17 352.816529
0.097947 -0.199565 3.673253 93.000000 30 352.816536
0.184206 -0.353487 3.668715 84.000000 29 352.816539
0.462181 -0.816189 3.646246 45.000000 26 352.816541
0.604424 -1.040965 3.327586 69.000000 24 352.816544
0.786434 -1.353365 3.298864 74.000000 22 352.816547
0.835782 -1.437723 2.790340 64.000000 20 352.816549
1.020755 -1.755927 2.763244 57.000000 18 352.816552
1.084200 -1.865072 2.416974 6.000000 16 352.816554
1.066047 -1.822845 2.154943 7.000000 15 352.816512
1.041151 -1.780278 1.744741 34.000000 13 352.816514
1.014041 -1.734617 1.401949 37.000000 11 352.816517
0.993437 -1.699378 1.116520 39.000000 9 352.816520
0.971081 -1.661801 0.865960 45.000000 7 352.816522
0.951096 -1.628253 0.643856 46.000000 5 352.816525
0.934064 -1.599095 0.443070 48.000000 3 352.816527
0.918948 -1.573848 0.256244 36.000000 1 352.816530
1.052782 -1.806669 1.942886 33.000000 14 352.816538
1.020869 -1.751909 1.559964 37.000000 12 352.816540
0.996912 -1.711481 1.249056 39.000000 10 352.816543
0.982827 -1.687307 0.990138 40.000000 8 352.816545
0.960271 -1.649243 0.752987 52.000000 6 352.816548
0.938953 -1.613278 0.540923 59.000000 4 352.816550
0.928821 -1.596510 0.349502 45.000000 2 352.816553
0.909053 -1.563159 0.166620 37.000000 0 352.816556
0.015375 -0.043033 3.684133 78.000000 31 352.816566
0.275827 -0.504458 3.655475 79.000000 28 352.816569
0.361402 -0.662840 3.653100 53.000000 27 352.816571
0.556059 -0.973873 3.630117 36.000000 25 352.816574
0.690042 -1.193222 3.306832 73.000000 23 352.816576
0.794385 -1.373116 2.973232 24.000000 21 352.816579
0.923327 -1.596006 2.780687 62.000000 19 352.816582
0.932082 -1.611144 2.304350 15.000000 17 352.816584
0.097250 -0.199906 3.673253 92.000000 30 352.816592
0.182971 -0.354128 3.668715 83.000000 29 352.816594
0.459329 -0.817797 3.646246 50.000000 26 352.816597
0.600787 -1.043068 3.327586 66.000000 24 352.816600
0.781705 -1.356102 3.298864 76.000000 22 352.816602
0.830758 -1.440632 2.790340 62.000000 20 352.816605
1.014620 -1.759479 2.763244 57.000000 18 352.816607
1.072602 -1.860035 2.405948 6.000000 16 352.816610
1.054309 -1.817301 2.144429 7.000000 15 352.816567
1.031023 -1.777167 1.738465 34.000000 13 352.816570
1.003784 -1.730912 1.396466 37.000000 11 352.816573
0.983054 -1.695171 1.111884 39.000000 9 352.816575
0.960624 -1.657159 0.862213 44.000000 7 352.816578
0.943001 -1.627412 0.642447 48.000000 5 352.816580
0.926014 -1.598095 0.442137 46.000000 3 352.816583
0.908457 -1.568427 0.255352 36.000000 1 352.816585
1.042732 -1.803867 1.936236 33.000000 14 352.816593
1.010702 -1.748463 1.554078 37.000000 12 352.816596
0.986618 -1.707485 1.243992 39.000000 10 352.816598
0.972390 -1.682868 0.985942 40.000000 8 352.816601
0.949784 -1.644406 0.749701 52.000000 6 352.816603
0.930886 -1.612337 0.539751 57.000000 4 352.816606
0.918292 -1.591164 0.348122 46.000000 2 352.816608
0.898598 -1.557668 0.166217 37.000000 0 352.816611
0.015224 -0.043086 3.684133 78.000000 31 352.816622
0.274065 -0.505418 3.655475 80.000000 28 352.816624
0.359086 -0.664098 3.653100 52.000000 27 352.816627
0.553393 -0.977108 3.634888 30.000000 25 352.816629
0.685872 -1.195623 3.306832 73.000000 23 352.816632
0.784818 -1.367569 2.955677 25.000000 21 352.816634
0.917751 -1.599219 2.780687 62.000000 19 352.816637
0.924857 -1.611607 2.300513 17.000000 17 352.816640
0.096551 -0.200244 3.673253 92.000000 30 352.816647
0.181976 -0.355240 3.673686 85.000000 29 352.816650
0.456472 -0.819396 3.646246 49.000000 26 352.816652
0.597142 -1.045159 3.327586 68.000000 24 352.816655
0.776966 -1.358822 3.298864 74.000000 22 352.816658
0.825725 -1.443523 2.790340 62.000000 20 352.816660
1.008472 -1.763010 2.763244 61.000000 18 352.816663
1.059370 -1.851996 2.391248 7.000000 16 352.816665
1.044401 -1.814788 2.137420 7.000000 15 352.816623
1.018988 -1.770634 1.729052 34.000000 13 352.816626
0.993566 -1.727156 1.390983 37.000000 11 352.816628
0.972713 -1.690912 1.107248 39.000000 9 352.816631
0.952523 -1.656483 0.860340 45.000000 7 352.816633
0.932533 -1.622375 0.639629 48.000000 5 352.816636
0.915534 -1.592800 0.440272 48.000000 3 352.816638
0.900496 -1.567270 0.254906 36.000000 1 352.816641
1.030856 -1.797777 1.926261 33.000000 14 352.816649
1.000572 -1.744967 1.548191 37.000000 12 352.816651
0.976364 -1.703438 1.238927 39.000000 10 352.816654
0.964253 -1.682314 0.983844 43.000000 8 352.816656
0.939343 -1.639516 0.746416 52.000000 6 352.816659
0.920421 -1.607140 0.537406 57.000000 4 352.816661
0.910272 -1.590062 0.347432 43.000000 2 352.816664
0.890674 -1.556459 0.166015 37.000000 0 352.816667
0.015074 -0.043139 3.684133 77.000000 31 352.816677
0.272299 -0.506371 3.655475 80.000000 28 352.816680
0.356765 -0.665347 3.653100 52.000000 27 352.816682
0.550710 -0.980336 3.639660 27.000000 25 352.816685
0.681695 -1.198010 3.306832 69.000000 23 352.816687
0.775298 -1.361972 2.938122 25.000000 21 352.816690
0.912163 -1.602413 2.780687 62.000000 19 352.816693
0.916054 -1.609254 2.292840 19.000000 17 352.816695
0.095887 -0.200563 3.673253 91.000000 30 352.816703
0.180797 -0.355841 3.673686 86.000000 29 352.816705
0.454360 -0.822006 3.651086 49.000000 26 352.816708
0.592822 -1.045632 3.322893 68.000000 24 352.816711
0.772218 -1.361526 3.298864 72.000000 22 352.816713
0.819394 -1.444128 2.786074 64.000000 20 352.816716
1.002311 -1.766519 2.763244 59.000000 18 352.816718
1.048202 -1.846654 2.380222 7.000000 16 352.816721
1.032756 -1.809131 2.126907 7.000000 15 352.816678
1.008941 -1.767418 1.722777 34.000000 13 352.816681
0.983386 -1.723351 1.385501 37.000000 11 352.816684
0.962413 -1.686601 1.102612 39.000000 9 352.816686
0.942429 -1.651580 0.856594 45.000000 7 352.816689
0.924771 -1.621292 0.638219 50.000000 5 352.816691
0.907535 -1.591719 0.439339 48.000000 3 352.816694
0.890088 -1.561751 0.254013 35.000000 1 352.816696
1.020882 -1.794872 1.919612 33.000000 14 352.816704
0.988479 -1.737909 1.539362 37.000000 12 352.816707
0.966447 -1.699171 1.233862 39.000000 10 352.816709
0.954182 -1.677612 0.979648 45.000000 8 352.816712
0.929233 -1.634412 0.743131 50.000000 6 352.816714
0.910283 -1.601732 0.535061 57.000000 4 352.816717
0.900102 -1.584460 0.346053 43.000000 2 352.816720
0.883041 -1.555060 0.165813 37.000000 0 352.816722
0.014931 -0.043189 3.684133 77.000000 31 352.816733
0.270618 -0.507271 3.655475 79.000000 28 352.816735
0.354557 -0.666526 3.653100 53.000000 27 352.816738
0.548910 -0.984766 3.649204 24.000000 25 352.816740
0.677718 -1.200264 3.306832 69.000000 23 352.816743
0.767243 -1.358278 2.924956 25.000000 21 352.816746
0.905460 -1.602979 2.776554 60.000000 19 352.816748
0.909135 -1.609491 2.289002 22.000000 17 352.816751
0.095186 -0.200896 3.673253 91.000000 30 352.816758
0.179554 -0.356470 3.673686 86.000000 29 352.816761
0.451488 -0.823587 3.651086 49.000000 26 352.816764
0.589169 -1.047695 3.322893 69.000000 24 352.816766
0.767699 -1.364079 3.298864 72.000000 22 352.816769
0.814600 -1.446837 2.786074 64.000000 20 352.816771
0.996448 -1.769834 2.763244 57.000000 18 352.816774
1.035097 -1.838485 2.365522 8.000000 16 352.816776
1.021478 -1.803237 2.116393 7.000000 15 352.816734
0.997319 -1.760593 1.713363 34.000000 13 352.816737
0.973545 -1.719325 1.380018 37.000000 11 352.816739
0.952449 -1.682073 1.097975 39.000000 9 352.816742
0.932092 -1.646790 0.852848 49.000000 7 352.816744
0.914382 -1.616159 0.635401 50.000000 5 352.816747
0.899833 -1.590444 0.438407 50.000000 3 352.816749
0.882452 -1.560359 0.253567 35.000000 1 352.816752
1.009418 -1.788491 1.909637 34.000000 14 352.816760
0.978738 -1.734137 1.533475 37.000000 12 352.816762
0.956273 -1.695024 1.228797 39.000000 10 352.816765
0.943860 -1.673027 0.975452 47.000000 8 352.816767
0.918883 -1.629418 0.739845 52.000000 6 352.816770
0.902300 -1.600666 0.533889 57.000000 4 352.816772
0.892134 -1.583278 0.345363 45.000000 2 352.816775
0.872704 -1.549427 0.165410 37.000000 0 352.816778
0.014790 -0.043283 3.689133 78.000000 31 352.816788
0.268846 -0.508213 3.655475 79.000000 28 352.816791
0.352228 -0.667760 3.653100 53.000000 27 352.816793
0.546192 -0.987983 3.653975 24.000000 25 352.816796
0.673524 -1.202622 3.306832 73.000000 23 352.816798
0.757813 -1.352587 2.907402 24.000000 21 352.816801
0.899859 -1.606130 2.776554 58.000000 19 352.816803
0.903512 -1.612655 2.289002 24.000000 17 352.816806
0.094484 -0.201227 3.673253 91.000000 30 352.816814
0.178309 -0.357095 3.673686 86.000000 29 352.816816
0.448611 -0.825158 3.651086 49.000000 26 352.816819
0.585508 -1.049746 3.322893 68.000000 24 352.816821
0.762933 -1.366751 3.298864 74.000000 22 352.816824
0.809545 -1.449672 2.786074 64.000000 20 352.816826
0.990264 -1.773301 2.763244 55.000000 18 352.816829
1.022061 -1.830248 2.350821 8.000000 16 352.816832
1.011683 -1.800573 2.109384 7.000000 15 352.816789
0.987353 -1.757276 1.707088 34.000000 13 352.816792
0.963443 -1.715421 1.374535 37.000000 11 352.816794
0.944403 -1.681525 1.095657 39.000000 9 352.816797
0.921799 -1.641949 0.849102 47.000000 7 352.816800
0.904039 -1.610974 0.632583 51.000000 5 352.816802
0.889468 -1.585008 0.436542 48.000000 3 352.816805
0.874564 -1.559087 0.253121 36.000000 1 352.816807
0.999520 -1.785487 1.902988 33.000000 14 352.816815
0.966755 -1.726962 1.524646 37.000000 12 352.816818
0.946140 -1.690828 1.223732 39.000000 10 352.816820
0.935798 -1.672351 0.973354 47.000000 8 352.816823
0.908579 -1.624373 0.736560 52.000000 6 352.816825
0.891963 -1.595320 0.531544 57.000000 4 352.816828
0.884186 -1.582060 0.344673 45.000000 2 352.816830
0.864853 -1.548102 0.165209 37.000000 0 352.816833
0.014639 -0.043335 3.689133 78.000000 31 352.816844
0.267070 -0.509148 3.655475 80.000000 28 352.816846
0.349895 -0.668985 3.653100 53.000000 27 352.816849
0.544175 -0.992503 3.663519 22.000000 25 352.816851
0.669322 -1.204966 3.306832 73.000000 23 352.816854
0.749596 -1.348942 2.894236 25.000000 21 352.816856
0.892880 -1.606801 2.772421 58.000000 19 352.816859
0.896320 -1.612997 2.285166 27.000000 17 352.816861
0.093781 -0.201556 3.673253 92.000000 30 352.816869
0.177061 -0.357715 3.673686 86.000000 29 352.816872
0.445131 -0.825611 3.646246 49.000000 26 352.816874
0.581840 -1.051783 3.322893 68.000000 24 352.816877
0.758157 -1.369406 3.298864 76.000000 22 352.816879
0.804480 -1.452489 2.786074 64.000000 20 352.816882
0.984068 -1.776747 2.763244 55.000000 18 352.816885
1.009096 -1.821942 2.336120 8.000000 16 352.816887
1.000184 -1.794748 2.098870 8.000000 15 352.816845
0.977423 -1.753910 1.700812 34.000000 13 352.816847
0.953379 -1.711468 1.369052 38.000000 11 352.816850
0.934215 -1.677070 1.091021 39.000000 9 352.816852
0.913806 -1.641106 0.847229 45.000000 7 352.816855
0.893744 -1.605736 0.629764 46.000000 5 352.816858
0.881541 -1.583811 0.435609 50.000000 3 352.816860
0.864274 -1.553426 0.252228 35.000000 1 352.816863
0.987844 -1.779171 1.893013 34.000000 14 352.816870
0.956797 -1.723258 1.518760 37.000000 12 352.816873
0.936048 -1.686581 1.218667 40.000000 10 352.816876
0.925550 -1.667671 0.969158 49.000000 8 352.816878
0.900612 -1.623405 0.734917 54.000000 6 352.816881
0.881674 -1.589923 0.529200 57.000000 4 352.816883
0.873857 -1.576474 0.343293 45.000000 2 352.816886
0.857023 -1.546742 0.165007 37.000000 0 352.816888
0.014488 -0.043386 3.689133 79.000000 31 352.816899
0.265291 -0.510078 3.655475 80.000000 28 352.816902
0.347558 -0.670203 3.653100 53.000000 27 352.816904
0.541421 -0.995709 3.668291 22.000000 25 352.816907
0.665112 -1.207295 3.306832 74.000000 23 352.816909
0.741414 -1.345255 2.881070 27.000000 21 352.816912
0.887266 -1.609908 2.772421 55.000000 19 352.816914
0.890684 -1.616115 2.285166 29.000000 17 352.816917
0.093077 -0.201882 3.673253 92.000000 30 352.816925
0.175811 -0.358331 3.673686 86.000000 29 352.816927
0.442246 -0.827160 3.646246 50.000000 26 352.816930
0.578165 -1.053808 3.322893 68.000000 24 352.816932
0.753373 -1.372044 3.298864 77.000000 22 352.816935
0.799405 -1.455288 2.786074 64.000000 20 352.816938
0.976409 -1.777529 2.759255 53.000000 18 352.816940
0.996202 -1.813567 2.321420 8.000000 16 352.816943
0.990463 -1.791986 2.091861 8.000000 15 352.816900
0.965645 -1.747090 1.691399 35.000000 13 352.816903
0.943355 -1.707465 1.363569 38.000000 11 352.816905
0.924071 -1.672566 1.086385 39.000000 9 352.816908
0.903590 -1.636170 0.843483 45.000000 7 352.816911
0.885815 -1.604646 0.628355 46.000000 5 352.816913
0.873633 -1.582578 0.434676 52.000000 3 352.816916
0.856440 -1.552073 0.251782 35.000000 1 352.816918
0.978024 -1.776065 1.886363 34.000000 14 352.816926
0.946876 -1.719506 1.512873 37.000000 12 352.816929
0.925997 -1.682284 1.213603 40.000000 10 352.816931
0.915346 -1.662939 0.964962 50.000000 8 352.816934
0.890387 -1.618264 0.731632 50.000000 6 352.816936
0.873777 -1.588731 0.528027 59.000000 4 352.816939
0.865963 -1.575175 0.342604 43.000000 2 352.816941
0.846807 -1.540967 0.164604 37.000000 0 352.816944
0.014336 -0.043436 3.689133 79.000000 31 352.816955
0.263509 -0.511000 3.655475 81.000000 28 352.816957
0.345216 -0.671412 3.653100 54.000000 27 352.816960
0.538651 -0.998907 3.673062 19.000000 25 352.816962
0.660894 -1.209610 3.306832 74.000000 23 352.816965
0.733266 -1.341529 2.867904 28.000000 21 352.816967
0.881641 -1.612996 2.772421 55.000000 19 352.816970
0.886575 -1.622028 2.289002 31.000000 17 352.816972
0.092372 -0.202206 3.673253 92.000000 30 352.816980
0.174560 -0.358943 3.673686 85.000000 29 352.816983
0.439356 -0.828699 3.646246 50.000000 26 352.816985
0.574483 -1.055819 3.322893 69.000000 24 352.816988
0.749620 -1.376578 3.303365 77.000000 22 352.816990
0.794320 -1.458070 2.786074 64.000000 20 352.816993
0.970198 -1.780927 2.759255 51.000000 18 352.816996
0.985000 -1.808102 2.310394 8.000000 16 352.816998
0.980773 -1.789178 2.084852 9.000000 15 352.816956
0.955799 -1.743623 1.685123 35.000000 13 352.816958
0.933371 -1.703414 1.358086 37.000000 11 352.816961
0.916098 -1.671896 1.084067 40.000000 9 352.816964
0.895646 -1.635248 0.841610 45.000000 7 352.816966
0.875601 -1.599313 0.625537 50.000000 5 352.816969
0.863385 -1.577000 0.432811 50.000000 3 352.816971
0.846236 -1.546316 0.250890 35.000000 1 352.816974
0.966449 -1.769636 1.876389 34.000000 14 352.816982
0.935056 -1.712159 1.504044 37.000000 12 352.816984
0.918053 -1.681722 1.211070 40.000000 10 352.816987
0.907361 -1.662141 0.962864 49.000000 8 352.816989
0.882471 -1.617217 0.729989 50.000000 6 352.816992
0.863571 -1.583238 0.525683 58.000000 4 352.816994
0.855718 -1.569492 0.341224 43.000000 2 352.816997
0.839032 -1.539527 0.164403 37.000000 0 352.816999
0.014185 -0.043486 3.689133 78.000000 31 352.817010
0.261724 -0.511917 3.655475 81.000000 28 352.817013
0.342871 -0.672613 3.653100 54.000000 27 352.817015
0.535161 -1.000782 3.673062 18.000000 25 352.817018
0.656668 -1.211909 3.306832 73.000000 23 352.817020
0.726296 -1.339868 2.859126 30.000000 21 352.817023
0.876005 -1.616063 2.772421 62.000000 19 352.817025
0.880907 -1.625113 2.289002 31.000000 17 352.817028
0.091666 -0.202527 3.673253 92.000000 30 352.817036
0.173075 -0.359068 3.668715 85.000000 29 352.817038
0.436461 -0.830227 3.646246 50.000000 26 352.817041
0.570794 -1.057818 3.322893 69.000000 24 352.817043
0.744811 -1.379186 3.303365 80.000000 22 352.817046
0.789225 -1.460834 2.786074 64.000000 20 352.817049
0.963976 -1.784303 2.759255 48.000000 18 352.817051
0.973848 -1.802582 2.299369 8.000000 16 352.817054
0.969412 -1.783191 2.074339 11.000000 15 352.817011
0.944129 -1.736689 1.675710 35.000000 13 352.817014
0.923426 -1.699313 1.352603 37.000000 11 352.817016
0.906026 -1.667299 1.079431 40.000000 9 352.817019
0.885507 -1.630217 0.837864 47.000000 7 352.817022
0.867724 -1.598143 0.624128 51.000000 5 352.817024
0.855531 -1.575687 0.431878 48.000000 3 352.817027
0.838457 -1.544884 0.250443 35.000000 1 352.817029
0.956709 -1.766432 1.869739 34.000000 14 352.817037
0.925224 -1.708304 1.498158 37.000000 12 352.817040
0.908072 -1.677334 1.206005 40.000000 10 352.817042
0.897232 -1.657315 0.958668 49.000000 8 352.817045
0.872325 -1.611980 0.726704 50.000000 6 352.817047
0.855726 -1.581967 0.524511 58.000000 4 352.817050
0.847879 -1.568114 0.340534 43.000000 2 352.817052
0.831277 -1.538051 0.164201 37.000000 0 352.817055
0.014033 -0.043535 3.689133 78.000000 31 352.817066
0.259584 -0.512134 3.650536 80.000000 28 352.817068
0.340521 -0.673806 3.653100 54.000000 27 352.817071
0.531664 -1.002643 3.673062 18.000000 25 352.817073
0.651509 -1.212473 3.302229 73.000000 23 352.817076
0.718211 -1.336064 2.845960 32.000000 21 352.817078
0.870359 -1.619111 2.772421 61.000000 19 352.817081
0.875229 -1.628178 2.289002 32.000000 17 352.817084
0.090958 -0.202846 3.673253 92.000000 30 352.817091
0.171820 -0.359670 3.668715 86.000000 29 352.817094
0.433560 -0.831746 3.646246 51.000000 26 352.817096
