# .PCD v.7 - Point Cloud Data file format
VERSION .7
FIELDS x y z intensity ring timestamp
SIZE 4 4 4 4 2 8
TYPE F F F F U D
COUNT 1 1 1 1 1 1
WIDTH 924
HEIGHT 1
VIEWPOINT 0 0 0 1 0 0 0
POINTS 924
DATA ascii
3.432333 -1.974470 2.966795 33.000000 12 353.307672
3.211344 -1.848090 2.262027 35.000000 10 353.307675
3.124277 -1.797987 1.753829 53.000000 8 353.307677
2.979937 -1.715613 1.285217 64.000000 6 353.307680
2.817936 -1.623001 0.875033 75.000000 4 353.307682
2.771799 -1.597073 0.537822 84.000000 2 353.307685
2.670371 -1.539251 0.218010 95.000000 0 353.307688
0.033503 -0.028392 3.479141 9.000000 31 353.307698
0.745406 -0.456506 5.557089 38.000000 28 353.307701
0.974831 -0.598543 5.523077 30.000000 27 353.307703
1.000600 -0.587396 3.754181 53.000000 25 353.307706
1.329426 -0.770617 3.679636 38.000000 23 353.307708
1.660710 -0.962275 3.583256 40.000000 21 353.307711
1.970334 -1.141688 3.417161 85.000000 19 353.307714
2.364998 -1.370378 3.347999 86.000000 17 353.307716
0.276709 -0.188732 5.614989 102.000000 30 353.307724
0.506652 -0.327152 5.572765 98.000000 29 353.307726
1.217026 -0.726138 5.489984 34.000000 26 353.307729
1.165637 -0.678390 3.721778 40.000000 24 353.307732
1.507477 -0.876647 3.667932 38.000000 22 353.307734
1.787220 -1.038920 3.451560 84.000000 20 353.307737
2.157211 -1.254003 3.377627 82.000000 18 353.307739
2.574362 -1.496502 3.306364 90.000000 16 353.307742
2.816519 -1.627420 3.276398 86.000000 15 353.307699
3.326091 -1.921862 3.178705 80.000000 13 353.307702
3.317934 -1.917921 2.597229 27.000000 11 353.307705
3.142533 -1.816534 1.985780 18.000000 9 353.307707
3.034696 -1.754905 1.504664 56.000000 7 353.307710
2.861363 -1.655337 1.060978 59.000000 5 353.307712
2.768041 -1.601349 0.698608 77.000000 3 353.307715
2.719581 -1.573947 0.374490 74.000000 1 353.307717
3.052603 -1.770235 3.222952 87.000000 14 353.307725
3.428916 -1.988467 2.969738 33.000000 12 353.307728
3.208602 -1.861452 2.264559 35.000000 10 353.307730
3.121907 -1.811159 1.755927 53.000000 8 353.307733
2.973930 -1.726005 1.285217 65.000000 6 353.307735
2.812253 -1.632827 0.875033 77.000000 4 353.307738
2.770490 -1.609226 0.538511 84.000000 2 353.307741
2.664981 -1.548563 0.218010 95.000000 0 353.307743
0.033403 -0.028509 3.479141 9.000000 31 353.307754
0.743808 -0.459105 5.557089 37.000000 28 353.307756
0.972736 -0.601942 5.523077 30.000000 27 353.307759
0.998544 -0.590885 3.754181 54.000000 25 353.307761
1.326728 -0.775253 3.679636 38.000000 23 353.307764
1.659410 -0.969275 3.587644 40.000000 21 353.307767
1.966336 -1.148559 3.417161 85.000000 19 353.307769
2.360200 -1.378625 3.347999 89.000000 17 353.307772
0.276049 -0.189697 5.614989 102.000000 30 353.307779
0.505954 -0.329211 5.577736 98.000000 29 353.307782
1.213406 -0.729734 5.485145 34.000000 26 353.307785
1.161773 -0.681582 3.717086 40.000000 24 353.307787
1.502529 -0.880802 3.663431 38.000000 22 353.307790
1.783583 -1.045152 3.451560 86.000000 20 353.307792
2.152820 -1.261526 3.377627 86.000000 18 353.307795
2.569123 -1.505479 3.306364 91.000000 16 353.307797
2.810821 -1.637242 3.276398 85.000000 15 353.307755
3.319362 -1.933460 3.178705 84.000000 13 353.307758
3.314831 -1.931596 2.599970 26.000000 11 353.307760
3.140001 -1.829723 1.988098 23.000000 9 353.307763
3.032557 -1.767823 1.506537 56.000000 7 353.307765
2.855568 -1.665315 1.060978 57.000000 5 353.307768
2.762434 -1.611001 0.698608 79.000000 3 353.307770
2.714070 -1.583431 0.374490 74.000000 1 353.307773
3.046404 -1.780879 3.222952 87.000000 14 353.307781
3.425444 -2.002464 2.972681 33.000000 12 353.307783
3.205806 -1.874818 2.267092 36.000000 10 353.307786
3.115566 -1.822046 1.755927 52.000000 8 353.307788
2.971963 -1.738760 1.286859 68.000000 6 353.307791
2.810731 -1.645089 0.876206 76.000000 4 353.307793
2.764856 -1.618887 0.538511 85.000000 2 353.307796
2.663870 -1.560382 0.218212 95.000000 0 353.307799
0.033304 -0.028625 3.479141 9.000000 31 353.307809
0.742201 -0.461699 5.557089 37.000000 28 353.307812
0.970628 -0.605334 5.523077 32.000000 27 353.307814
0.996475 -0.594367 3.754181 54.000000 25 353.307817
1.324014 -0.779880 3.679636 38.000000 23 353.307819
1.658081 -0.976277 3.592033 42.000000 21 353.307822
1.962315 -1.155416 3.417161 88.000000 19 353.307824
2.355373 -1.386855 3.347999 88.000000 17 353.307827
0.275385 -0.190659 5.614989 102.000000 30 353.307835
0.504802 -0.330975 5.577736 98.000000 29 353.307837
1.210851 -0.733965 5.485145 34.000000 26 353.307840
1.159387 -0.685633 3.717086 40.000000 24 353.307842
1.499445 -0.886042 3.663431 38.000000 22 353.307845
1.779924 -1.051372 3.451560 86.000000 20 353.307847
2.148404 -1.269032 3.377627 85.000000 18 353.307850
2.563852 -1.514437 3.306364 90.000000 16 353.307853
2.805089 -1.647043 3.276398 87.000000 15 353.307810
3.312593 -1.945035 3.178705 83.000000 13 353.307813
3.308069 -1.943155 2.599970 26.000000 11 353.307815
3.145054 -1.847404 1.995052 27.000000 9 353.307818
3.014377 -1.771351 1.500918 33.000000 7 353.307821
2.853873 -1.677704 1.062387 55.000000 5 353.307823
2.756794 -1.620634 0.698608 77.000000 3 353.307826
2.712819 -1.595420 0.374936 76.000000 1 353.307828
3.040169 -1.791503 3.222952 86.000000 14 353.307836
3.418433 -2.014409 2.972681 32.000000 12 353.307839
3.202956 -1.888186 2.269624 36.000000 10 353.307841
3.109187 -1.832910 1.755927 43.000000 8 353.307844
2.969943 -1.751523 1.288502 72.000000 6 353.307846
2.804972 -1.654890 0.876206 76.000000 4 353.307849
2.763453 -1.631045 0.539201 84.000000 2 353.307851
2.658407 -1.569671 0.218212 94.000000 0 353.307854
0.033203 -0.028741 3.479141 9.000000 31 353.307865
0.741243 -0.464700 5.562029 36.000000 28 353.307867
0.968510 -0.608718 5.523077 32.000000 27 353.307870
0.994394 -0.597842 3.754181 55.000000 25 353.307872
1.321283 -0.784497 3.679636 38.000000 23 353.307875
1.656723 -0.983281 3.596421 40.000000 21 353.307877
1.958270 -1.162259 3.417161 88.000000 19 353.307880
2.350518 -1.395069 3.347999 88.000000 17 353.307882
0.274481 -0.191453 5.609997 103.000000 30 353.307890
0.503643 -0.332735 5.577736 98.000000 29 353.307893
1.208282 -0.738187 5.485145 34.000000 26 353.307895
1.156987 -0.689676 3.717086 40.000000 24 353.307898
1.494472 -0.890156 3.658930 38.000000 22 353.307900
1.776243 -1.057578 3.451560 86.000000 20 353.307903
2.143961 -1.276524 3.377627 83.000000 18 353.307906
2.555637 -1.521643 3.302689 90.000000 16 353.307908
2.796253 -1.655008 3.272893 85.000000 15 353.307866
3.305783 -1.956587 3.178705 82.000000 13 353.307868
3.304864 -1.956821 2.602711 26.000000 11 353.307871
3.134774 -1.856113 1.992734 31.000000 9 353.307873
2.980254 -1.765324 1.487806 32.000000 7 353.307876
2.848000 -1.687656 1.062387 54.000000 5 353.307879
2.751120 -1.630247 0.698608 77.000000 3 353.307881
2.707233 -1.604879 0.374936 76.000000 1 353.307884
3.033897 -1.802104 3.222952 87.000000 14 353.307891
3.414855 -2.028393 2.975624 32.000000 12 353.307894
3.196346 -1.899355 2.269624 36.000000 10 353.307897
3.048147 -1.811294 1.726555 21.000000 8 353.307899
2.967870 -1.764292 1.290145 75.000000 6 353.307902
2.803356 -1.667156 0.877378 76.000000 4 353.307904
2.757742 -1.640681 0.539201 82.000000 2 353.307907
2.657205 -1.581496 0.218413 94.000000 0 353.307909
0.033103 -0.028857 3.479141 9.000000 31 353.307920
0.739617 -0.467285 5.562029 36.000000 28 353.307923
0.966379 -0.612095 5.523077 32.000000 27 353.307925
0.992301 -0.601309 3.754181 58.000000 25 353.307928
1.316861 -0.788101 3.675034 37.000000 23 353.307930
1.655337 -0.990288 3.600810 43.000000 21 353.307933
1.954201 -1.169087 3.417161 88.000000 19 353.307935
2.345634 -1.403265 3.347999 88.000000 17 353.307938
0.273811 -0.192410 5.609997 101.000000 30 353.307946
0.502035 -0.334194 5.572765 98.000000 29 353.307948
1.205698 -0.742400 5.485145 35.000000 26 353.307951
1.156052 -0.694599 3.721778 41.000000 24 353.307953
1.491355 -0.895367 3.658930 38.000000 22 353.307956
1.772540 -1.063772 3.451560 86.000000 20 353.307959
2.136908 -1.282449 3.373638 83.000000 18 353.307961
2.550310 -1.530555 3.302689 90.000000 16 353.307964
2.790459 -1.664759 3.272893 87.000000 15 353.307921
3.295590 -1.966120 3.175567 82.000000 13 353.307924
3.298013 -1.968346 2.602711 27.000000 11 353.307926
3.116864 -1.860233 1.985780 27.000000 9 353.307929
2.918348 -1.742444 1.461584 35.000000 7 353.307932
2.846210 -1.700047 1.063797 53.000000 5 353.307934
2.749630 -1.642359 0.699540 76.000000 3 353.307937
2.701615 -1.614320 0.374936 74.000000 1 353.307939
3.027588 -1.812683 3.222952 88.000000 14 353.307947
3.411222 -2.042377 2.978567 32.000000 12 353.307950
3.193395 -1.912716 2.272156 34.000000 10 353.307952
3.006764 -1.800934 1.707672 21.000000 8 353.307955
2.965745 -1.777068 1.291787 77.000000 6 353.307957
2.797519 -1.676932 0.877378 77.000000 4 353.307960
2.756246 -1.652845 0.539891 80.000000 2 353.307962
2.651668 -1.590762 0.218413 94.000000 0 353.307965
0.033002 -0.028972 3.479141 9.000000 31 353.307976
0.737981 -0.469863 5.562029 38.000000 28 353.307978
0.964236 -0.615465 5.523077 31.000000 27 353.307981
0.990196 -0.604769 3.754181 55.000000 25 353.307983
1.314102 -0.792693 3.675034 37.000000 23 353.307986
1.651870 -0.996060 3.600810 45.000000 21 353.307988
1.950108 -1.175901 3.417161 88.000000 19 353.307991
2.340721 -1.411444 3.347999 86.000000 17 353.307993
0.273138 -0.193364 5.609997 101.000000 30 353.308001
0.500865 -0.335945 5.572765 98.000000 29 353.308004
1.203099 -0.746604 5.485145 35.000000 26 353.308006
1.153620 -0.698630 3.721778 40.000000 24 353.308009
1.488221 -0.900568 3.658930 38.000000 22 353.308011
1.766585 -1.068603 3.447294 86.000000 20 353.308014
2.132418 -1.289901 3.373638 83.000000 18 353.308017
2.544952 -1.539448 3.302689 89.000000 16 353.308019
2.784631 -1.674489 3.272893 87.000000 15 353.307977
3.288707 -1.977611 3.175567 83.000000 13 353.307979
3.305454 -1.988468 2.613677 27.000000 11 353.307982
3.110351 -1.871102 1.985780 27.000000 9 353.307985
2.904304 -1.747840 1.457838 68.000000 7 353.307987
2.840258 -1.709971 1.063797 46.000000 5 353.307990
2.743880 -1.651947 0.699540 74.000000 3 353.307992
2.695963 -1.623740 0.374936 74.000000 1 353.307995
3.021242 -1.823240 3.222952 88.000000 14 353.308003
3.407533 -2.056360 2.981510 31.000000 12 353.308005
3.142409 -1.897113 2.241767 22.000000 10 353.308008
2.965491 -1.790308 1.688790 58.000000 8 353.308010
2.963566 -1.789851 1.293430 77.000000 6 353.308013
2.795809 -1.689200 0.878550 77.000000 4 353.308015
2.750460 -1.662456 0.539891 79.000000 2 353.308018
2.650375 -1.602593 0.218615 92.000000 0 353.308020
0.032901 -0.029087 3.479141 9.000000 31 353.308031
0.736336 -0.472437 5.562029 38.000000 28 353.308034
0.961226 -0.618276 5.518182 31.000000 27 353.308036
0.988079 -0.608222 3.754181 55.000000 25 353.308039
1.311327 -0.797275 3.675034 38.000000 23 353.308041
1.650430 -1.003065 3.605199 45.000000 21 353.308044
1.945992 -1.182701 3.417161 88.000000 19 353.308046
2.333041 -1.417941 3.344162 86.000000 17 353.308049
0.272461 -0.194316 5.609997 102.000000 30 353.308057
0.499689 -0.337691 5.572765 97.000000 29 353.308059
1.200485 -0.750799 5.485145 35.000000 26 353.308062
1.151174 -0.702653 3.721778 41.000000 24 353.308064
1.485068 -0.905757 3.658930 38.000000 22 353.308067
1.762844 -1.074763 3.447294 86.000000 20 353.308070
2.127903 -1.297336 3.373638 85.000000 18 353.308072
2.539563 -1.548322 3.302689 90.000000 16 353.308075
2.778769 -1.684199 3.272893 85.000000 15 353.308032
3.281784 -1.989079 3.175567 83.000000 13 353.308035
3.298493 -1.999994 2.613677 27.000000 11 353.308037
3.005306 -1.822227 1.925511 34.000000 9 353.308040
2.898185 -1.757967 1.457838 77.000000 7 353.308043
2.834272 -1.719875 1.063797 41.000000 5 353.308045
2.738097 -1.661515 0.699540 74.000000 3 353.308048
2.694536 -1.635725 0.375382 74.000000 1 353.308050
3.014860 -1.833775 3.222952 87.000000 14 353.308058
3.403787 -2.070343 2.984453 32.000000 12 353.308061
3.102621 -1.887901 2.218976 22.000000 10 353.308063
2.966978 -1.805367 1.692986 79.000000 8 353.308066
2.957300 -1.800185 1.293430 78.000000 6 353.308068
2.794047 -1.701477 0.879723 77.000000 4 353.308071
2.744640 -1.672046 0.539891 78.000000 2 353.308073
2.644764 -1.611835 0.218615 91.000000 0 353.308076
0.032799 -0.029202 3.479141 9.000000 31 353.308087
0.734683 -0.475004 5.562029 36.000000 28 353.308089
0.959062 -0.621627 5.518182 32.000000 27 353.308092
0.985950 -0.611668 3.754181 55.000000 25 353.308094
1.308535 -0.801847 3.675034 38.000000 23 353.308097
1.646919 -1.008820 3.605199 45.000000 21 353.308099
1.941851 -1.189487 3.417161 88.000000 19 353.308102
2.328077 -1.426077 3.344162 86.000000 17 353.308105
0.271781 -0.195266 5.609997 102.000000 30 353.308112
0.498508 -0.339433 5.572765 97.000000 29 353.308115
1.197857 -0.754985 5.485145 35.000000 26 353.308117
1.148715 -0.706667 3.721778 41.000000 24 353.308120
1.481898 -0.910935 3.658930 38.000000 22 353.308123
1.759082 -1.080910 3.447294 86.000000 20 353.308125
2.120793 -1.303178 3.369648 85.000000 18 353.308128
2.534142 -1.557178 3.302689 90.000000 16 353.308130
2.769830 -1.692030 3.269389 87.000000 15 353.308088
3.271499 -1.998493 3.172430 83.000000 13 353.308090
3.280788 -2.004954 2.605453 25.000000 11 353.308093
2.995147 -1.830396 1.923193 66.000000 9 353.308096
2.892031 -1.768073 1.457838 78.000000 7 353.308098
2.832344 -1.732262 1.065206 37.000000 5 353.308101
2.732281 -1.671063 0.699540 74.000000 3 353.308103
2.688810 -1.645121 0.375382 74.000000 1 353.308106
3.005256 -1.842336 3.219627 87.000000 14 353.308114
3.403432 -2.086437 2.990340 31.000000 12 353.308116
3.040885 -1.864911 2.180989 39.000000 10 353.308119
2.960658 -1.815712 1.692986 80.000000 8 353.308121
2.955024 -1.812967 1.295073 78.000000 6 353.308124
2.788090 -1.711220 0.879723 79.000000 4 353.308126
2.743006 -1.684208 0.540581 79.000000 2 353.308129
2.643379 -1.623672 0.218816 93.000000 0 353.308131
0.032697 -0.029316 3.479141 9.000000 31 353.308142
0.733020 -0.477566 5.562029 37.000000 28 353.308145
0.956886 -0.624971 5.518182 32.000000 27 353.308147
0.983809 -0.615105 3.754181 57.000000 25 353.308150
1.304066 -0.805384 3.670431 38.000000 23 353.308152
1.645426 -1.015821 3.609588 48.000000 21 353.308155
1.937688 -1.196258 3.417161 85.000000 19 353.308157
2.323085 -1.434195 3.344162 86.000000 17 353.308160
0.271132 -0.196167 5.609997 101.000000 30 353.308168
0.497379 -0.341085 5.572765 97.000000 29 353.308170
1.195347 -0.758953 5.485145 35.000000 26 353.308173
1.146365 -0.710472 3.721778 41.000000 24 353.308175
1.478709 -0.916103 3.658930 38.000000 22 353.308178
1.755298 -1.087044 3.447294 86.000000 20 353.308181
2.116231 -1.310573 3.369648 83.000000 18 353.308183
2.528965 -1.565573 3.302689 90.000000 16 353.308186
2.763907 -1.701688 3.269389 87.000000 15 353.308143
3.264503 -2.009901 3.172430 83.000000 13 353.308146
3.195443 -1.968151 2.545141 27.000000 11 353.308149
2.988740 -1.840840 1.923193 72.000000 9 353.308151
2.890100 -1.780085 1.459711 79.000000 7 353.308154
2.830668 -1.744161 1.066615 35.000000 5 353.308156
2.730613 -1.683168 0.700473 73.000000 3 353.308159
2.683051 -1.654496 0.375382 74.000000 1 353.308161
2.998807 -1.852815 3.219627 87.000000 14 353.308169
3.399567 -2.100429 2.993283 31.000000 12 353.308172
3.034684 -1.874985 2.180989 72.000000 10 353.308174
2.954620 -1.825520 1.692986 80.000000 8 353.308177
2.948995 -1.822756 1.295073 77.000000 6 353.308179
2.786535 -1.723012 0.880895 79.000000 4 353.308182
2.737406 -1.693295 0.540581 80.000000 2 353.308184
2.637980 -1.632429 0.218816 93.000000 0 353.308187
0.032629 -0.029457 3.484141 9.000000 31 353.308198
0.731432 -0.479994 5.562029 38.000000 28 353.308200
0.953958 -0.627581 5.513287 31.000000 27 353.308203
0.981764 -0.618364 3.754181 55.000000 25 353.308205
1.301389 -0.809704 3.670431 38.000000 23 353.308208
1.642048 -1.021272 3.609588 48.000000 21 353.308210
1.931320 -1.201191 3.413028 88.000000 19 353.308213
2.318316 -1.441890 3.344162 87.000000 17 353.308216
0.270446 -0.197112 5.609997 100.000000 30 353.308223
0.496186 -0.342819 5.572765 97.000000 29 353.308226
1.192691 -0.763121 5.485145 34.000000 26 353.308228
1.143878 -0.714469 3.721778 43.000000 24 353.308231
1.475663 -0.921001 3.658930 38.000000 22 353.308234
1.751683 -1.092858 3.447294 86.000000 20 353.308236
2.111874 -1.317584 3.369648 83.000000 18 353.308239
2.523484 -1.574391 3.302689 90.000000 16 353.308241
2.758249 -1.710844 3.269389 85.000000 15 353.308199
3.257820 -2.020715 3.172430 82.000000 13 353.308201
3.103627 -1.925825 2.479346 36.000000 11 353.308204
2.982619 -1.850741 1.923193 73.000000 9 353.308207
2.883868 -1.790162 1.459711 78.000000 7 353.308209
2.832714 -1.759093 1.069433 33.000000 5 353.308212
2.725016 -1.692214 0.700473 73.000000 3 353.308214
2.681780 -1.666013 0.375828 74.000000 1 353.308217
2.992646 -1.862749 3.219627 87.000000 14 353.308225
3.396014 -2.113827 2.996226 31.000000 12 353.308227
3.031780 -1.887845 2.183522 74.000000 10 353.308230
2.948230 -1.835823 1.692986 81.000000 8 353.308232
2.946623 -1.835536 1.296715 76.000000 6 353.308235
2.784628 -1.735299 0.882067 79.000000 4 353.308237
2.731479 -1.702840 0.540581 79.000000 2 353.308240
2.636505 -1.644271 0.219018 93.000000 0 353.308243
0.032526 -0.029570 3.484141 9.000000 31 353.308253
0.729752 -0.482544 5.562029 38.000000 28 353.308256
0.951761 -0.630907 5.513287 31.000000 27 353.308258
0.979599 -0.621788 3.754181 55.000000 25 353.308261
1.298554 -0.814241 3.670431 38.000000 23 353.308263
1.640503 -1.028270 3.613976 49.000000 21 353.308266
1.927116 -1.207925 3.413028 86.000000 19 353.308269
2.313269 -1.449974 3.344162 88.000000 17 353.308271
0.269756 -0.198055 5.609997 102.000000 30 353.308279
0.494986 -0.344549 5.572765 98.000000 29 353.308281
1.190019 -0.767280 5.485145 34.000000 26 353.308284
1.141377 -0.718458 3.721778 43.000000 24 353.308287
1.472439 -0.926147 3.658930 38.000000 22 353.308289
1.747858 -1.098966 3.447294 86.000000 20 353.308292
2.107262 -1.324948 3.369648 83.000000 18 353.308294
2.517973 -1.583190 3.302689 90.000000 16 353.308297
2.752260 -1.720462 3.269389 85.000000 15 353.308254
3.250746 -2.032074 3.172430 82.000000 13 353.308257
3.089795 -1.932212 2.473862 52.000000 11 353.308260
2.979897 -1.863490 1.925511 73.000000 9 353.308262
2.881532 -1.802676 1.461584 79.000000 7 353.308265
2.834689 -1.774060 1.072252 29.000000 5 353.308267
2.723257 -1.704321 0.701406 73.000000 3 353.308270
2.675948 -1.675364 0.375828 73.000000 1 353.308272
2.986126 -1.873184 3.219627 87.000000 14 353.308280
3.392039 -2.127816 2.999169 31.000000 12 353.308283
3.025172 -1.898417 2.183522 75.000000 10 353.308285
2.945648 -1.848515 1.695084 81.000000 8 353.308288
2.940198 -1.845810 1.296715 75.000000 6 353.308290
2.782670 -1.747594 0.883240 80.000000 4 353.308293
2.729712 -1.714999 0.541271 79.000000 2 353.308295
2.630749 -1.653464 0.219018 93.000000 0 353.308298
0.032423 -0.029684 3.484141 9.000000 31 353.308309
0.728064 -0.485088 5.562029 38.000000 28 353.308311
0.949553 -0.634226 5.513287 32.000000 27 353.308314
0.977423 -0.625203 3.754181 58.000000 25 353.308316
1.295704 -0.818769 3.670431 38.000000 23 353.308319
1.636904 -1.033990 3.613976 52.000000 21 353.308321
1.922888 -1.214645 3.413028 86.000000 19 353.308324
2.305483 -1.456328 3.340325 86.000000 17 353.308327
0.269063 -0.198995 5.609997 102.000000 30 353.308334
0.493344 -0.345967 5.567794 98.000000 29 353.308337
1.187334 -0.771429 5.485145 34.000000 26 353.308339
1.138862 -0.722438 3.721778 43.000000 24 353.308342
1.469197 -0.931281 3.658930 38.000000 22 353.308345
1.744011 -1.105061 3.447294 86.000000 20 353.308347
2.102624 -1.332295 3.369648 83.000000 18 353.308350
2.512432 -1.591969 3.302689 91.000000 16 353.308352
2.743220 -1.728158 3.265884 87.000000 15 353.308310
3.240340 -2.041335 3.169292 83.000000 13 353.308313
3.090107 -1.947445 2.479346 52.000000 11 353.308315
2.977122 -1.876242 1.927829 75.000000 9 353.308318
2.875222 -1.812724 1.461584 79.000000 7 353.308320
2.832537 -1.786503 1.073661 25.000000 5 353.308323
2.721446 -1.716437 0.702338 72.000000 3 353.308325
2.674295 -1.687352 0.376275 69.000000 1 353.308328
2.979569 -1.883596 3.219627 87.000000 14 353.308336
3.388008 -2.141804 3.002113 30.000000 12 353.308338
3.018527 -1.908965 2.183522 75.000000 10 353.308341
2.939178 -1.858786 1.695084 80.000000 8 353.308343
2.937728 -1.858587 1.298358 75.000000 6 353.308346
2.776553 -1.757297 0.883240 80.000000 4 353.308348
2.723708 -1.724517 0.541271 78.000000 2 353.308351
2.629182 -1.665310 0.219219 93.000000 0 353.308354
0.032319 -0.029797 3.484141 9.000000 31 353.308364
0.726366 -0.487627 5.562029 38.000000 28 353.308367
0.947334 -0.637536 5.513287 32.000000 27 353.308369
0.975235 -0.628611 3.754181 57.000000 25 353.308372
1.292838 -0.823287 3.670431 38.000000 23 353.308374
1.635306 -1.040984 3.618365 57.000000 21 353.308377
1.918636 -1.221349 3.413028 86.000000 19 353.308380
2.300385 -1.464366 3.340325 86.000000 17 353.308382
0.268598 -0.200107 5.614989 102.000000 30 353.308390
0.492133 -0.347687 5.567794 97.000000 29 353.308392
1.184634 -0.775569 5.485145 35.000000 26 353.308395
1.134879 -0.725479 3.717086 43.000000 24 353.308398
1.465937 -0.936404 3.658930 38.000000 22 353.308400
1.740143 -1.111142 3.447294 86.000000 20 353.308403
2.097960 -1.339627 3.369648 83.000000 18 353.308405
2.504002 -1.598905 3.299014 91.000000 16 353.308408
2.737171 -1.737723 3.265884 87.000000 15 353.308365
3.233194 -2.052633 3.169292 82.000000 13 353.308368
3.083290 -1.958219 2.479346 50.000000 11 353.308371
2.970554 -1.886623 1.927829 75.000000 9 353.308373
2.872790 -1.825235 1.463457 80.000000 7 353.308376
2.830332 -1.798953 1.075070 22.000000 5 353.308378
2.715438 -1.725927 0.702338 72.000000 3 353.308381
2.668389 -1.696676 0.376275 69.000000 1 353.308383
2.969827 -1.891979 3.216302 86.000000 14 353.308391
3.380511 -2.153617 3.002113 30.000000 12 353.308394
3.015481 -1.921807 2.186054 74.000000 10 353.308396
2.932671 -1.869034 1.695084 80.000000 8 353.308399
2.931222 -1.868830 1.298358 75.000000 6 353.308401
2.774500 -1.769591 0.884412 80.000000 4 353.308404
2.721847 -1.736677 0.541960 78.000000 2 353.308407
2.623353 -1.674477 0.219219 93.000000 0 353.308409
0.032215 -0.029909 3.484141 8.000000 31 353.308420
0.724659 -0.490159 5.562029 37.000000 28 353.308422
0.945103 -0.640839 5.513287 32.000000 27 353.308425
0.973034 -0.632012 3.754181 59.000000 25 353.308427
1.289956 -0.827795 3.670431 38.000000 23 353.308430
1.631662 -1.046686 3.618365 58.000000 21 353.308433
1.914361 -1.228039 3.413028 86.000000 19 353.308435
2.295260 -1.472387 3.340325 87.000000 17 353.308438
0.267898 -0.201043 5.614989 102.000000 30 353.308445
0.490916 -0.349403 5.567794 97.000000 29 353.308448
1.180870 -0.779007 5.480306 35.000000 26 353.308451
1.132340 -0.729436 3.717086 44.000000 24 353.308453
1.462660 -0.941515 3.658930 38.000000 22 353.308456
1.736254 -1.117209 3.447294 86.000000 20 353.308458
2.093271 -1.346942 3.369648 85.000000 18 353.308461
2.498406 -1.607636 3.299014 91.000000 16 353.308463
2.731089 -1.747267 3.265884 85.000000 15 353.308421
3.226010 -2.063907 3.169292 82.000000 13 353.308424
3.079958 -1.971224 2.482087 46.000000 11 353.308426
2.967682 -1.899369 1.930147 75.000000 9 353.308429
2.866401 -1.835252 1.463457 81.000000 7 353.308431
2.828075 -1.811409 1.076479 22.000000 5 353.308434
2.713533 -1.738044 0.703271 72.000000 3 353.308436
2.666643 -1.708667 0.376721 76.000000 1 353.308439
2.963204 -1.902334 3.216302 86.000000 14 353.308447
3.376374 -2.167587 3.005056 30.000000 12 353.308449
3.008754 -1.932321 2.186054 74.000000 10 353.308452
2.926129 -1.879260 1.695084 80.000000 8 353.308454
2.924681 -1.879051 1.298358 75.000000 6 353.308457
2.772395 -1.781894 0.885584 80.000000 4 353.308459
2.715768 -1.746168 0.541960 78.000000 2 353.308462
2.617492 -1.683625 0.219219 94.000000 0 353.308465
0.032110 -0.030022 3.484141 9.000000 31 353.308475
0.722944 -0.492686 5.562029 33.000000 28 353.308478
0.942860 -0.644134 5.513287 32.000000 27 353.308480
0.970822 -0.635404 3.754181 59.000000 25 353.308483
1.285418 -0.831232 3.665829 38.000000 23 353.308485
1.630010 -1.053676 3.622753 62.000000 21 353.308488
1.910063 -1.234714 3.413028 86.000000 19 353.308490
2.290107 -1.480390 3.340325 87.000000 17 353.308493
0.267195 -0.201977 5.614989 103.000000 30 353.308501
0.489694 -0.351115 5.567794 97.000000 29 353.308503
1.178143 -0.783124 5.480306 35.000000 26 353.308506
1.129787 -0.733384 3.717086 44.000000 24 353.308508
1.459364 -0.946615 3.658930 38.000000 22 353.308511
1.730155 -1.121844 3.443028 86.000000 20 353.308513
2.088557 -1.354240 3.369648 83.000000 18 353.308516
2.492779 -1.616347 3.299014 91.000000 16 353.308519
2.724973 -1.756789 3.265884 85.000000 15 353.308476
3.218786 -2.075155 3.169292 82.000000 13 353.308479
3.087114 -1.991029 2.493053 42.000000 11 353.308481
2.964757 -1.912118 1.932465 75.000000 9 353.308484
2.859977 -1.845246 1.463457 81.000000 7 353.308487
2.821734 -1.821270 1.076479 20.000000 5 353.308489
2.711577 -1.750170 0.704204 72.000000 3 353.308492
2.660663 -1.717965 0.376721 76.000000 1 353.308494
2.953411 -1.910638 3.212978 87.000000 14 353.308502
3.372181 -2.181555 3.007999 30.000000 12 353.308505
3.001991 -1.942812 2.186054 74.000000 10 353.308507
2.923362 -1.891928 1.697182 81.000000 8 353.308510
2.922068 -1.891815 1.300001 74.000000 6 353.308512
2.766158 -1.791560 0.885584 80.000000 4 353.308515
2.713812 -1.758330 0.542650 80.000000 2 353.308517
2.611599 -1.692751 0.219219 94.000000 0 353.308520
0.031976 -0.030101 3.479141 10.000000 31 353.308531
0.720579 -0.494766 5.557089 33.000000 28 353.308533
0.940606 -0.647422 5.513287 31.000000 27 353.308536
0.968598 -0.638789 3.754181 59.000000 25 353.308538
1.282509 -0.835714 3.665829 38.000000 23 353.308541
1.626323 -1.059359 3.622753 58.000000 21 353.308543
1.905741 -1.241374 3.413028 86.000000 19 353.308546
2.284925 -1.488375 3.340325 87.000000 17 353.308548
0.266488 -0.202909 5.614989 104.000000 30 353.308556
0.488465 -0.352822 5.567794 97.000000 29 353.308559
1.175402 -0.787232 5.480306 35.000000 26 353.308561
1.127220 -0.737323 3.717086 43.000000 24 353.308564
1.456051 -0.951703 3.658930 38.000000 22 353.308566
1.726229 -1.127877 3.443028 86.000000 20 353.308569
2.083817 -1.361523 3.369648 83.000000 18 353.308572
2.487122 -1.625039 3.299014 91.000000 16 353.308574
2.718824 -1.766290 3.265884 87.000000 15 353.308532
3.211522 -2.086378 3.169292 80.000000 13 353.308534
3.101182 -2.015464 2.509501 38.000000 11 353.308537
2.958065 -1.922455 1.932465 75.000000 9 353.308539
2.857405 -1.857745 1.465330 81.000000 7 353.308542
2.815360 -1.831109 1.076479 19.000000 5 353.308545
2.705451 -1.759624 0.704204 71.000000 3 353.308547
2.658824 -1.729958 0.377167 76.000000 1 353.308550
2.946723 -1.920936 3.212978 87.000000 14 353.308557
3.367931 -2.195521 3.010942 28.000000 12 353.308560
2.998802 -1.955634 2.188586 74.000000 10 353.308563
2.916740 -1.902121 1.697182 81.000000 8 353.308565
2.915447 -1.902003 1.300001 74.000000 6 353.308568
2.763958 -1.803861 0.886757 79.000000 4 353.308570
2.707658 -1.767792 0.542650 81.000000 2 353.308573
2.609857 -1.704589 0.219421 94.000000 0 353.308575
0.031871 -0.030212 3.479141 9.000000 31 353.308586
0.718848 -0.497279 5.557089 37.000000 28 353.308589
0.938340 -0.650701 5.513287 28.000000 27 353.308591
0.966363 -0.642166 3.754181 60.000000 25 353.308594
1.279584 -0.840185 3.665829 38.000000 23 353.308596
1.622615 -1.065030 3.622753 52.000000 21 353.308599
1.901396 -1.248019 3.413028 86.000000 19 353.308601
2.279716 -1.496342 3.340325 87.000000 17 353.308604
0.265549 -0.203661 5.609997 103.000000 30 353.308612
0.487230 -0.354525 5.567794 97.000000 29 353.308614
1.172647 -0.791330 5.480306 34.000000 26 353.308617
1.124640 -0.741254 3.717086 43.000000 24 353.308619
1.450902 -0.955582 3.654430 38.000000 22 353.308622
1.722281 -1.133896 3.443028 86.000000 20 353.308625
2.079052 -1.368788 3.369648 82.000000 18 353.308627
2.481434 -1.633711 3.299014 91.000000 16 353.308630
2.712642 -1.775770 3.265884 88.000000 15 353.308587
3.204220 -2.097576 3.169292 81.000000 13 353.308590
3.139602 -2.056057 2.545141 36.000000 11 353.308592
2.955042 -1.935196 1.934783 75.000000 9 353.308595
2.850903 -1.867708 1.465330 81.000000 7 353.308598
2.808951 -1.840925 1.076479 19.000000 5 353.308600
2.703401 -1.771749 0.705136 71.000000 3 353.308603
2.652769 -1.739228 0.377167 76.000000 1 353.308605
2.940000 -1.931210 3.212978 86.000000 14 353.308613
3.363626 -2.209483 3.013885 28.000000 12 353.308616
2.991957 -1.966090 2.188586 74.000000 10 353.308618
2.913876 -1.914784 1.699280 80.000000 8 353.308621
2.904844 -1.909575 1.298358 70.000000 6 353.308623
2.757645 -1.813498 0.886757 79.000000 4 353.308626
2.701471 -1.777233 0.542650 81.000000 2 353.308628
2.603891 -1.713689 0.219421 94.000000 0 353.308631
0.031736 -0.030291 3.474141 9.000000 31 353.308642
0.717108 -0.499785 5.557089 37.000000 28 353.308644
0.936063 -0.653972 5.513287 28.000000 27 353.308647
0.964115 -0.645536 3.754181 60.000000 25 353.308649
1.276644 -0.844647 3.665829 38.000000 23 353.308652
1.618887 -1.070687 3.622753 46.000000 21 353.308654
1.897028 -1.254648 3.413028 86.000000 19 353.308657
2.274478 -1.504291 3.340325 87.000000 17 353.308659
0.264837 -0.204586 5.609997 103.000000 30 353.308667
0.485990 -0.356223 5.567794 97.000000 29 353.308670
1.169878 -0.795418 5.480306 34.000000 26 353.308672
1.122045 -0.745175 3.717086 43.000000 24 353.308675
1.447557 -0.960641 3.654430 38.000000 22 353.308677
1.718313 -1.139901 3.443028 86.000000 20 353.308680
2.074261 -1.376037 3.369648 83.000000 18 353.308683
2.475716 -1.642363 3.299014 91.000000 16 353.308685
2.706427 -1.785228 3.265884 88.000000 15 353.308643
3.196879 -2.108748 3.169292 84.000000 13 353.308645
3.170797 -2.092338 2.575297 32.000000 11 353.308648
2.948269 -1.945499 1.934783 75.000000 9 353.308651
2.848235 -1.880203 1.467203 80.000000 7 353.308653
2.806511 -1.853363 1.077889 18.000000 5 353.308656
2.697200 -1.781175 0.705136 70.000000 3 353.308658
2.650837 -1.751223 0.377613 76.000000 1 353.308661
2.933241 -1.941461 3.212978 86.000000 14 353.308669
3.359263 -2.223441 3.016828 29.000000 12 353.308671
2.988670 -1.978902 2.191119 74.000000 10 353.308674
2.907174 -1.924943 1.699280 81.000000 8 353.308676
2.898160 -1.919703 1.298358 68.000000 6 353.308679
2.751297 -1.823113 0.886757 79.000000 4 353.308681
2.699378 -1.789388 0.543340 82.000000 2 353.308684
2.602057 -1.725528 0.219622 94.000000 0 353.308686
0.031630 -0.030401 3.474141 9.000000 31 353.308697
0.715359 -0.502285 5.557089 37.000000 28 353.308700
0.933774 -0.657236 5.513287 32.000000 27 353.308702
0.961856 -0.648897 3.754181 57.000000 25 353.308705
1.273687 -0.849098 3.665829 38.000000 23 353.308707
1.615140 -1.076331 3.622753 40.000000 21 353.308710
1.890295 -1.259702 3.408895 86.000000 19 353.308712
2.269214 -1.512221 3.340325 87.000000 17 353.308715
0.264121 -0.205509 5.609997 102.000000 30 353.308723
0.484744 -0.357917 5.567794 97.000000 29 353.308725
1.167094 -0.799497 5.480306 35.000000 26 353.308728
1.118003 -0.748127 3.712393 43.000000 24 353.308730
1.444195 -0.965688 3.654430 38.000000 22 353.308733
1.714323 -1.145892 3.443028 86.000000 20 353.308736
2.066939 -1.381594 3.365659 83.000000 18 353.308738
2.469968 -1.650994 3.299014 91.000000 16 353.308741
2.700179 -1.794665 3.265884 88.000000 15 353.308698
3.186256 -2.117739 3.166154 84.000000 13 353.308701
3.208740 -2.133490 2.610936 32.000000 11 353.308703
2.941460 -1.955779 1.934783 75.000000 9 353.308706
2.845515 -1.892701 1.469076 80.000000 7 353.308709
2.800025 -1.863148 1.077889 17.000000 5 353.308711
2.690966 -1.790580 0.705136 70.000000 3 353.308714
2.648854 -1.763225 0.378059 76.000000 1 353.308716
2.926446 -1.951688 3.212978 86.000000 14 353.308724
3.354844 -2.237397 3.019771 29.000000 12 353.308727
2.981745 -1.989322 2.191119 74.000000 10 353.308729
2.904212 -1.937598 1.701378 81.000000 8 353.308732
2.887514 -1.927186 1.296715 66.000000 6 353.308734
2.748960 -1.835405 0.887929 78.000000 4 353.308737
2.697234 -1.801550 0.544030 82.000000 2 353.308739
2.600172 -1.737376 0.219824 93.000000 0 353.308742
0.031553 -0.030544 3.479141 9.000000 31 353.308753
0.713601 -0.504779 5.557089 38.000000 28 353.308755
0.931475 -0.660491 5.513287 32.000000 27 353.308758
0.959585 -0.652251 3.754181 58.000000 25 353.308760
1.272337 -0.854628 3.670431 38.000000 23 353.308763
1.611373 -1.081963 3.622753 37.000000 21 353.308765
1.885887 -1.266292 3.408895 86.000000 19 353.308768
2.263921 -1.520133 3.340325 87.000000 17 353.308771
0.263402 -0.206430 5.609997 102.000000 30 353.308778
0.483491 -0.359607 5.567794 97.000000 29 353.308781
1.164296 -0.803566 5.480306 35.000000 26 353.308783
1.115385 -0.752025 3.712393 43.000000 24 353.308786
1.440815 -0.970723 3.654430 38.000000 22 353.308789
1.710313 -1.151869 3.443028 86.000000 20 353.308791
2.062104 -1.388801 3.365659 82.000000 18 353.308794
2.461378 -1.657712 3.295338 91.000000 16 353.308796
2.690934 -1.802094 3.262380 88.000000 15 353.308754
3.178844 -2.128848 3.166154 84.000000 13 353.308756
3.229064 -2.163296 2.632868 30.000000 11 353.308759
2.938295 -1.968500 1.937101 75.000000 9 353.308762
2.838891 -1.902622 1.469076 80.000000 7 353.308764
2.797489 -1.875582 1.079298 17.000000 5 353.308767
2.688779 -1.802698 0.706069 69.000000 3 353.308769
2.642683 -1.772460 0.378059 76.000000 1 353.308772
2.919616 -1.961891 3.212978 87.000000 14 353.308780
3.353723 -2.253603 3.025658 30.000000 12 353.308782
2.978360 -2.002123 2.193651 74.000000 10 353.308785
2.901198 -1.950256 1.703476 81.000000 8 353.308787
2.880769 -1.937253 1.296715 66.000000 6 353.308790
2.742536 -1.844990 0.887929 78.000000 4 353.308792
2.690929 -1.810954 0.544030 84.000000 2 353.308795
2.598236 -1.749232 0.220025 94.000000 0 353.308797
0.031446 -0.030654 3.479141 9.000000 31 353.308808
0.711835 -0.507267 5.557089 38.000000 28 353.308811
0.929163 -0.663739 5.513287 31.000000 27 353.308813
0.957303 -0.655596 3.754181 60.000000 25 353.308816
1.269346 -0.859064 3.670431 36.000000 23 353.308818
1.607587 -1.087581 3.622753 34.000000 21 353.308821
1.881455 -1.272868 3.408895 86.000000 19 353.308823
2.258601 -1.528026 3.340325 87.000000 17 353.308826
0.262680 -0.207348 5.609997 102.000000 30 353.308834
0.482233 -0.361293 5.567794 97.000000 29 353.308836
1.161484 -0.807625 5.480306 34.000000 26 353.308839
1.112753 -0.755914 3.712393 41.000000 24 353.308841
1.437418 -0.975747 3.654430 38.000000 22 353.308844
1.706282 -1.157832 3.443028 86.000000 20 353.308847
2.057244 -1.395991 3.365659 82.000000 18 353.308849
2.455577 -1.666294 3.295338 91.000000 16 353.308852
2.678715 -1.807487 3.255371 83.000000 15 353.308809
3.171394 -2.139931 3.166154 84.000000 13 353.308812
3.235356 -2.183913 2.643834 30.000000 11 353.308815
2.931406 -1.978745 1.937101 75.000000 9 353.308817
2.836074 -1.915114 1.470949 80.000000 7 353.308820
2.790925 -1.885336 1.079298 17.000000 5 353.308822
2.682471 -1.812072 0.706069 69.000000 3 353.308825
2.640606 -1.784463 0.378506 78.000000 1 353.308827
2.909657 -1.969977 3.209653 87.000000 14 353.308835
3.349183 -2.267561 3.028601 30.000000 12 353.308838
2.974923 -2.014925 2.196184 73.000000 10 353.308840
2.894372 -1.960371 1.703476 82.000000 8 353.308843
2.870080 -1.944648 1.295073 66.000000 6 353.308845
2.740102 -1.857279 0.889101 78.000000 4 353.308848
2.688690 -1.823116 0.544720 82.000000 2 353.308850
2.592114 -1.758291 0.220025 93.000000 0 353.308853
0.031310 -0.030731 3.474141 9.000000 31 353.308864
0.710060 -0.509749 5.557089 38.000000 28 353.308866
0.927667 -0.667573 5.518182 31.000000 27 353.308869
0.955008 -0.658934 3.754181 60.000000 25 353.308871
1.266340 -0.863490 3.670431 36.000000 23 353.308874
1.603780 -1.093186 3.622753 31.000000 21 353.308876
1.877000 -1.279427 3.408895 86.000000 19 353.308879
2.250605 -1.534095 3.336488 87.000000 17 353.308882
0.261954 -0.208264 5.609997 102.000000 30 353.308889
0.480969 -0.362974 5.567794 97.000000 29 353.308892
1.158658 -0.811675 5.480306 34.000000 26 353.308894
1.111531 -0.760768 3.717086 41.000000 24 353.308897
1.434003 -0.980758 3.654430 38.000000 22 353.308900
1.702230 -1.163781 3.443028 86.000000 20 353.308902
2.052358 -1.403163 3.365659 83.000000 18 353.308905
2.449745 -1.674855 3.295338 91.000000 16 353.308907
2.639948 -1.794771 3.216821 60.000000 15 353.308865
3.160685 -2.148800 3.163016 84.000000 13 353.308867
3.234628 -2.199896 2.649316 30.000000 11 353.308870
2.928145 -1.991456 1.939419 75.000000 9 353.308873
2.833205 -1.927610 1.472822 80.000000 7 353.308875
2.788293 -1.897766 1.080707 17.000000 5 353.308878
2.680190 -1.824188 0.707001 69.000000 3 353.308880
2.634361 -1.793669 0.378506 78.000000 1 353.308883
2.902763 -1.980121 3.209653 87.000000 14 353.308891
3.344587 -2.281516 3.031544 31.000000 12 353.308893
2.971432 -2.027728 2.198716 74.000000 10 353.308896
2.891261 -1.973021 1.705574 82.000000 8 353.308898
2.859373 -1.951992 1.293430 66.000000 6 353.308901
2.733603 -1.866832 0.889101 77.000000 4 353.308903
2.682310 -1.832490 0.544720 79.000000 2 353.308906
2.590086 -1.770147 0.220227 93.000000 0 353.308909
0.031203 -0.030840 3.474141 9.000000 31 353.308919
0.708276 -0.512224 5.557089 38.000000 28 353.308922
0.925331 -0.670807 5.518182 31.000000 27 353.308924
0.952702 -0.662264 3.754181 60.000000 25 353.308927
1.263318 -0.867905 3.670431 38.000000 23 353.308929
1.601930 -1.100134 3.627142 26.000000 21 353.308932
1.872523 -1.285972 3.408895 86.000000 19 353.308935
2.245236 -1.541942 3.336488 87.000000 17 353.308937
0.261226 -0.209177 5.609997 102.000000 30 353.308945
0.479699 -0.364651 5.567794 97.000000 29 353.308947
1.155818 -0.815714 5.480306 34.000000 26 353.308950
1.108869 -0.764644 3.717086 41.000000 24 353.308953
1.430571 -0.985758 3.654430 38.000000 22 353.308955
1.698157 -1.169716 3.443028 84.000000 20 353.308958
2.047448 -1.410319 3.365659 83.000000 18 353.308960
2.443884 -1.683396 3.295338 92.000000 16 353.308963
2.616014 -1.791883 3.195793 35.000000 15 353.308920
3.153165 -2.159820 3.163016 84.000000 13 353.308923
3.230379 -2.213537 2.652058 30.000000 11 353.308926
2.924830 -2.004170 1.941737 74.000000 9 353.308928
2.826459 -1.937488 1.472822 79.000000 7 353.308931
2.781651 -1.907487 1.080707 18.000000 5 353.308933
2.673806 -1.833533 0.707001 69.000000 3 353.308936
2.632190 -1.805671 0.378952 78.000000 1 353.308938
2.895833 -1.990242 3.209653 87.000000 14 353.308946
3.339933 -2.295466 3.034487 32.000000 12 353.308949
2.967889 -2.040530 2.201249 74.000000 10 353.308951
2.888096 -1.985673 1.707672 82.000000 8 353.308954
2.852542 -1.961961 1.293430 66.000000 6 353.308956
2.731074 -1.879118 0.890274 78.000000 4 353.308959
2.679976 -1.844649 0.545410 79.000000 2 353.308961
2.588005 -1.782011 0.220428 93.000000 0 353.308964
0.031095 -0.030948 3.474141 9.000000 31 353.308975
0.706484 -0.514693 5.557089 36.000000 28 353.308977
0.922984 -0.674033 5.518182 31.000000 27 353.308980
0.949162 -0.664728 3.749410 59.000000 25 353.308982
1.260281 -0.872310 3.670431 38.000000 23 353.308985
1.598080 -1.105719 3.627142 25.000000 21 353.308987
1.868023 -1.292500 3.408895 86.000000 19 353.308990
2.239840 -1.549770 3.336488 87.000000 17 353.308993
0.260269 -0.209905 5.605006 101.000000 30 353.309000
0.478423 -0.366323 5.567794 97.000000 29 353.309003
1.152963 -0.819744 5.480306 34.000000 26 353.309005
1.106193 -0.768510 3.717086 43.000000 24 353.309008
1.427122 -0.990746 3.654430 38.000000 22 353.309011
1.691921 -1.174149 3.438762 86.000000 20 353.309013
2.042512 -1.417457 3.365659 83.000000 18 353.309016
2.437993 -1.691917 3.295338 92.000000 16 353.309018
2.580391 -1.780748 3.160748 35.000000 15 353.308976
3.145607 -2.170813 3.163016 75.000000 13 353.308979
3.229514 -2.229551 2.657541 31.000000 11 353.308981
2.921462 -2.016884 1.944055 74.000000 9 353.308984
2.823493 -1.949977 1.474695 79.000000 7 353.308986
2.778923 -1.919912 1.082116 17.000000 5 353.308989
2.671431 -1.845647 0.707934 68.000000 3 353.308991
2.625871 -1.814848 0.378952 77.000000 1 353.308994
2.888869 -2.000338 3.209653 87.000000 14 353.309002
3.338547 -2.311713 3.040374 33.000000 12 353.309004
2.964292 -2.053333 2.203781 74.000000 10 353.309007
2.881147 -1.995742 1.707672 82.000000 8 353.309009
2.841795 -1.969217 1.291787 66.000000 6 353.309012
2.728492 -1.891409 0.891446 78.000000 4 353.309014
2.673521 -1.853993 0.545410 75.000000 2 353.309017
2.581769 -1.791034 0.220428 92.000000 0 353.309020
0.030987 -0.031057 3.474141 9.000000 31 353.309030
0.704683 -0.517156 5.557089 36.000000 28 353.309033
0.920626 -0.677251 5.518182 31.000000 27 353.309035
0.946835 -0.668037 3.749410 60.000000 25 353.309038
1.257228 -0.876703 3.670431 38.000000 23 353.309040
1.596175 -1.112660 3.631531 22.000000 21 353.309043
1.863500 -1.299013 3.408895 85.000000 19 353.309046
2.234416 -1.557579 3.336488 87.000000 17 353.309048
0.259535 -0.210812 5.605006 101.000000 30 353.309056
0.477142 -0.367991 5.567794 97.000000 29 353.309058
1.150095 -0.823764 5.480306 34.000000 26 353.309061
1.103504 -0.772367 3.717086 43.000000 24 353.309064
1.423654 -0.995721 3.654430 38.000000 22 353.309066
1.687812 -1.180048 3.438762 86.000000 20 353.309069
2.037552 -1.424578 3.365659 82.000000 18 353.309071
2.429294 -1.698474 3.291663 93.000000 16 353.309074
2.565376 -1.783637 3.150234 48.000000 15 353.309031
3.122029 -2.170669 3.147327 38.000000 13 353.309034
3.225145 -2.243198 2.660282 32.000000 11 353.309037
2.914404 -2.027070 1.944055 74.000000 9 353.309039
2.816669 -1.959821 1.474695 79.000000 7 353.309042
2.780079 -1.935082 1.084935 17.000000 5 353.309044
2.669004 -1.857767 0.708867 71.000000 3 353.309047
2.623607 -1.826849 0.379398 78.000000 1 353.309049
2.881868 -2.010410 3.209653 86.000000 14 353.309057
3.333772 -2.325665 3.043317 33.000000 12 353.309060
2.960642 -2.066135 2.206314 73.000000 10 353.309062
2.877885 -2.008384 1.709770 83.000000 8 353.309065
2.834904 -1.979125 1.291787 69.000000 6 353.309067
2.725858 -1.903705 0.892618 77.000000 4 353.309070
2.667033 -1.863314 0.545410 71.000000 2 353.309073
2.579597 -1.802897 0.220630 92.000000 0 353.309075
0.030878 -0.031165 3.474141 9.000000 31 353.309086
0.702249 -0.519151 5.552151 38.000000 28 353.309088
0.918256 -0.680460 5.518182 31.000000 27 353.309091
0.944498 -0.671338 3.749410 59.000000 25 353.309093
1.254160 -0.881087 3.670431 39.000000 23 353.309096
1.592282 -1.118225 3.631531 21.000000 21 353.309099
1.856651 -1.303893 3.404762 85.000000 19 353.309101
2.228966 -1.565369 3.336488 87.000000 17 353.309104
0.258797 -0.211717 5.605006 100.000000 30 353.309111
0.475854 -0.369654 5.567794 97.000000 29 353.309114
1.147212 -0.827773 5.480306 34.000000 26 353.309117
1.100801 -0.776214 3.717086 44.000000 24 353.309119
1.420170 -1.000684 3.654430 38.000000 22 353.309122
1.683683 -1.185932 3.438762 86.000000 20 353.309124
2.030103 -1.429946 3.361669 82.000000 18 353.309127
2.420578 -1.704991 3.287988 86.000000 16 353.309129
2.553292 -1.788489 3.143225 60.000000 15 353.309087
2.212101 -1.549499 2.259336 4.000000 13 353.309090
3.224144 -2.259241 2.665765 31.000000 11 353.309092
2.910939 -2.039773 1.946373 75.000000 9 353.309095
2.813607 -1.972302 1.476568 79.000000 7 353.309097
2.781163 -1.950283 1.087753 19.000000 5 353.309100
2.666524 -1.869893 0.709799 70.000000 3 353.309102
2.617214 -1.835996 0.379398 76.000000 1 353.309105
2.874834 -2.020457 3.209653 68.000000 14 353.309113
3.328940 -2.339612 3.046260 33.000000 12 353.309115
2.956939 -2.078936 2.208846 72.000000 10 353.309118
2.874570 -2.021028 1.711869 82.000000 8 353.309120
2.827978 -1.989008 1.291787 66.000000 6 353.309123
2.719197 -1.913208 0.892618 78.000000 4 353.309125
2.660512 -1.872612 0.545410 62.000000 2 353.309128
2.573287 -1.811891 0.220630 91.000000 0 353.309131
0.030797 -0.031306 3.479141 9.000000 31 353.309142
0.700432 -0.521599 5.552151 38.000000 28 353.309145
0.915875 -0.683662 5.518182 31.000000 27 353.309147
0.942149 -0.674631 3.749410 59.000000 25 353.309150
1.251077 -0.885459 3.670431 39.000000 23 353.309152
1.590325 -1.125160 3.635919 21.000000 21 353.309155
1.852088 -1.310366 3.404762 86.000000 19 353.309157
2.223488 -1.573140 3.336488 87.000000 17 353.309160
0.258094 -0.212574 5.605006 101.000000 30 353.309168
0.474626 -0.371230 5.567794 97.000000 29 353.309170
1.144461 -0.831573 5.480306 34.000000 26 353.309173
1.098221 -0.779860 3.717086 44.000000 24 353.309175
1.416668 -1.005636 3.654430 39.000000 22 353.309178
1.679533 -1.191802 3.438762 86.000000 20 353.309180
2.025099 -1.437024 3.361669 83.000000 18 353.309183
2.406616 -1.707125 3.276963 74.000000 16 353.309186
2.547033 -1.797391 3.143225 60.000000 15 353.309143
2.209859 -1.559456 2.262474 6.000000 13 353.309146
3.219654 -2.272893 2.668507 31.000000 11 353.309148
2.907420 -2.052476 1.948691 75.000000 9 353.309151
2.810839 -1.984295 1.478441 79.000000 7 353.309154
2.782517 -1.965030 1.090571 21.000000 5 353.309156
2.663993 -1.882024 0.710732 70.000000 3 353.309159
2.614856 -1.847995 0.379844 74.000000 1 353.309161
2.855572 -2.021848 3.196353 22.000000 14 353.309169
3.327351 -2.355890 3.052146 33.000000 12 353.309172
2.953547 -2.091222 2.211378 72.000000 10 353.309174
2.867852 -2.030549 1.711869 83.000000 8 353.309177
2.821367 -1.998375 1.291787 66.000000 6 353.309179
2.716803 -1.925025 0.893790 80.000000 4 353.309182
2.658328 -1.884288 0.546099 52.000000 2 353.309184
2.571340 -1.823304 0.220831 91.000000 0 353.309187
0.030693 -0.031408 3.479141 9.000000 31 353.309198
0.698699 -0.523919 5.552151 37.000000 28 353.309200
0.913603 -0.686695 5.518182 31.000000 27 353.309203
0.939906 -0.677752 3.749410 59.000000 25 353.309205
1.248134 -0.889603 3.670431 39.000000 23 353.309208
1.586585 -1.130428 3.635919 20.000000 21 353.309210
1.847733 -1.316500 3.404762 86.000000 19 353.309213
2.218259 -1.580504 3.336488 87.000000 17 353.309215
0.257350 -0.213474 5.605006 101.000000 30 353.309223
0.473327 -0.372884 5.567794 97.000000 29 353.309226
1.141551 -0.835563 5.480306 35.000000 26 353.309228
1.095492 -0.783689 3.717086 46.000000 24 353.309231
1.413326 -1.010328 3.654430 38.000000 22 353.309233
1.675572 -1.197365 3.438762 86.000000 20 353.309236
2.020323 -1.443732 3.361669 83.000000 18 353.309239
2.370301 -1.693833 3.236536 37.000000 16 353.309241
2.538152 -1.803761 3.139721 60.000000 15 353.309199
2.163424 -1.537459 2.221683 8.000000 13 353.309201
3.218915 -2.288403 2.673990 31.000000 11 353.309204
2.904208 -2.064673 1.951009 74.000000 9 353.309206
2.807673 -1.996781 1.480314 79.000000 7 353.309209
2.783459 -1.980293 1.093390 24.000000 5 353.309212
2.661740 -1.893696 0.711665 71.000000 3 353.309214
2.608714 -1.856655 0.379844 70.000000 1 353.309217
2.477902 -1.766808 2.790722 4.000000 14 353.309224
3.322811 -2.369257 3.055089 32.000000 12 353.309227
2.946229 -2.101518 2.211378 72.000000 10 353.309230
2.864441 -2.043183 1.713966 83.000000 8 353.309232
2.814374 -2.008212 1.291787 69.000000 6 353.309235
2.714023 -1.937321 0.894963 80.000000 4 353.309237
2.651734 -1.893556 0.546099 44.000000 2 353.309240
2.569025 -1.835172 0.221033 88.000000 0 353.309242
0.030611 -0.031549 3.484141 9.000000 31 353.309253
0.696866 -0.526354 5.552151 37.000000 28 353.309256
0.911200 -0.689880 5.518182 31.000000 27 353.309258
0.937535 -0.681029 3.749410 59.000000 25 353.309261
1.245021 -0.893954 3.670431 39.000000 23 353.309263
1.582629 -1.135959 3.635919 19.000000 21 353.309266
1.843126 -1.322942 3.404762 86.000000 19 353.309268
2.212729 -1.588238 3.336488 88.000000 17 353.309271
0.256604 -0.214371 5.605006 101.000000 30 353.309279
0.472023 -0.374534 5.567794 97.000000 29 353.309281
1.138628 -0.839543 5.480306 34.000000 26 353.309284
1.092750 -0.787508 3.717086 46.000000 24 353.309286
1.409790 -1.015255 3.654430 38.000000 22 353.309289
1.671382 -1.203207 3.438762 86.000000 20 353.309292
2.015271 -1.450775 3.361669 83.000000 18 353.309294
2.345115 -1.688232 3.210809 37.000000 16 353.309297
2.531840 -1.812610 3.139721 60.000000 15 353.309254
2.116896 -1.515542 2.180892 8.000000 13 353.309257
3.214307 -2.302060 2.676731 31.000000 11 353.309259
2.900585 -2.077378 1.953327 73.000000 9 353.309262
2.804454 -2.009270 1.482187 79.000000 7 353.309265
