# .PCD v.7 - Point Cloud Data file format
VERSION .7
FIELDS x y z intensity ring timestamp
SIZE 4 4 4 4 2 8
TYPE F F F F U D
COUNT 1 1 1 1 1 1
WIDTH 930
HEIGHT 1
VIEWPOINT 0 0 0 1 0 0 0
POINTS 930
DATA ascii
-2.268910 2.608239 1.895377 10.000000 9 353.863207
-3.301163 3.796211 2.120892 11.000000 7 353.863210
-3.449683 3.968403 1.634521 7.000000 5 353.863212
-2.156002 2.480193 0.715395 23.000000 3 353.863215
-3.580003 4.119771 0.581977 9.000000 1 353.863217
-1.888956 2.177585 2.647753 9.000000 14 353.863225
-1.916646 2.209511 2.213346 9.000000 12 353.863228
-1.950053 2.248815 1.834047 9.000000 10 353.863230
-2.257505 2.603376 1.680398 16.000000 8 353.863233
-3.402924 3.925669 1.896295 9.000000 6 353.863235
-3.538389 4.086266 0.311722 15.000000 0 353.863243
-0.021979 0.037063 3.384145 38.000000 31 353.863254
-0.370188 0.451021 3.709807 99.000000 28 353.863256
-0.490535 0.599106 3.746109 89.000000 27 353.863259
-0.830026 0.974081 4.135920 93.000000 25 353.863261
-1.142068 1.325404 4.181312 89.000000 23 353.863264
-1.648880 1.912920 4.693587 16.000000 21 353.863266
-1.909348 2.215106 4.367739 8.000000 19 353.863269
-1.805515 2.094648 3.386369 8.000000 17 353.863272
-0.128929 0.173221 3.563438 25.000000 30 353.863279
-0.246907 0.315641 3.688600 8.000000 29 353.863282
-0.622718 0.741309 3.762388 93.000000 26 353.863284
-0.983141 1.144991 4.158206 89.000000 24 353.863287
-1.788961 2.082771 5.738316 8.000000 22 353.863290
-2.045795 2.380958 5.204859 11.000000 20 353.863292
-1.761670 2.050286 3.652903 12.000000 18 353.863295
-1.819079 2.117104 3.104230 9.000000 16 353.863297
-1.858655 2.150983 2.873375 9.000000 15 353.863255
-1.900731 2.199680 2.425639 9.000000 13 353.863257
-1.922969 2.226202 2.013296 9.000000 11 353.863260
-3.420137 3.962263 1.627475 7.000000 5 353.863268
-2.146897 2.488078 0.715395 24.000000 3 353.863270
-3.535605 4.098926 0.577962 10.000000 1 353.863273
-1.871215 2.173174 2.634454 9.000000 14 353.863281
-1.897986 2.204268 2.201573 9.000000 12 353.863283
-1.938985 2.252679 1.831514 9.000000 10 353.863286
-2.239066 2.601313 1.674103 15.000000 8 353.863288
-3.370032 3.916636 1.886439 9.000000 6 353.863291
-2.127605 2.474438 0.546789 16.000000 2 353.863296
-3.533875 4.109956 0.312326 17.000000 0 353.863299
-0.021843 0.037143 3.384145 38.000000 31 353.863309
-0.368533 0.452375 3.709807 99.000000 28 353.863312
-0.488336 0.600900 3.746109 89.000000 27 353.863314
-0.826450 0.977117 4.135920 93.000000 25 353.863317
-1.137203 1.329581 4.181312 96.000000 23 353.863319
-1.635628 1.911669 4.676032 12.000000 21 353.863322
-1.904875 2.226365 4.376005 8.000000 19 353.863325
-1.789489 2.091508 3.371021 8.000000 17 353.863327
-0.128293 0.173692 3.563438 25.000000 30 353.863335
-0.246075 0.316966 3.693571 8.000000 29 353.863337
-0.619997 0.743586 3.762388 93.000000 26 353.863340
-0.978938 1.148587 4.158206 90.000000 24 353.863343
-1.784506 2.092317 5.747318 8.000000 22 353.863345
-2.029008 2.378164 5.183529 10.000000 20 353.863348
-1.756459 2.058715 3.656892 11.000000 18 353.863350
-1.800676 2.110545 3.085854 9.000000 16 353.863353
-1.841472 2.146953 2.859357 9.000000 15 353.863310
-1.882518 2.194813 2.413087 9.000000 13 353.863313
-1.903910 2.220537 2.002331 9.000000 11 353.863316
-1.950288 2.274633 1.654302 6.000000 9 353.863318
-3.371257 3.934698 1.611974 8.000000 5 353.863323
-2.150983 2.510478 0.719126 23.000000 3 353.863326
-3.508317 4.096113 0.576177 10.000000 1 353.863328
-1.853911 2.168339 2.621155 9.000000 14 353.863336
-1.879773 2.198591 2.189800 9.000000 12 353.863339
-1.917105 2.243047 1.818852 9.000000 10 353.863341
-2.194587 2.567712 1.648927 11.000000 8 353.863344
-3.325664 3.892472 1.870012 11.000000 6 353.863346
-3.393575 3.973362 1.350994 9.000000 4 353.863349
-2.118954 2.481850 0.546789 17.000000 2 353.863351
-3.505815 4.107680 0.311520 12.000000 0 353.863354
-0.021713 0.037219 3.384145 38.000000 31 353.863365
-0.366951 0.453659 3.709807 99.000000 28 353.863367
-0.485597 0.601809 3.741214 90.000000 27 353.863370
-0.823035 0.979996 4.135920 94.000000 25 353.863372
-1.132555 1.333543 4.181312 96.000000 23 353.863375
-1.628945 1.917367 4.676032 13.000000 21 353.863377
-1.902557 2.239434 4.388404 8.000000 19 353.863380
-1.771799 2.085526 3.351836 9.000000 17 353.863383
-0.127686 0.174139 3.563438 25.000000 30 353.863390
-0.244967 0.317823 3.693571 8.000000 29 353.863393
-0.617398 0.745746 3.762388 93.000000 26 353.863395
-0.974922 1.151997 4.158206 89.000000 24 353.863398
-1.780006 2.101857 5.756320 8.000000 22 353.863401
-1.998779 2.359363 5.128073 8.000000 20 353.863403
-1.764848 2.083231 3.688808 10.000000 18 353.863406
-1.782341 2.103885 3.067478 9.000000 16 353.863408
-1.827030 2.145223 2.848843 9.000000 15 353.863366
-1.864749 2.189516 2.400536 9.000000 13 353.863369
-1.882594 2.211250 1.988623 9.000000 11 353.863371
-1.919361 2.254440 1.635758 9.000000 9 353.863374
-2.217953 2.606082 1.470949 16.000000 7 353.863376
-3.317090 3.898942 1.593654 8.000000 5 353.863379
-1.834247 2.160563 2.604530 9.000000 14 353.863392
-1.864239 2.195896 2.180971 9.000000 12 353.863394
-1.898105 2.236577 1.808723 9.000000 10 353.863397
-3.281505 3.868045 1.853586 7.000000 6 353.863402
-3.379685 3.985184 1.350994 9.000000 4 353.863404
-2.100671 2.477899 0.544720 18.000000 2 353.863407
-3.488225 4.116082 0.311319 11.000000 0 353.863410
-0.021583 0.037294 3.384145 38.000000 31 353.863420
-0.365365 0.454937 3.709807 99.000000 28 353.863423
-0.483493 0.603500 3.741214 89.000000 27 353.863425
-0.819609 0.982863 4.135920 94.000000 25 353.863428
-1.127893 1.337488 4.181312 96.000000 23 353.863430
-1.623787 1.924873 4.680421 12.000000 21 353.863433
-1.900172 2.252515 4.400803 8.000000 19 353.863436
-1.756240 2.081896 3.336488 9.000000 17 353.863438
-0.127247 0.174818 3.568429 25.000000 30 353.863446
-0.244180 0.319101 3.698543 8.000000 29 353.863448
-0.614791 0.747896 3.762388 93.000000 26 353.863451
-0.970895 1.155393 4.158206 90.000000 24 353.863454
-1.771257 2.106391 5.751819 9.000000 22 353.863456
-1.925056 2.288489 4.961701 8.000000 20 353.863459
-1.763386 2.096298 3.700776 9.000000 18 353.863461
-1.766257 2.099716 3.052778 9.000000 16 353.863464
-1.810319 2.140695 2.834825 9.000000 15 353.863421
-1.844526 2.181149 2.384847 9.000000 13 353.863424
-1.864066 2.205035 1.977657 9.000000 11 353.863427
-1.911480 2.261127 1.635758 9.000000 9 353.863429
-2.196873 2.599644 1.463457 15.000000 7 353.863432
-3.300364 3.906833 1.592245 7.000000 5 353.863434
-3.369703 3.988913 1.082847 11.000000 3 353.863437
-1.817066 2.155532 2.591231 9.000000 14 353.863447
-1.846142 2.190028 2.169198 9.000000 12 353.863450
-1.879174 2.230002 1.798593 9.000000 10 353.863452
-1.892924 2.246323 1.445416 8.000000 8 353.863455
-3.321922 3.944905 1.334582 10.000000 4 353.863460
-2.098387 2.492794 0.546099 16.000000 2 353.863463
-3.451319 4.101474 0.309908 11.000000 0 353.863465
-0.021452 0.037370 3.384145 38.000000 31 353.863476
-0.363775 0.456210 3.709807 100.000000 28 353.863478
-0.481383 0.605184 3.741214 89.000000 27 353.863481
-0.816173 0.985717 4.135920 94.000000 25 353.863483
-1.123218 1.341417 4.181312 96.000000 23 353.863486
-1.618596 1.932366 4.684810 10.000000 21 353.863489
-1.897719 2.265605 4.413202 8.000000 19 353.863491
-1.740728 2.078183 3.321141 9.000000 17 353.863494
-0.126636 0.175261 3.568429 25.000000 30 353.863501
-0.243387 0.320377 3.703514 8.000000 29 353.863504
-0.612176 0.750038 3.762388 93.000000 26 353.863507
-0.966856 1.158775 4.158206 89.000000 24 353.863509
-1.765290 2.114232 5.756320 8.000000 22 353.863512
-1.833462 2.195111 4.748405 9.000000 20 353.863514
-1.757989 2.104754 3.704766 9.000000 18 353.863517
-1.750224 2.095461 3.038077 9.000000 16 353.863519
-1.793663 2.136077 2.820807 9.000000 15 353.863477
-1.826888 2.175650 2.372296 8.000000 13 353.863480
-1.845604 2.198718 1.966691 9.000000 11 353.863482
-1.877941 2.237246 1.614895 9.000000 9 353.863485
-2.175866 2.593092 1.455965 15.000000 7 353.863487
-3.255877 3.881574 1.578153 9.000000 5 353.863490
-3.336818 3.978070 1.077252 10.000000 3 353.863492
-2.076526 2.476458 0.382522 18.000000 1 353.863495
-1.797547 2.147544 2.574607 9.000000 14 353.863503
-1.828109 2.184061 2.157425 9.000000 12 353.863505
-1.860312 2.223322 1.788463 9.000000 10 353.863508
-1.867596 2.232032 1.432827 9.000000 8 353.863510
-2.178825 2.604917 1.270432 5.000000 6 353.863513
-3.289424 3.934103 1.327548 10.000000 4 353.863515
-2.089673 2.500104 0.546099 16.000000 2 353.863518
-3.414559 4.086660 0.308497 10.000000 0 353.863521
-0.021340 0.037484 3.389144 38.000000 31 353.863532
-0.362180 0.457477 3.709807 99.000000 28 353.863535
-0.478637 0.606061 3.736319 89.000000 27 353.863537
-0.812727 0.988560 4.135920 94.000000 25 353.863540
-1.118528 1.345330 4.181312 96.000000 23 353.863542
-1.622564 1.950898 4.715530 7.000000 21 353.863545
-1.893397 2.276543 4.421467 8.000000 19 353.863547
-1.725263 2.074387 3.305793 10.000000 17 353.863550
-0.126054 0.175680 3.568429 24.000000 30 353.863558
-0.242644 0.321609 3.708486 8.000000 29 353.863560
-0.609686 0.752064 3.762388 92.000000 26 353.863563
-0.963008 1.161975 4.158206 87.000000 24 353.863565
-1.775967 2.142176 5.814830 3.000000 22 353.863568
-1.807475 2.179415 4.701479 9.000000 20 353.863570
-1.742936 2.101598 3.688808 10.000000 18 353.863573
-1.734607 2.090817 3.023376 10.000000 16 353.863576
-1.777060 2.131369 2.806789 9.000000 15 353.863533
-1.809311 2.170054 2.359745 8.000000 13 353.863536
-1.829886 2.195511 1.958467 9.000000 11 353.863538
-1.870120 2.243788 1.614895 9.000000 9 353.863541
-3.242987 3.892350 1.578153 9.000000 5 353.863546
-3.307193 3.970821 1.072589 8.000000 3 353.863549
-2.058309 2.472210 0.381183 19.000000 1 353.863551
-1.780491 2.142317 2.561307 10.000000 14 353.863559
-1.810140 2.177995 2.145653 10.000000 12 353.863562
-1.841906 2.216216 1.778333 9.000000 10 353.863564
-1.845680 2.220761 1.422337 9.000000 8 353.863567
-2.158103 2.597598 1.263862 15.000000 6 353.863569
-3.254622 3.918815 1.319342 10.000000 4 353.863572
-0.021215 0.037555 3.389144 38.000000 31 353.863588
-0.360661 0.458675 3.709807 99.000000 28 353.863590
-0.476625 0.607645 3.736319 88.000000 27 353.863593
-0.809445 0.991250 4.135920 92.000000 25 353.863595
-1.114061 1.349031 4.181312 96.000000 23 353.863598
-1.889422 2.287148 4.429733 8.000000 19 353.863603
-1.710207 2.070210 3.290445 10.000000 17 353.863605
-0.125440 0.176119 3.568429 25.000000 30 353.863613
-0.242158 0.323310 3.718429 8.000000 29 353.863616
-0.607057 0.754188 3.762388 93.000000 26 353.863618
-0.958946 1.165329 4.158206 90.000000 24 353.863621
-1.767470 2.146372 5.810329 3.000000 22 353.863623
-1.795264 2.179358 4.688681 9.000000 20 353.863626
-1.768534 2.146914 3.756629 9.000000 18 353.863629
-1.718676 2.086392 3.008675 9.000000 16 353.863631
-1.760884 2.126263 2.792771 9.000000 15 353.863589
-1.792173 2.164049 2.347194 9.000000 13 353.863591
-1.811930 2.188683 1.947501 9.000000 11 353.863594
-1.854194 2.239739 1.607941 10.000000 9 353.863596
-1.847820 2.232833 1.259296 9.000000 7 353.863599
-3.272089 3.955272 1.066060 8.000000 3 353.863604
-2.046926 2.475184 0.380737 18.000000 1 353.863607
-1.763868 2.136690 2.548008 9.000000 14 353.863614
-1.795188 2.174634 2.136823 10.000000 12 353.863617
-1.823183 2.209331 1.768204 9.000000 10 353.863620
-1.829251 2.216689 1.416043 10.000000 8 353.863622
-2.146018 2.601473 1.262219 15.000000 6 353.863625
-3.213091 3.896402 1.308791 9.000000 4 353.863627
-3.279049 3.977800 0.810299 12.000000 2 353.863630
-2.045912 2.482769 0.223451 11.000000 0 353.863632
-0.021084 0.037628 3.389144 34.000000 31 353.863643
-0.359058 0.459931 3.709807 99.000000 28 353.863646
-0.474501 0.609305 3.736319 88.000000 27 353.863648
-0.805980 0.994070 4.135920 94.000000 25 353.863651
-1.109345 1.352912 4.181312 93.000000 23 353.863653
-1.900966 2.317547 5.558153 9.000000 21 353.863656
-1.886781 2.300257 4.442132 9.000000 19 353.863658
-1.696871 2.068731 3.278934 9.000000 17 353.863661
-0.124824 0.176556 3.568429 24.000000 30 353.863669
-0.241346 0.324582 3.723400 8.000000 29 353.863671
-0.604420 0.756302 3.762388 93.000000 26 353.863674
-0.954873 1.168669 4.158206 89.000000 24 353.863676
-1.834403 2.243570 6.053374 6.000000 22 353.863679
-1.776087 2.171480 4.658820 9.000000 20 353.863682
-1.774386 2.169405 3.784556 8.000000 18 353.863684
-1.704944 2.084507 2.997650 9.000000 16 353.863687
-1.744391 2.121379 2.778752 9.000000 15 353.863644
-1.774718 2.158264 2.334643 9.000000 13 353.863647
-1.796314 2.185304 1.939277 9.000000 11 353.863649
-1.840738 2.239353 1.603305 10.000000 9 353.863652
-1.825298 2.221360 1.249931 12.000000 7 353.863655
-2.140850 2.606310 1.080707 4.000000 5 353.863657
-3.236436 3.940098 1.059532 9.000000 3 353.863660
-2.044594 2.490012 0.381629 17.000000 1 353.863662
-1.749297 2.134170 2.538033 9.000000 14 353.863670
-1.777337 2.168383 2.125051 10.000000 12 353.863673
-1.804530 2.202343 1.758074 9.000000 10 353.863675
-1.809996 2.209018 1.407651 10.000000 8 353.863678
-2.118969 2.587028 1.252363 14.000000 6 353.863680
-3.187153 3.892550 1.304102 10.000000 4 353.863683
-3.265144 3.989222 0.810299 11.000000 2 353.863685
-2.027742 2.478295 0.222847 16.000000 0 353.863688
-0.020953 0.037702 3.389144 34.000000 31 353.863699
-0.357451 0.461182 3.709807 99.000000 28 353.863701
-0.472994 0.611764 3.741214 90.000000 27 353.863704
-0.802505 0.996877 4.135920 93.000000 25 353.863706
-1.104616 1.356776 4.181312 93.000000 23 353.863709
-1.882275 2.311165 5.527433 7.000000 21 353.863711
-1.884071 2.313375 4.454531 9.000000 19 353.863714
-1.681542 2.064699 3.263587 9.000000 17 353.863716
-0.124207 0.176991 3.568429 24.000000 30 353.863724
-0.240212 0.325422 3.723400 8.000000 29 353.863727
-0.601777 0.758407 3.762388 93.000000 26 353.863729
-0.950787 1.171995 4.158206 87.000000 24 353.863732
-1.822443 2.244887 6.039872 10.000000 22 353.863734
-1.753699 2.159446 4.620426 9.000000 20 353.863737
-1.791503 2.206000 3.836419 8.000000 18 353.863740
-1.689109 2.079918 2.982949 9.000000 16 353.863742
-1.727954 2.116405 2.764734 9.000000 15 353.863700
-1.759788 2.155400 2.325230 9.000000 13 353.863702
-1.778099 2.178603 1.928311 9.000000 11 353.863705
-1.821705 2.232036 1.594033 10.000000 9 353.863708
-1.805811 2.213350 1.242439 12.000000 7 353.863710
-2.119611 2.598896 1.075070 21.000000 5 353.863713
-3.200930 3.924724 1.053004 8.000000 3 353.863715
-2.045331 2.508713 0.382968 5.000000 1 353.863718
-1.732408 2.128677 2.524734 10.000000 14 353.863726
-1.762103 2.165169 2.116221 10.000000 12 353.863728
-1.788669 2.198596 1.750477 9.000000 10 353.863731
-1.790817 2.201240 1.399259 10.000000 8 353.863733
-2.080130 2.557770 1.235936 12.000000 6 353.863736
-3.155150 3.881023 1.297068 9.000000 4 353.863738
-3.226213 3.969850 0.804780 9.000000 2 353.863741
-2.019079 2.485358 0.222847 17.000000 0 353.863743
-0.020839 0.037815 3.394144 37.000000 31 353.863754
-0.355839 0.462427 3.709807 97.000000 28 353.863757
-0.470855 0.613411 3.741214 90.000000 27 353.863759
-0.799020 0.999672 4.135920 93.000000 25 353.863762
-1.099873 1.360623 4.181312 94.000000 23 353.863764
-1.868170 2.310270 5.509878 7.000000 21 353.863767
-1.881293 2.326502 4.466930 9.000000 19 353.863769
-1.668277 2.063077 3.252075 9.000000 17 353.863772
-0.123589 0.177423 3.568429 25.000000 30 353.863780
-0.239389 0.326690 3.728371 8.000000 29 353.863782
-0.599126 0.760503 3.762388 93.000000 26 353.863785
-0.946691 1.175307 4.158206 89.000000 24 353.863787
-1.813228 2.249539 6.035371 9.000000 22 353.863790
-1.744514 2.163524 4.616160 9.000000 20 353.863793
-1.783792 2.212240 3.836419 8.000000 18 353.863795
-1.673326 2.075245 2.968249 9.000000 16 353.863798
-1.711573 2.111343 2.750716 9.000000 15 353.863755
-1.742447 2.149433 2.312679 9.000000 13 353.863758
-1.759953 2.171802 1.917345 9.000000 11 353.863760
-1.802746 2.224613 1.584761 10.000000 9 353.863763
-1.792237 2.212435 1.238693 13.000000 7 353.863766
-2.110527 2.606279 1.075070 23.000000 5 353.863768
-3.162480 3.905334 1.045543 9.000000 3 353.863771
-1.717926 2.125998 2.514760 10.000000 14 353.863781
-1.746913 2.161875 2.107392 10.000000 12 353.863784
-1.770147 2.191411 1.740347 9.000000 10 353.863786
-1.771715 2.193356 1.390866 10.000000 8 353.863789
-3.203007 3.969525 0.802711 9.000000 2 353.863796
-2.010391 2.492391 0.222847 12.000000 0 353.863799
-0.020706 0.037887 3.394144 37.000000 31 353.863810
-0.354222 0.463666 3.709807 97.000000 28 353.863812
-0.468711 0.615051 3.741214 89.000000 27 353.863815
-0.795526 1.002455 4.135920 92.000000 25 353.863817
-1.095117 1.364455 4.181312 96.000000 23 353.863820
-1.830097 2.279413 5.422104 7.000000 21 353.863822
-1.878446 2.339637 4.479329 8.000000 19 353.863825
-1.653037 2.058888 3.236728 9.000000 17 353.863828
-0.122805 0.177615 3.563438 25.000000 30 353.863835
-0.238561 0.327956 3.733343 8.000000 29 353.863838
-0.596467 0.762590 3.762388 93.000000 26 353.863840
-0.942582 1.178604 4.158206 89.000000 24 353.863843
-1.792728 2.240865 5.994864 8.000000 22 353.863846
-1.733313 2.165831 4.607629 10.000000 20 353.863848
-1.781321 2.225823 3.848388 9.000000 18 353.863851
-1.659354 2.073424 2.957223 9.000000 16 353.863853
-1.697484 2.108970 2.740202 9.000000 15 353.863811
-1.725170 2.143372 2.300128 9.000000 13 353.863813
-1.744497 2.168159 1.909121 9.000000 11 353.863816
-1.783861 2.217086 1.575489 10.000000 9 353.863819
-1.772882 2.204228 1.231201 13.000000 7 353.863821
-2.098410 2.609891 1.073661 22.000000 5 353.863824
-3.126603 3.890096 1.039014 8.000000 3 353.863826
-3.203251 3.986886 0.551189 6.000000 1 353.863829
-1.703113 2.123541 2.504785 10.000000 14 353.863837
-1.731391 2.158803 2.098562 10.000000 12 353.863839
-1.754013 2.187793 1.732750 10.000000 10 353.863842
-1.752308 2.185670 1.382474 11.000000 8 353.863844
-1.804835 2.251992 1.093022 14.000000 6 353.863847
-2.087935 2.606166 0.896135 6.000000 4 353.863849
-3.166767 3.954181 0.797882 9.000000 2 353.863852
-2.001679 2.499393 0.222847 12.000000 0 353.863854
-0.020567 0.037963 3.394144 37.000000 31 353.863865
-0.352520 0.464961 3.709807 99.000000 28 353.863868
-0.465840 0.615952 3.736319 85.000000 27 353.863870
-0.791846 1.005364 4.135920 93.000000 25 353.863873
-1.090109 1.368459 4.181312 96.000000 23 353.863875
-1.736627 2.179308 5.171951 7.000000 21 353.863878
-1.873365 2.350908 4.487595 8.000000 19 353.863880
-1.639486 2.057412 3.225217 9.000000 17 353.863883
-0.122153 0.178063 3.563438 25.000000 30 353.863891
-0.237357 0.328828 3.733343 8.000000 29 353.863893
-0.593668 0.764771 3.762388 93.000000 26 353.863896
-0.938256 1.182051 4.158206 89.000000 24 353.863898
-1.782186 2.243699 5.985862 8.000000 22 353.863901
-1.722498 2.167785 4.599097 9.000000 20 353.863904
-1.781041 2.241466 3.864346 9.000000 18 353.863906
-1.645779 2.071240 2.946198 9.000000 16 353.863909
-1.680839 2.104032 2.726184 10.000000 15 353.863866
-1.710014 2.140556 2.290714 9.000000 13 353.863869
-1.726102 2.161468 1.898155 9.000000 11 353.863872
-1.764665 2.209762 1.566217 10.000000 9 353.863874
-1.756114 2.199842 1.225582 14.000000 7 353.863877
-2.091823 2.621315 1.075070 22.000000 5 353.863879
-3.113005 3.900986 1.039014 8.000000 3 353.863882
-3.167575 3.970791 0.548065 7.000000 1 353.863884
-1.686385 2.117788 2.491486 10.000000 14 353.863892
-1.713773 2.152186 2.086790 10.000000 12 353.863895
-1.735626 2.180410 1.722620 9.000000 10 353.863897
-1.736189 2.181121 1.376180 12.000000 8 353.863900
-1.796963 2.258279 1.093022 14.000000 6 353.863902
-2.066723 2.598222 0.891446 19.000000 4 353.863905
-3.122123 3.926449 0.790984 8.000000 2 353.863907
-0.020452 0.038074 3.399144 37.000000 31 353.863921
-0.350428 0.465568 3.704868 99.000000 28 353.863923
-0.463687 0.617575 3.736319 85.000000 27 353.863926
-0.788332 1.008122 4.135920 93.000000 25 353.863928
-1.085325 1.372256 4.181312 96.000000 23 353.863931
-1.681442 2.125235 5.031514 10.000000 21 353.863933
-1.866894 2.359640 4.491727 8.000000 19 353.863936
-1.624337 2.053065 3.209869 9.000000 17 353.863939
-0.121531 0.178489 3.563438 24.000000 30 353.863946
-0.236518 0.330089 3.738314 8.000000 29 353.863949
-0.590995 0.766839 3.762388 92.000000 26 353.863951
-0.934124 1.185319 4.158206 89.000000 24 353.863954
-1.711689 2.169689 4.590565 9.000000 20 353.863959
-1.767605 2.240571 3.852377 9.000000 18 353.863962
-1.630140 2.066326 2.931497 9.000000 16 353.863964
-1.666836 2.101504 2.715671 9.000000 15 353.863922
-1.692855 2.134312 2.278163 9.000000 13 353.863924
-1.710753 2.157651 1.889930 9.000000 11 353.863927
-1.743178 2.198551 1.554627 10.000000 9 353.863930
-1.739786 2.195059 1.219963 14.000000 7 353.863932
-2.079681 2.624840 1.073661 23.000000 5 353.863935
-3.135143 3.958400 0.545388 8.000000 1 353.863940
-1.672034 2.114873 2.481511 10.000000 14 353.863948
-1.698730 2.148643 2.077960 10.000000 12 353.863950
-1.719985 2.176307 1.715023 9.000000 10 353.863953
-1.717308 2.172925 1.367788 12.000000 8 353.863955
-1.777359 2.249715 1.086452 14.000000 6 353.863958
-2.051615 2.597791 0.889101 17.000000 4 353.863960
-3.077713 3.898455 0.784086 11.000000 2 353.863963
-3.153655 3.996083 0.299025 11.000000 0 353.863966
-0.020319 0.038146 3.399144 36.000000 31 353.863976
-0.348801 0.466788 3.704868 99.000000 28 353.863979
-0.461529 0.619189 3.736319 88.000000 27 353.863981
-0.784808 1.010868 4.135920 91.000000 25 353.863984
-1.080528 1.376036 4.181312 96.000000 23 353.863986
-1.656254 2.108483 4.978850 10.000000 21 353.863989
-1.856907 2.363929 4.487595 9.000000 19 353.863992
-1.609239 2.048638 3.194521 9.000000 17 353.863994
-0.120907 0.178912 3.563438 24.000000 30 353.864002
-0.235364 0.330913 3.738314 8.000000 29 353.864004
-0.588315 0.768897 3.762388 93.000000 26 353.864007
-0.929981 1.188573 4.158206 87.000000 24 353.864010
-1.704105 2.175651 4.590565 10.000000 20 353.864015
-1.739330 2.220627 3.808493 8.000000 18 353.864017
-1.616646 2.063997 2.920472 9.000000 16 353.864020
-1.652871 2.098904 2.705157 9.000000 15 353.863977
-1.678169 2.131033 2.268750 9.000000 13 353.863980
-1.695451 2.153753 1.881706 9.000000 11 353.863983
-1.721792 2.187218 1.543037 10.000000 9 353.863985
-1.726379 2.193832 1.216217 14.000000 7 353.863988
-1.969660 2.503886 1.025748 7.000000 5 353.863990
-2.047006 2.602211 0.720058 3.000000 3 353.863993
-3.099759 3.941917 0.542265 10.000000 1 353.863995
-1.657725 2.111884 2.471536 10.000000 14 353.864003
-1.681236 2.141841 2.066188 10.000000 12 353.864006
-1.704393 2.172123 1.707426 10.000000 10 353.864008
-1.701308 2.168195 1.361494 13.000000 8 353.864011
-1.769495 2.255906 1.086452 14.000000 6 353.864013
-2.042535 2.604937 0.889101 17.000000 4 353.864016
-3.054921 3.897481 0.782016 10.000000 2 353.864018
-3.124281 3.987405 0.298018 11.000000 0 353.864021
-0.020186 0.038216 3.399144 37.000000 31 353.864032
-0.347170 0.468003 3.704868 100.000000 28 353.864034
-0.459364 0.620797 3.736319 89.000000 27 353.864037
-0.781275 1.013601 4.135920 93.000000 25 353.864039
-1.075719 1.379799 4.181312 96.000000 23 353.864042
-1.634151 2.095359 4.934963 9.000000 21 353.864044
-1.843452 2.363739 4.475196 8.000000 19 353.864047
-1.594192 2.044131 3.179174 9.000000 17 353.864050
-0.120282 0.179333 3.563438 25.000000 30 353.864057
-0.234515 0.332169 3.743285 8.000000 29 353.864060
-0.585627 0.770946 3.762388 93.000000 26 353.864062
-0.925826 1.191812 4.158206 89.000000 24 353.864065
-1.272090 1.636398 4.347558 17.000000 22 353.864068
-1.693299 2.177468 4.582033 9.000000 20 353.864070
-1.681613 2.162446 3.700776 8.000000 18 353.864073
-1.603188 2.061599 2.909446 9.000000 16 353.864075
-1.636748 2.093423 2.691139 8.000000 15 353.864033
-1.663527 2.127678 2.259336 9.000000 13 353.864036
-1.680198 2.149774 1.873482 9.000000 11 353.864038
-1.700506 2.175762 1.531446 10.000000 9 353.864041
-1.710148 2.188886 1.210598 14.000000 7 353.864043
-1.960908 2.510746 1.025748 7.000000 5 353.864046
-2.028839 2.597726 0.717260 19.000000 3 353.864048
-3.061463 3.921310 0.538695 11.000000 1 353.864051
-1.643456 2.108821 2.461562 9.000000 14 353.864059
-1.666296 2.138132 2.057358 10.000000 12 353.864061
-1.688852 2.167856 1.699828 10.000000 10 353.864064
-1.685362 2.163379 1.355199 13.000000 8 353.864066
-1.747102 2.243439 1.078238 15.000000 6 353.864069
-2.036415 2.615886 0.890274 18.000000 4 353.864071
-3.091938 3.974627 0.296809 11.000000 0 353.864077
-0.020052 0.038287 3.399144 36.000000 31 353.864087
-0.345534 0.469212 3.704868 100.000000 28 353.864090
-0.457797 0.623217 3.741214 88.000000 27 353.864092
-0.777732 1.016322 4.135920 94.000000 25 353.864095
-1.072091 1.385091 4.185914 87.000000 23 353.864097
-1.625360 2.099157 4.930574 9.000000 21 353.864100
-1.766279 2.281159 4.309878 6.000000 19 353.864103
-1.579196 2.039544 3.163826 9.000000 17 353.864105
-0.119655 0.179752 3.563438 25.000000 30 353.864113
-0.233354 0.332986 3.743285 8.000000 29 353.864115
-0.582933 0.772985 3.762388 93.000000 26 353.864118
-0.921661 1.195036 4.158206 87.000000 24 353.864121
-1.266370 1.640828 4.347558 18.000000 22 353.864123
-1.687281 2.185430 4.586299 9.000000 20 353.864126
-1.565385 2.027548 3.465396 10.000000 18 353.864128
-1.587695 2.056449 2.894745 8.000000 16 353.864131
-1.622871 2.090672 2.680625 8.000000 15 353.864088
-1.646542 2.121171 2.246785 9.000000 13 353.864091
-1.664994 2.145715 1.865257 9.000000 11 353.864094
-1.682037 2.167684 1.522174 10.000000 9 353.864096
-1.696814 2.187516 1.206852 15.000000 7 353.864099
-1.746357 2.252197 0.927105 12.000000 5 353.864101
-2.010729 2.593146 0.714462 17.000000 3 353.864104
-3.029451 3.908356 0.536018 11.000000 1 353.864106
-1.626944 2.102731 2.448263 9.000000 14 353.864114
-1.651402 2.134345 2.048529 10.000000 12 353.864117
-1.673362 2.163508 1.692231 10.000000 10 353.864119
-1.669470 2.158479 1.348905 13.000000 8 353.864122
-1.730595 2.238316 1.073310 14.000000 6 353.864124
-2.918993 3.776731 1.241969 5.000000 4 353.864127
-3.056669 3.957717 0.295398 11.000000 0 353.864132
-0.019918 0.038356 3.399144 36.000000 31 353.864143
-0.344352 0.471043 3.709807 99.000000 28 353.864145
-0.455619 0.624811 3.741214 89.000000 27 353.864148
-0.774180 1.019031 4.135920 93.000000 25 353.864150
-1.067250 1.388825 4.185914 87.000000 23 353.864153
-1.610722 2.095320 4.908631 9.000000 21 353.864156
-1.710284 2.224842 4.194156 7.000000 19 353.864158
-1.566206 2.037418 3.152315 8.000000 17 353.864161
-0.119027 0.180168 3.563438 24.000000 30 353.864168
-0.232494 0.334237 3.748257 8.000000 29 353.864171
-0.580231 0.775015 3.762388 93.000000 26 353.864174
-0.917484 1.198246 4.158206 87.000000 24 353.864176
-1.243416 1.622766 4.289047 34.000000 22 353.864179
-1.681229 2.193376 4.590565 9.000000 20 353.864181
-1.523461 1.987550 3.389596 13.000000 18 353.864184
-1.574320 2.053906 2.883720 8.000000 16 353.864186
-1.606855 2.085025 2.666607 9.000000 15 353.864144
-1.631999 2.117656 2.237372 9.000000 13 353.864147
-1.649838 2.141577 1.857033 9.000000 11 353.864149
-1.660942 2.155994 1.510584 10.000000 9 353.864152
-1.680682 2.182406 1.201232 15.000000 7 353.864154
-1.732632 2.250676 0.924286 12.000000 5 353.864157
-2.001665 2.600149 0.714462 17.000000 3 353.864159
-3.006678 3.907067 0.534679 11.000000 1 353.864162
-1.612770 2.099513 2.438288 9.000000 14 353.864170
-1.636555 2.130480 2.039699 10.000000 12 353.864172
-1.657923 2.159077 1.684634 10.000000 10 353.864175
-1.653632 2.153494 1.342611 13.000000 8 353.864177
-1.711269 2.229359 1.066740 12.000000 6 353.864180
-2.722336 3.547813 1.169285 2.000000 4 353.864182
-3.021555 3.940611 0.293987 12.000000 0 353.864188
-0.019768 0.038385 3.394144 37.000000 31 353.864198
-0.342706 0.472242 3.709807 99.000000 28 353.864201
-0.453435 0.626398 3.741214 90.000000 27 353.864203
-0.770618 1.021727 4.135920 93.000000 25 353.864206
-1.062395 1.392542 4.185914 89.000000 23 353.864208
-1.600492 2.097121 4.899854 9.000000 21 353.864211
-1.673485 2.192770 4.123895 10.000000 19 353.864213
-1.551305 2.032679 3.136967 8.000000 17 353.864216
-0.118398 0.180583 3.563438 24.000000 30 353.864224
-0.231326 0.335047 3.748257 8.000000 29 353.864226
-0.577522 0.777036 3.762388 93.000000 26 353.864229
-0.913295 1.201441 4.158206 87.000000 24 353.864231
-1.221922 1.606298 4.235037 48.000000 22 353.864234
-1.675142 2.201307 4.594831 9.000000 20 353.864236
-1.505563 1.978465 3.365659 13.000000 18 353.864239
-1.558929 2.048598 2.869019 9.000000 16 353.864242
-1.593066 2.082125 2.656093 9.000000 15 353.864199
-1.617500 2.114064 2.227959 10.000000 13 353.864202
-1.634732 2.137359 1.848808 9.000000 11 353.864204
-1.642640 2.147703 1.501312 9.000000 9 353.864207
-1.667423 2.180894 1.197486 15.000000 7 353.864210
-1.716025 2.245276 0.920059 13.000000 5 353.864212
-2.001525 2.618829 0.717260 17.000000 3 353.864215
-2.965811 3.881923 0.530663 10.000000 1 353.864217
-1.598638 2.096221 2.428313 9.000000 14 353.864225
-1.621755 2.126538 2.030870 11.000000 12 353.864228
-1.642534 2.154566 1.677037 10.000000 10 353.864230
-1.637851 2.148426 1.336317 14.000000 8 353.864233
-1.697751 2.227807 1.063454 12.000000 6 353.864235
-1.723199 2.262017 0.776559 11.000000 4 353.864238
-1.980110 2.600204 0.547479 15.000000 2 353.864240
-2.989625 3.927283 0.292778 12.000000 0 353.864243
-0.019634 0.038454 3.394144 37.000000 31 353.864254
-0.341055 0.473435 3.709807 99.000000 28 353.864256
-0.451246 0.627977 3.741214 88.000000 27 353.864259
-0.767047 1.024410 4.135920 94.000000 25 353.864261
-1.056349 1.394684 4.181312 89.000000 23 353.864264
-1.590268 2.098876 4.891077 9.000000 21 353.864266
-1.652226 2.180655 4.090832 10.000000 19 353.864269
-1.536456 2.027861 3.121619 8.000000 17 353.864271
-0.117923 0.181238 3.568429 24.000000 30 353.864279
-0.230155 0.335852 3.748257 8.000000 29 353.864282
-0.575553 0.780059 3.767226 93.000000 26 353.864284
-0.909096 1.204622 4.158206 89.000000 24 353.864287
-1.212371 1.605340 4.221535 71.000000 22 353.864289
-1.692601 2.240436 4.663086 9.000000 20 353.864292
-1.496831 1.981303 3.361669 12.000000 18 353.864295
-1.543594 2.043207 2.854319 9.000000 16 353.864297
-1.579317 2.079153 2.645580 9.000000 15 353.864255
-1.603047 2.110398 2.218545 10.000000 13 353.864257
-1.622203 2.136391 1.843325 10.000000 11 353.864260
-1.624417 2.139311 1.492040 8.000000 9 353.864262
-1.651391 2.175623 1.191867 15.000000 7 353.864265
-1.696579 2.235966 0.914422 13.000000 5 353.864268
-1.837970 2.422310 0.668764 2.000000 3 353.864270
-1.584548 2.092857 2.418339 9.000000 14 353.864280
-1.607002 2.122518 2.022040 11.000000 12 353.864283
-1.624597 2.146535 1.666907 10.000000 10 353.864286
-1.624863 2.146892 1.332121 14.000000 8 353.864288
-1.684266 2.226187 1.060169 12.000000 6 353.864291
-1.709428 2.260265 0.774214 16.000000 4 353.864293
-1.968035 2.603149 0.546789 14.000000 2 353.864296
-2.966861 3.925737 0.292173 11.000000 0 353.864298
-0.019483 0.038482 3.389144 38.000000 31 353.864309
-0.339400 0.474623 3.709807 99.000000 28 353.864312
-0.449051 0.629548 3.741214 88.000000 27 353.864314
-0.763466 1.027082 4.135920 93.000000 25 353.864317
-1.051474 1.398363 4.181312 89.000000 23 353.864319
-1.578611 2.098670 4.877911 8.000000 21 353.864322
-1.641221 2.181911 4.082566 10.000000 19 353.864324
-1.521659 2.022964 3.106272 8.000000 17 353.864327
-0.117290 0.181649 3.568429 24.000000 30 353.864335
-0.229281 0.337096 3.753228 8.000000 29 353.864337
-0.572826 0.782064 3.767226 92.000000 26 353.864340
-0.904886 1.207788 4.158206 89.000000 24 353.864342
-1.205453 1.607820 4.217034 83.000000 22 353.864345
-1.479055 1.972049 3.337732 11.000000 18 353.864350
-1.528316 2.037734 2.839618 9.000000 16 353.864353
-1.565608 2.076111 2.635066 9.000000 15 353.864310
-1.588639 2.106656 2.209132 9.000000 13 353.864313
-1.607185 2.132024 1.835101 10.000000 11 353.864315
-1.606272 2.130817 1.482768 8.000000 9 353.864318
-1.638207 2.173970 1.188121 16.000000 7 353.864321
-1.680104 2.230379 0.910194 13.000000 5 353.864323
-1.811770 2.405169 0.663168 2.000000 3 353.864326
-1.570502 2.089420 2.408365 9.000000 14 353.864336
-1.592298 2.118422 2.013211 11.000000 12 353.864339
-1.609324 2.141853 1.659310 10.000000 10 353.864341
-1.609180 2.141666 1.325827 14.000000 8 353.864344
-1.670813 2.224501 1.056883 12.000000 6 353.864346
-1.686936 2.246784 0.768353 15.000000 4 353.864349
-1.967855 2.621885 0.548859 13.000000 2 353.864351
-2.935151 3.912093 0.290964 13.000000 0 353.864354
-0.019349 0.038549 3.389144 38.000000 31 353.864365
-0.337742 0.475805 3.709807 99.000000 28 353.864367
-0.446851 0.631112 3.741214 88.000000 27 353.864370
-0.759876 1.029741 4.135920 93.000000 25 353.864372
-1.046586 1.402025 4.181312 89.000000 23 353.864375
-1.575576 2.109927 4.891077 8.000000 21 353.864377
-1.623492 2.174098 4.057768 10.000000 19 353.864380
-1.506916 2.017987 3.090924 8.000000 17 353.864382
-0.116500 0.181813 3.563438 25.000000 30 353.864390
-0.228401 0.338337 3.758200 8.000000 29 353.864393
-0.570093 0.784059 3.767226 92.000000 26 353.864395
-0.900664 1.210939 4.158206 87.000000 24 353.864398
-1.199834 1.612018 4.217034 87.000000 22 353.864400
-1.933911 2.597356 5.366965 10.000000 20 353.864403
-1.470363 1.974783 3.333743 10.000000 18 353.864406
-1.513095 2.032180 2.824917 9.000000 16 353.864408
-1.551940 2.072999 2.624552 10.000000 15 353.864366
-1.574276 2.102839 2.199719 9.000000 13 353.864368
-1.592217 2.127578 1.826877 10.000000 11 353.864371
-1.588207 2.122224 1.473496 9.000000 9 353.864374
-1.625054 2.172250 1.184375 16.000000 7 353.864376
-1.660816 2.220863 0.904557 13.000000 5 353.864379
-1.694514 2.265924 0.628661 15.000000 3 353.864381
-1.935048 2.588511 0.382522 16.000000 1 353.864384
-1.556499 2.085911 2.398390 9.000000 14 353.864392
-1.577641 2.114248 2.004381 11.000000 12 353.864394
-1.594105 2.137090 1.651712 11.000000 10 353.864397
-1.596268 2.139994 1.321631 14.000000 8 353.864399
-1.660215 2.226533 1.055241 12.000000 6 353.864402
-1.676178 2.248761 0.767180 15.000000 4 353.864404
-1.958691 2.628738 0.548859 13.000000 2 353.864407
-0.019214 0.038617 3.389144 38.000000 31 353.864420
-0.336079 0.476981 3.709807 99.000000 28 353.864423
-0.444645 0.632668 3.741214 88.000000 27 353.864425
-0.756277 1.032387 4.135920 94.000000 25 353.864428
-1.041686 1.405670 4.181312 89.000000 23 353.864430
-1.571055 2.119263 4.899854 8.000000 21 353.864433
-1.612542 2.175231 4.049502 10.000000 19 353.864435
-1.492226 2.012934 3.075576 8.000000 17 353.864438
-0.115865 0.182218 3.563438 24.000000 30 353.864446
-0.227218 0.339132 3.758200 8.000000 29 353.864448
-0.567353 0.786044 3.767226 92.000000 26 353.864451
-0.896432 1.214076 4.158206 89.000000 24 353.864453
-1.194199 1.616196 4.217034 91.000000 22 353.864456
-1.907780 2.581021 5.320040 9.000000 20 353.864459
-1.458086 1.972632 3.321774 10.000000 18 353.864461
-1.497932 2.026544 2.810217 9.000000 16 353.864464
-1.538312 2.069817 2.614039 10.000000 15 353.864421
-1.559960 2.098948 2.190305 10.000000 13 353.864424
-1.574806 2.119697 1.815911 10.000000 11 353.864426
-1.572863 2.117086 1.466542 11.000000 9 353.864429
-1.614698 2.174188 1.182502 17.000000 7 353.864432
-1.644475 2.215091 0.900330 12.000000 5 353.864434
-1.671954 2.252105 0.623998 15.000000 3 353.864437
-1.926001 2.595250 0.382522 16.000000 1 353.864439
-1.542540 2.082329 2.388415 10.000000 14 353.864447
-1.560628 2.106751 1.992608 11.000000 12 353.864450
-1.576373 2.128783 1.641582 10.000000 10 353.864452
-1.580685 2.134611 1.315336 15.000000 8 353.864455
-1.646813 2.224724 1.051955 13.000000 6 353.864457
-1.653862 2.235063 0.761319 15.000000 4 353.864460
-0.019079 0.038684 3.389144 38.000000 31 353.864476
-0.334412 0.478151 3.709807 99.000000 28 353.864478
-0.442434 0.634216 3.741214 89.000000 27 353.864481
-0.752669 1.035020 4.135920 93.000000 25 353.864483
-1.036773 1.409297 4.181312 89.000000 23 353.864486
-1.575008 2.140171 4.934963 9.000000 21 353.864488
-1.599935 2.174047 4.037103 9.000000 19 353.864491
-1.477589 2.007802 3.060229 8.000000 17 353.864494
-0.115228 0.182621 3.563438 24.000000 30 353.864501
-0.226328 0.340368 3.763171 8.000000 29 353.864504
-0.564605 0.788019 3.767226 92.000000 26 353.864506
-0.892188 1.217198 4.158206 87.000000 24 353.864509
-1.189839 1.622111 4.221535 92.000000 22 353.864512
-1.849387 2.520378 5.183529 6.000000 20 353.864514
-1.445842 1.970420 3.309805 10.000000 18 353.864517
-1.484832 2.023561 2.799191 10.000000 16 353.864519
-1.528961 2.072304 2.610534 10.000000 15 353.864477
-1.545691 2.094983 2.180892 10.000000 13 353.864479
-1.559952 2.115086 1.807686 9.000000 11 353.864482
-1.554945 2.108302 1.457270 13.000000 9 353.864485
-1.601596 2.172348 1.178756 17.000000 7 353.864487
-1.628194 2.209232 0.896102 12.000000 5 353.864490
-1.652425 2.242110 0.620268 16.000000 3 353.864492
-1.916930 2.601957 0.382522 16.000000 1 353.864495
-1.528625 2.078675 2.378441 11.000000 14 353.864503
-1.546080 2.102417 1.983779 11.000000 12 353.864505
-1.561272 2.123851 1.633985 10.000000 10 353.864508
-1.567848 2.132802 1.311140 15.000000 8 353.864510
-1.630648 2.219042 1.047027 16.000000 6 353.864513
-1.637418 2.229070 0.757802 15.000000 4 353.864515
-1.661840 2.263144 0.483326 3.000000 2 353.864518
-0.018960 0.038791 3.394144 34.000000 31 353.864531
-0.332741 0.479315 3.709807 99.000000 28 353.864534
-0.440217 0.635757 3.741214 90.000000 27 353.864536
-0.749051 1.037641 4.135920 93.000000 25 353.864539
-1.031847 1.412908 4.181312 89.000000 23 353.864541
-1.595793 2.184345 5.022737 9.000000 21 353.864544
-1.589016 2.175074 4.028837 9.000000 19 353.864546
-1.463007 2.002593 3.044881 8.000000 17 353.864549
-0.114590 0.183023 3.563438 23.000000 30 353.864557
-0.225432 0.341603 3.768143 8.000000 29 353.864559
-0.561851 0.789985 3.767226 93.000000 26 353.864562
-0.887934 1.220304 4.158206 89.000000 24 353.864564
-1.184169 1.626254 4.221535 92.000000 22 353.864567
-1.788370 2.455145 5.038488 5.000000 20 353.864570
-1.433632 1.968146 3.297837 10.000000 18 353.864572
-1.469775 2.017771 2.784490 10.000000 16 353.864575
-1.525932 2.083383 2.617543 10.000000 15 353.864532
-1.533768 2.094085 2.174616 10.000000 13 353.864535
-1.545149 2.110397 1.799462 9.000000 11 353.864538
-1.539725 2.102993 1.450316 15.000000 9 353.864540
-1.588528 2.170444 1.175010 17.000000 7 353.864543
-1.611975 2.203287 0.891875 13.000000 5 353.864545
-1.632986 2.232006 0.616537 15.000000 3 353.864548
-1.907836 2.608633 0.382522 16.000000 1 353.864550
-1.514754 2.074950 2.368466 12.000000 14 353.864558
-1.529199 2.094742 1.972006 11.000000 12 353.864561
-1.543683 2.115358 1.623856 10.000000 10 353.864563
-1.552368 2.127263 1.304846 16.000000 8 353.864566
-1.611760 2.209460 1.040457 13.000000 6 353.864568
-1.618172 2.219063 0.753112 15.000000 4 353.864571
-1.639344 2.248922 0.479877 16.000000 2 353.864573
-1.885787 2.587952 0.222847 16.000000 0 353.864576
-0.018824 0.038857 3.394144 34.000000 31 353.864587
-0.331065 0.480474 3.709807 99.000000 28 353.864589
-0.437995 0.637289 3.741214 89.000000 27 353.864592
-0.745425 1.040250 4.135920 93.000000 25 353.864594
-1.026909 1.416501 4.181312 89.000000 23 353.864597
-1.605036 2.213176 5.075400 8.000000 21 353.864599
-1.578110 2.176051 4.020572 9.000000 19 353.864602
-1.448479 1.997306 3.029533 8.000000 17 353.864605
-0.113950 0.183421 3.563438 23.000000 30 353.864612
-0.224530 0.342834 3.773114 8.000000 29 353.864615
-0.559090 0.791942 3.767226 92.000000 26 353.864617
-0.883669 1.223396 4.158206 89.000000 24 353.864620
-1.178485 1.630378 4.221535 94.000000 22 353.864623
-1.730887 2.393743 4.901978 5.000000 20 353.864625
-1.419689 1.963369 3.281879 10.000000 18 353.864628
-1.456764 2.014647 2.773465 10.000000 16 353.864630
-1.522845 2.094465 2.624552 9.000000 15 353.864588
-1.515002 2.083683 2.158927 11.000000 13 353.864590
-1.532856 2.109012 1.793979 10.000000 11 353.864593
-1.524561 2.097604 1.443362 14.000000 9 353.864596
-1.578217 2.172225 1.173137 18.000000 7 353.864598
-1.595817 2.197255 0.887647 13.000000 5 353.864601
-1.619412 2.229743 0.614672 15.000000 3 353.864603
-1.511884 2.086272 2.375116 12.000000 14 353.864614
-1.514762 2.090248 1.963177 12.000000 12 353.864616
-1.526173 2.106768 1.613726 11.000000 10 353.864619
-1.539608 2.125318 1.300650 16.000000 8 353.864621
-1.595728 2.203598 1.035529 13.000000 6 353.864624
-1.604715 2.216823 0.750768 15.000000 4 353.864626
-1.631484 2.254631 0.479877 16.000000 2 353.864629
-1.885526 2.606662 0.223451 16.000000 0 353.864632
-0.018688 0.038922 3.394144 38.000000 31 353.864642
-0.329386 0.481627 3.709807 97.000000 28 353.864645
-0.435768 0.638814 3.741214 89.000000 27 353.864647
-0.741789 1.042845 4.135920 93.000000 25 353.864650
-1.021958 1.420077 4.181312 89.000000 23 353.864652
-1.593102 2.212932 5.062234 7.000000 21 353.864655
-1.568861 2.179263 4.016438 10.000000 19 353.864658
-1.435879 1.994545 3.018022 8.000000 17 353.864660
-0.113460 0.184065 3.568429 24.000000 30 353.864668
-0.223912 0.344513 3.783057 9.000000 29 353.864670
-0.556322 0.793889 3.767226 93.000000 26 353.864673
-0.879393 1.226474 4.158206 89.000000 24 353.864676
-1.172787 1.634481 4.221535 93.000000 22 353.864678
-1.564360 2.179422 4.458321 7.000000 20 353.864681
-1.405797 1.958519 3.265921 10.000000 18 353.864683
-1.443792 2.011457 2.762439 10.000000 16 353.864686
-1.521786 2.108443 2.635066 9.000000 15 353.864643
-1.509998 2.092115 2.162065 12.000000 13 353.864646
-1.520592 2.107568 1.788496 10.000000 11 353.864649
-1.512046 2.095727 1.438725 14.000000 9 353.864651
-1.565201 2.170201 1.169391 18.000000 7 353.864654
-1.579721 2.191138 0.883420 13.000000 5 353.864656
-1.603000 2.223428 0.611874 15.000000 3 353.864659
-1.508954 2.097600 2.381766 12.000000 14 353.864669
-1.505096 2.092242 1.960234 13.000000 12 353.864672
-1.508742 2.098082 1.603596 12.000000 10 353.864674
-1.524230 2.119625 1.294356 16.000000 8 353.864677
-1.579757 2.197651 1.030600 13.000000 6 353.864679
-1.588458 2.210569 0.747251 15.000000 4 353.864682
-1.609159 2.240202 0.476428 14.000000 2 353.864684
-1.876415 2.613228 0.223451 15.000000 0 353.864687
-0.018552 0.038987 3.394144 38.000000 31 353.864698
-0.327703 0.482774 3.709807 98.000000 28 353.864700
-0.433536 0.640332 3.741214 89.000000 27 353.864703
-0.738144 1.045428 4.135920 93.000000 25 353.864705
-1.016995 1.423636 4.181312 89.000000 23 353.864708
-1.589547 2.224327 5.075400 8.000000 21 353.864710
-1.559608 2.182436 4.012305 10.000000 19 353.864713
-1.421453 1.989111 3.002674 9.000000 17 353.864716
-0.112817 0.184460 3.568429 24.000000 30 353.864723
-0.222997 0.345741 3.788028 9.000000 29 353.864726
-0.553548 0.795826 3.767226 93.000000 26 353.864728
-0.875107 1.229536 4.158206 89.000000 24 353.864731
-1.167074 1.638565 4.221535 93.000000 22 353.864734
-1.511341 2.121148 4.330343 11.000000 20 353.864736
-1.391956 1.953595 3.249963 10.000000 18 353.864739
-1.432827 2.010963 2.755089 10.000000 16 353.864741
-1.518571 2.119541 2.642075 9.000000 15 353.864699
-1.507220 2.103702 2.168341 11.000000 13 353.864702
-1.508356 2.106064 1.783013 12.000000 11 353.864704
-1.499562 2.093789 1.434089 14.000000 9 353.864707
-1.552219 2.168112 1.165645 16.000000 7 353.864709
-1.563687 2.184935 0.879192 13.000000 5 353.864712
-1.586653 2.217026 0.609076 14.000000 3 353.864714
-1.613836 2.255841 0.341470 7.000000 1 353.864717
-1.505963 2.108933 2.388415 11.000000 14 353.864725
-1.502482 2.104062 1.966120 15.000000 12 353.864727
-1.488885 2.085791 1.590934 14.000000 10 353.864730
-1.511549 2.117545 1.290160 16.000000 8 353.864732
-1.563847 2.191619 1.025672 13.000000 6 353.864735
-1.575087 2.208187 0.744906 15.000000 4 353.864737
-1.595579 2.237741 0.475048 13.000000 2 353.864740
-1.878881 2.636035 0.224257 11.000000 0 353.864743
-0.018401 0.039011 3.389144 38.000000 31 353.864753
-0.326016 0.483914 3.709807 99.000000 28 353.864756
-0.431298 0.641841 3.741214 83.000000 27 353.864758
-0.734491 1.047999 4.135920 93.000000 25 353.864761
-1.012019 1.427177 4.181312 89.000000 23 353.864763
-1.580387 2.227908 5.071012 9.000000 21 353.864766
-1.551980 2.187867 4.012305 9.000000 19 353.864769
-1.407081 1.983602 2.987327 9.000000 17 353.864771
-0.112321 0.185101 3.573421 24.000000 30 353.864779
-0.222363 0.347418 3.797971 9.000000 29 353.864781
-0.550767 0.797753 3.767226 93.000000 26 353.864784
-0.870809 1.232583 4.158206 87.000000 24 353.864787
-1.161348 1.642629 4.221535 94.000000 22 353.864789
-1.484351 2.098730 4.274886 12.000000 20 353.864792
-1.378167 1.948599 3.234005 10.000000 18 353.864794
-1.419926 2.007649 2.744064 11.000000 16 353.864797
-1.515297 2.130641 2.649084 9.000000 15 353.864754
-1.502124 2.112123 2.171479 11.000000 13 353.864757
-1.503418 2.114725 1.785755 13.000000 11 353.864760
-1.489677 2.095400 1.431771 15.000000 9 353.864762
-1.539270 2.165959 1.161899 15.000000 7 353.864765
-1.550494 2.182559 0.876374 13.000000 5 353.864767
-1.570370 2.210537 0.606278 14.000000 3 353.864770
-1.588651 2.237099 0.338793 13.000000 1 353.864772
-1.500752 2.117223 2.391740 11.000000 14 353.864780
-1.499803 2.115889 1.972006 15.000000 12 353.864783
-1.484088 2.094493 1.593466 13.000000 10 353.864785
-1.498900 2.115402 1.285964 16.000000 8 353.864788
-1.547999 2.185504 1.020744 14.000000 6 353.864790
-1.558943 2.201770 0.741389 14.000000 4 353.864793
-1.579175 2.231170 0.472979 13.000000 2 353.864796
-0.018265 0.039075 3.389144 38.000000 31 353.864809
-0.324325 0.485050 3.709807 99.000000 28 353.864811
-0.429055 0.643343 3.741214 83.000000 27 353.864814
-0.730828 1.050556 4.135920 91.000000 25 353.864816
-1.007031 1.430701 4.181312 89.000000 23 353.864819
-1.591910 2.260836 5.132453 10.000000 21 353.864822
-1.541094 2.188670 4.004040 9.000000 19 353.864824
-1.394611 1.980637 2.975816 9.000000 17 353.864827
-0.111674 0.185492 3.573421 24.000000 30 353.864834
-0.221434 0.348643 3.802943 9.000000 29 353.864837
-0.547978 0.799671 3.767226 93.000000 26 353.864840
-0.866502 1.235615 4.158206 87.000000 24 353.864842
-1.155607 1.646673 4.221535 93.000000 22 353.864845
-1.471021 2.095361 4.257822 12.000000 20 353.864847
-1.366161 1.945998 3.222037 10.000000 18 353.864850
-1.410962 2.009818 2.740388 11.000000 16 353.864852
-1.514020 2.144658 2.659598 9.000000 15 353.864810
-1.499232 2.123714 2.177754 12.000000 13 353.864813
-1.496027 2.119959 1.785755 12.000000 11 353.864815
-1.479799 2.096967 1.429453 16.000000 9 353.864818
-1.523683 2.159955 1.156280 15.000000 7 353.864820
-1.534572 2.176196 0.872146 13.000000 5 353.864823
-1.554151 2.203962 0.603481 14.000000 3 353.864825
-1.575094 2.234489 0.337901 13.000000 1 353.864828
-1.497650 2.128557 2.398390 11.000000 14 353.864836
-1.497060 2.127723 1.977893 14.000000 12 353.864838
-1.479248 2.103187 1.595999 13.000000 10 353.864841
-1.486285 2.113196 1.281768 17.000000 8 353.864843
-1.532212 2.179304 1.015816 14.000000 6 353.864846
-1.545659 2.199245 0.739045 14.000000 4 353.864848
-1.565684 2.228565 0.471599 13.000000 2 353.864851
-0.018128 0.039138 3.389144 39.000000 31 353.864865
-0.322630 0.486179 3.709807 99.000000 28 353.864868
-0.426806 0.644836 3.741214 89.000000 27 353.864870
-0.727156 1.053101 4.135920 93.000000 25 353.864873
-1.003150 1.435809 4.185914 89.000000 23 353.864875
-1.629299 2.331180 5.277279 10.000000 21 353.864878
-1.535056 2.196342 4.008173 9.000000 19 353.864880
-1.380343 1.974982 2.960468 9.000000 17 353.864883
-0.111026 0.185881 3.573421 24.000000 30 353.864891
-0.220500 0.349866 3.807914 9.000000 29 353.864893
-0.545184 0.801579 3.767226 93.000000 26 353.864896
-0.862183 1.238632 4.158206 89.000000 24 353.864898
-1.149852 1.650697 4.221535 93.000000 22 353.864901
-1.460716 2.096203 4.249290 12.000000 20 353.864903
-1.352468 1.940864 3.206079 10.000000 18 353.864906
-1.401999 2.011950 2.736713 12.000000 16 353.864909
-1.510618 2.155771 2.666607 9.000000 15 353.864866
-1.494044 2.132123 2.180892 12.000000 13 353.864869
-1.491017 2.128593 1.788496 12.000000 11 353.864871
-1.469929 2.098492 1.427135 16.000000 9 353.864874
-1.505498 2.150070 1.148787 15.000000 7 353.864877
-1.518713 2.169749 0.867918 14.000000 5 353.864879
-1.540815 2.201325 0.601615 14.000000 3 353.864882
-1.567285 2.239974 0.337901 13.000000 1 353.864884
-1.494487 2.139895 2.405040 11.000000 14 353.864892
-1.494252 2.139563 1.983779 14.000000 12 353.864895
