# .PCD v.7 - Point Cloud Data file format
VERSION .7
FIELDS x y z intensity ring timestamp
SIZE 4 4 4 4 2 8
TYPE F F F F U D
COUNT 1 1 1 1 1 1
WIDTH 945
HEIGHT 1
VIEWPOINT 0 0 0 1 0 0 0
POINTS 945
DATA ascii
2.346106 1.211437 1.007603 21.000000 6 354.192105
2.138152 1.103585 0.671050 17.000000 4 354.192107
2.178379 1.123867 0.433659 20.000000 2 354.192110
2.175504 1.121903 0.192416 12.000000 0 354.192112
0.045037 0.013447 3.834128 98.000000 31 354.192123
0.495368 0.239158 3.497419 12.000000 28 354.192126
0.649073 0.312407 3.486662 12.000000 27 354.192128
1.131381 0.572115 4.097746 93.000000 25 354.192131
1.509988 0.774054 4.057044 94.000000 23 354.192133
1.923176 0.986275 4.026510 10.000000 21 354.192136
1.695763 0.869648 2.871612 13.000000 19 354.192138
1.810282 0.928374 2.511545 18.000000 17 354.192141
0.212581 0.090371 3.823001 99.000000 30 354.192149
0.373635 0.169658 3.778085 9.000000 29 354.192151
0.824217 0.409534 3.578498 3.000000 26 354.192154
1.319591 0.673552 4.083121 94.000000 24 354.192156
1.711965 0.874569 4.037001 10.000000 22 354.192159
1.680537 0.858878 3.157211 11.000000 20 354.192162
1.728045 0.883155 2.643559 16.000000 18 354.192164
1.984369 1.014151 2.494152 18.000000 16 354.192167
2.169589 1.115983 2.477361 15.000000 15 354.192124
2.245926 1.155246 2.118136 16.000000 13 354.192127
2.274067 1.169219 1.761081 16.000000 11 354.192129
2.306148 1.185711 1.443362 17.000000 9 354.192132
2.334496 1.199771 1.148787 19.000000 7 354.192135
2.351520 1.208001 0.866509 18.000000 5 354.192137
2.167230 1.113330 0.554052 18.000000 3 354.192140
2.175007 1.116845 0.312020 17.000000 1 354.192142
2.229865 1.142562 2.311944 16.000000 14 354.192150
2.268602 1.162407 1.939632 19.000000 12 354.192153
2.288590 1.172145 1.595999 16.000000 10 354.192155
2.339877 1.198409 1.302748 20.000000 8 354.192158
2.358727 1.207544 1.010888 21.000000 6 354.192160
2.150645 1.100543 0.673395 20.000000 4 354.192163
2.186697 1.118511 0.434349 21.000000 2 354.192165
2.188304 1.118851 0.192819 12.000000 0 354.192168
0.045084 0.013289 3.834128 98.000000 31 354.192179
0.496200 0.237427 3.497419 12.000000 28 354.192181
0.650160 0.310140 3.486662 13.000000 27 354.192184
1.133371 0.568163 4.097746 91.000000 25 354.192186
1.512681 0.768778 4.057044 94.000000 23 354.192189
1.926607 0.979556 4.026510 10.000000 21 354.192191
1.703805 0.866274 2.879877 13.000000 19 354.192194
1.813511 0.922049 2.511545 18.000000 17 354.192196
0.212895 0.089628 3.823001 99.000000 30 354.192204
0.376174 0.169225 3.797971 9.000000 29 354.192207
0.798558 0.393322 3.462357 3.000000 26 354.192209
1.320395 0.668163 4.078429 91.000000 24 354.192212
1.715007 0.868588 4.037001 10.000000 22 354.192214
1.685851 0.854186 3.161477 11.000000 20 354.192217
1.736494 0.879842 2.651538 16.000000 18 354.192220
1.987897 1.007218 2.494152 18.000000 16 354.192222
2.189356 1.116504 2.494884 14.000000 15 354.192180
2.256881 1.150936 2.124412 16.000000 13 354.192182
2.285585 1.165072 1.766564 16.000000 11 354.192185
2.318166 1.181677 1.447998 16.000000 9 354.192188
2.346932 1.195824 1.152534 20.000000 7 354.192190
2.359997 1.201963 0.867918 20.000000 5 354.192193
2.179857 1.110216 0.555917 19.000000 3 354.192195
2.183330 1.111505 0.312467 17.000000 1 354.192198
2.240498 1.138154 2.318594 15.000000 14 354.192206
2.283457 1.159973 1.948461 19.000000 12 354.192208
2.300356 1.168053 1.601064 16.000000 10 354.192211
2.352139 1.194344 1.306944 19.000000 8 354.192213
2.367139 1.201441 1.012531 21.000000 6 354.192216
2.163143 1.097428 0.675739 21.000000 4 354.192218
2.199422 1.115351 0.435729 20.000000 2 354.192221
2.201108 1.115723 0.193222 12.000000 0 354.192223
0.045130 0.013132 3.834128 98.000000 31 354.192234
0.496323 0.235361 3.492479 12.000000 28 354.192237
0.651238 0.307868 3.486662 13.000000 27 354.192239
1.135347 0.564203 4.097746 91.000000 25 354.192242
1.515355 0.763493 4.057044 93.000000 23 354.192244
1.927875 0.971746 4.022122 10.000000 21 354.192247
1.711844 0.862855 2.888143 13.000000 19 354.192249
1.813856 0.914270 2.507708 18.000000 17 354.192252
0.212939 0.088774 3.818010 98.000000 30 354.192260
0.378227 0.168561 3.812885 10.000000 29 354.192262
0.798796 0.389980 3.457517 5.000000 26 354.192265
1.322719 0.663550 4.078429 91.000000 24 354.192267
1.716082 0.861619 4.032500 9.000000 22 354.192270
1.719119 0.863514 3.216934 10.000000 20 354.192273
1.742248 0.875128 2.655528 15.000000 18 354.192275
1.988371 0.998751 2.490477 18.000000 16 354.192278
2.212336 1.118509 2.515911 14.000000 15 354.192235
2.264359 1.144808 2.127550 16.000000 13 354.192238
2.293370 1.158973 1.769306 16.000000 11 354.192240
2.326231 1.175577 1.450316 16.000000 9 354.192243
2.359368 1.191805 1.156280 20.000000 7 354.192246
2.364178 1.193717 0.867918 21.000000 5 354.192248
2.188104 1.104815 0.556850 22.000000 3 354.192251
2.191643 1.106121 0.312913 17.000000 1 354.192253
2.251128 1.133685 2.325243 15.000000 14 354.192261
2.294712 1.155631 1.954347 19.000000 12 354.192264
2.312121 1.163893 1.606128 16.000000 10 354.192266
2.364402 1.190208 1.311140 18.000000 8 354.192269
2.375537 1.195293 1.014174 21.000000 6 354.192271
2.179987 1.096422 0.679256 22.000000 4 354.192274
2.207726 1.109891 0.436419 20.000000 2 354.192276
2.213917 1.112519 0.193625 12.000000 0 354.192279
0.045175 0.012974 3.834128 98.000000 31 354.192290
0.497142 0.233627 3.492479 12.000000 28 354.192292
0.653232 0.306025 3.491558 15.000000 27 354.192295
1.137310 0.560236 4.097746 94.000000 25 354.192297
1.518011 0.758199 4.057044 93.000000 23 354.192300
1.931255 0.965011 4.022122 10.000000 21 354.192302
1.719880 0.859390 2.896409 12.000000 19 354.192305
1.817037 0.907933 2.507708 18.000000 17 354.192308
0.213247 0.088031 3.818010 98.000000 30 354.192315
0.380280 0.167884 3.827800 10.000000 29 354.192318
0.799020 0.386642 3.452678 6.000000 26 354.192320
1.325027 0.658928 4.078429 92.000000 24 354.192323
1.719079 0.855623 4.032500 9.000000 22 354.192326
1.785158 0.888895 3.332114 9.000000 20 354.192328
1.750688 0.871728 2.663507 15.000000 18 354.192331
1.991846 0.991804 2.490477 18.000000 16 354.192333
2.228979 1.117172 2.529930 14.000000 15 354.192291
2.275301 1.140385 2.133825 16.000000 13 354.192293
2.304878 1.154706 1.774789 16.000000 11 354.192296
2.338243 1.171418 1.454952 16.000000 9 354.192299
2.371804 1.187714 1.160026 19.000000 7 354.192301
2.372621 1.187605 0.869328 29.000000 5 354.192304
2.200733 1.101567 0.558715 22.000000 3 354.192306
2.199944 1.100692 0.313359 14.000000 1 354.192309
2.258413 1.127488 2.328568 15.000000 14 354.192317
2.305964 1.151225 1.960234 19.000000 12 354.192319
2.323885 1.159665 1.611193 16.000000 10 354.192322
2.376664 1.186000 1.315336 18.000000 8 354.192324
2.383921 1.189102 1.015816 22.000000 6 354.192327
2.192501 1.093143 0.681601 23.000000 4 354.192329
2.220452 1.106596 0.437798 20.000000 2 354.192332
2.222259 1.107012 0.193826 12.000000 0 354.192334
0.045220 0.012816 3.834128 95.000000 31 354.192345
0.497954 0.231891 3.492479 12.000000 28 354.192348
0.654296 0.303742 3.491558 15.000000 27 354.192350
1.139258 0.556263 4.097746 94.000000 25 354.192353
1.520648 0.752896 4.057044 92.000000 23 354.192355
1.934612 0.958263 4.022122 9.000000 21 354.192358
1.727913 0.855879 2.904675 12.000000 19 354.192360
1.820195 0.901585 2.507708 18.000000 17 354.192363
0.213553 0.087286 3.818010 98.000000 30 354.192371
0.382332 0.167195 3.842714 10.000000 29 354.192373
0.803767 0.385481 3.467196 9.000000 26 354.192376
1.327319 0.654299 4.078429 91.000000 24 354.192378
1.720103 0.848654 4.027999 10.000000 22 354.192381
1.879458 0.927676 3.498486 9.000000 20 354.192384
1.756423 0.866946 2.667496 15.000000 18 354.192386
1.992256 0.983345 2.486802 19.000000 16 354.192389
2.242447 1.114145 2.540443 14.000000 15 354.192346
2.282754 1.134168 2.136963 16.000000 13 354.192349
2.316385 1.150373 1.780272 16.000000 11 354.192352
2.350253 1.167190 1.459588 16.000000 9 354.192354
2.384240 1.183550 1.163772 19.000000 7 354.192357
2.376752 1.179316 0.869328 52.000000 5 354.192359
2.208965 1.096062 0.559647 23.000000 3 354.192362
2.212696 1.097432 0.314251 14.000000 1 354.192364
2.269028 1.122911 2.335218 15.000000 14 354.192372
2.317214 1.146754 1.966120 18.000000 12 354.192375
2.335647 1.155369 1.616258 16.000000 10 354.192377
2.388926 1.181721 1.319533 18.000000 8 354.192380
2.388057 1.180773 1.015816 28.000000 6 354.192382
2.205018 1.089791 0.683946 22.000000 4 354.192385
2.228741 1.101031 0.438488 18.000000 2 354.192387
2.235069 1.103672 0.194229 12.000000 0 354.192390
0.045265 0.012658 3.834128 94.000000 31 354.192401
0.498761 0.230151 3.492479 12.000000 28 354.192403
0.655352 0.301457 3.491558 16.000000 27 354.192406
1.139849 0.551632 4.092974 94.000000 25 354.192408
1.523267 0.747583 4.057044 92.000000 23 354.192411
1.937945 0.951505 4.022122 9.000000 21 354.192413
1.735942 0.852323 2.912941 12.000000 19 354.192416
1.820453 0.893813 2.503871 18.000000 17 354.192419
0.213857 0.086540 3.818010 98.000000 30 354.192426
0.384384 0.166493 3.857628 10.000000 29 354.192429
0.805108 0.382673 3.467196 11.000000 26 354.192431
1.329595 0.649662 4.078429 91.000000 24 354.192434
1.723055 0.842645 4.027999 10.000000 22 354.192437
1.981077 0.969248 3.677655 9.000000 20 354.192439
1.764853 0.863459 2.675475 15.000000 18 354.192442
1.995676 0.976385 2.486802 19.000000 16 354.192444
2.255920 1.111037 2.550957 16.000000 15 354.192402
2.290192 1.127913 2.140101 15.000000 13 354.192404
2.324138 1.144127 1.783013 15.000000 11 354.192407
2.366237 1.164849 1.466542 16.000000 9 354.192410
2.396676 1.179314 1.167518 18.000000 7 354.192412
2.385159 1.173129 0.870737 79.000000 5 354.192415
2.221593 1.092681 0.561513 23.000000 3 354.192417
2.220982 1.091899 0.314698 16.000000 1 354.192420
2.279640 1.118273 2.341867 15.000000 14 354.192428
2.328461 1.142219 1.972006 18.000000 12 354.192430
2.347408 1.151005 1.621323 16.000000 10 354.192433
2.397111 1.175373 1.321631 18.000000 8 354.192435
2.396405 1.174508 1.017459 58.000000 6 354.192438
2.217539 1.086364 0.686290 20.000000 4 354.192440
2.241466 1.097601 0.439868 18.000000 2 354.192443
2.247883 1.100256 0.194632 12.000000 0 354.192446
0.045309 0.012500 3.834128 98.000000 31 354.192456
0.499561 0.228409 3.492479 9.000000 28 354.192459
0.656400 0.299167 3.491558 17.000000 27 354.192461
1.141767 0.547650 4.092974 93.000000 25 354.192464
1.525867 0.742261 4.057044 92.000000 23 354.192466
1.939100 0.943686 4.017733 9.000000 21 354.192469
1.743967 0.848721 2.921207 12.000000 19 354.192472
1.823562 0.887453 2.503871 19.000000 17 354.192474
0.214157 0.085793 3.818010 99.000000 30 354.192482
0.385945 0.165570 3.867571 9.000000 29 354.192484
0.807577 0.380396 3.472035 12.000000 26 354.192487
1.331855 0.645017 4.078429 91.000000 24 354.192490
1.725985 0.836625 4.027999 9.000000 22 354.192492
2.054848 0.996466 3.805633 11.000000 20 354.192495
1.773281 0.859923 2.683454 16.000000 18 354.192497
1.996022 0.967933 2.483127 19.000000 16 354.192500
2.272604 1.109414 2.564975 17.000000 15 354.192457
2.301112 1.123327 2.146376 15.000000 13 354.192460
2.335634 1.139675 1.788496 15.000000 11 354.192463
2.378252 1.160468 1.471178 16.000000 9 354.192465
2.409112 1.175005 1.171264 18.000000 7 354.192468
2.389239 1.164796 0.870737 79.000000 5 354.192470
2.234225 1.089224 0.563378 21.000000 3 354.192473
2.233734 1.088503 0.315590 16.000000 1 354.192475
2.290246 1.113575 2.348517 15.000000 14 354.192483
2.336069 1.135852 1.974949 18.000000 12 354.192486
2.359166 1.146573 1.626388 16.000000 10 354.192488
2.409363 1.170966 1.325827 17.000000 8 354.192491
2.400490 1.166136 1.017459 35.000000 6 354.192493
2.230062 1.082863 0.688635 19.000000 4 354.192496
2.249739 1.091932 0.440558 18.000000 2 354.192498
2.256204 1.094584 0.194834 12.000000 0 354.192501
0.045352 0.012342 3.834128 98.000000 31 354.192512
0.500355 0.226663 3.492479 9.000000 28 354.192514
0.657441 0.296874 3.491558 15.000000 27 354.192517
1.143672 0.543661 4.092974 94.000000 25 354.192519
1.528449 0.736930 4.057044 92.000000 23 354.192522
1.942382 0.936911 4.017733 10.000000 21 354.192524
1.751988 0.845073 2.929473 12.000000 19 354.192527
1.826648 0.881082 2.503871 19.000000 17 354.192530
0.214456 0.085045 3.818010 98.000000 30 354.192537
0.387504 0.164637 3.877514 9.000000 29 354.192540
0.810040 0.378107 3.476874 12.000000 26 354.192542
1.334098 0.640364 4.078429 91.000000 24 354.192545
1.726932 0.829652 4.023498 9.000000 22 354.192548
2.114729 1.016401 3.908015 14.000000 20 354.192550
1.781704 0.856339 2.691433 15.000000 18 354.192553
1.999388 0.960960 2.483127 19.000000 16 354.192555
2.279673 1.103027 2.568480 22.000000 15 354.192513
2.312027 1.118679 2.152652 14.000000 13 354.192516
2.347126 1.135156 1.793979 15.000000 11 354.192518
2.390265 1.156017 1.475814 16.000000 9 354.192521
2.421546 1.170624 1.175010 18.000000 7 354.192523
2.393290 1.156449 0.870737 79.000000 5 354.192526
2.246860 1.085693 0.565243 21.000000 3 354.192528
2.242004 1.082865 0.316036 16.000000 1 354.192531
2.300847 1.108816 2.355167 15.000000 14 354.192539
2.347302 1.131200 1.980836 17.000000 12 354.192541
2.370923 1.142073 1.631453 16.000000 10 354.192544
2.417525 1.164518 1.327925 17.000000 8 354.192546
2.408801 1.159798 1.019102 35.000000 6 354.192549
2.242589 1.079288 0.690980 18.000000 4 354.192551
2.262462 1.088366 0.441937 18.000000 2 354.192554
2.269016 1.091031 0.195237 12.000000 0 354.192557
0.045438 0.012192 3.839127 98.000000 31 354.192567
0.501143 0.224915 3.492479 11.000000 28 354.192570
0.657543 0.294162 3.486662 14.000000 27 354.192572
1.145563 0.539666 4.092974 93.000000 25 354.192575
1.529249 0.730748 4.052441 93.000000 23 354.192577
1.943480 0.929092 4.013344 9.000000 21 354.192580
1.760005 0.841380 2.937739 12.000000 19 354.192583
1.826820 0.873318 2.500035 19.000000 17 354.192585
0.214751 0.084295 3.818010 98.000000 30 354.192593
0.388569 0.163490 3.882485 9.000000 29 354.192595
0.811355 0.375277 3.476874 11.000000 26 354.192598
1.336325 0.635703 4.078429 92.000000 24 354.192601
1.729818 0.823619 4.023498 9.000000 22 354.192603
2.172419 1.034809 4.006132 19.000000 20 354.192606
1.790125 0.852707 2.699412 15.000000 18 354.192608
1.999670 0.952517 2.479452 19.000000 16 354.192611
2.283509 1.095063 2.568480 21.000000 15 354.192568
2.322938 1.113968 2.158927 14.000000 13 354.192571
2.358616 1.130571 1.799462 15.000000 11 354.192574
2.398280 1.149581 1.478132 16.000000 9 354.192576
2.425617 1.162164 1.175010 17.000000 7 354.192579
2.401639 1.150160 0.872146 80.000000 5 354.192581
2.259496 1.082087 0.567108 21.000000 3 354.192584
2.254754 1.079332 0.316929 14.000000 1 354.192586
2.311443 1.103997 2.361816 15.000000 14 354.192594
2.354883 1.124741 1.983779 17.000000 12 354.192597
2.378785 1.135648 1.633985 15.000000 10 354.192599
2.429767 1.159983 1.332121 17.000000 8 354.192602
2.417097 1.153417 1.020744 40.000000 6 354.192604
2.255116 1.075638 0.693324 17.000000 4 354.192607
2.270717 1.082593 0.442627 18.000000 2 354.192610
2.281831 1.087403 0.195640 11.000000 0 354.192612
0.045480 0.012033 3.839127 98.000000 31 354.192623
0.501926 0.223165 3.492479 11.000000 28 354.192625
0.658566 0.291865 3.486662 14.000000 27 354.192628
1.147440 0.535664 4.092974 93.000000 25 354.192630
1.531791 0.725406 4.052441 93.000000 23 354.192633
1.946711 0.922302 4.013344 9.000000 21 354.192636
1.768018 0.837641 2.946005 12.000000 19 354.192638
1.829858 0.866936 2.500035 18.000000 17 354.192641
0.215044 0.083545 3.818010 99.000000 30 354.192648
0.390124 0.162541 3.892428 8.000000 29 354.192651
0.812660 0.372443 3.476874 11.000000 26 354.192654
1.336975 0.630299 4.073736 92.000000 24 354.192656
1.732682 0.817575 4.023498 9.000000 22 354.192659
2.168942 1.023880 3.993334 17.000000 20 354.192661
1.798541 0.849026 2.707391 16.000000 18 354.192664
2.002982 0.945531 2.479452 19.000000 16 354.192666
2.261550 1.074839 2.540443 18.000000 15 354.192624
2.333844 1.109195 2.165203 15.000000 13 354.192627
2.370101 1.125919 1.804945 15.000000 11 354.192629
2.410282 1.145004 1.482768 15.000000 9 354.192632
2.438035 1.157667 1.178756 16.000000 7 354.192634
2.405639 1.141770 0.872146 79.000000 5 354.192637
2.272135 1.078406 0.568974 20.000000 3 354.192639
2.263007 1.073590 0.317375 14.000000 1 354.192642
2.322033 1.099117 2.368466 14.000000 14 354.192650
2.366102 1.119973 1.989665 17.000000 12 354.192652
2.390529 1.131025 1.639050 15.000000 10 354.192655
2.437903 1.153436 1.334219 17.000000 8 354.192657
2.429647 1.149010 1.024030 54.000000 6 354.192660
2.263252 1.069837 0.694497 14.000000 4 354.192662
2.283437 1.078891 0.444007 17.000000 2 354.192665
2.290130 1.081565 0.195842 11.000000 0 354.192668
0.045522 0.011874 3.839127 98.000000 31 354.192679
0.502701 0.221411 3.492479 11.000000 28 354.192682
0.659581 0.289565 3.486662 15.000000 27 354.192684
1.149302 0.531655 4.092974 93.000000 25 354.192687
1.532545 0.719225 4.047839 93.000000 23 354.192689
1.947750 0.914483 4.008956 9.000000 21 354.192692
1.776025 0.833856 2.954271 12.000000 19 354.192694
1.835775 0.861905 2.503871 17.000000 17 354.192697
0.215334 0.082794 3.818010 99.000000 30 354.192705
0.391677 0.161584 3.902371 8.000000 29 354.192707
0.812809 0.369084 3.472035 11.000000 26 354.192710
1.339167 0.625628 4.073736 91.000000 24 354.192712
1.733553 0.810600 4.018998 9.000000 22 354.192715
2.151242 1.006357 3.954941 12.000000 20 354.192717
1.806954 0.845297 2.715370 15.000000 18 354.192720
2.006271 0.938534 2.479452 19.000000 16 354.192723
2.245930 1.057821 2.519416 18.000000 15 354.192680
2.348267 1.106018 2.174616 15.000000 13 354.192683
2.381583 1.121202 1.810428 15.000000 11 354.192685
2.422280 1.140358 1.487404 15.000000 9 354.192688
2.437866 1.147176 1.176883 15.000000 7 354.192691
2.413951 1.135407 0.873555 71.000000 5 354.192693
2.284776 1.074650 0.570839 20.000000 3 354.192696
2.275755 1.069922 0.318267 15.000000 1 354.192698
2.332618 1.094176 2.375116 14.000000 14 354.192706
2.377316 1.115140 1.995552 17.000000 12 354.192709
2.398366 1.124503 1.641582 15.000000 10 354.192711
2.446024 1.146846 1.336317 16.000000 8 354.192714
2.437919 1.142526 1.025672 50.000000 6 354.192716
2.266972 1.061930 0.694497 11.000000 4 354.192719
2.291674 1.073014 0.444696 17.000000 2 354.192721
2.302942 1.077799 0.196245 12.000000 0 354.192724
0.045563 0.011715 3.839127 98.000000 31 354.192735
0.503471 0.219655 3.492479 11.000000 28 354.192737
0.660587 0.287260 3.486662 15.000000 27 354.192740
1.151151 0.527640 4.092974 94.000000 25 354.192742
1.535046 0.713871 4.047839 93.000000 23 354.192745
1.950930 0.907679 4.008956 9.000000 21 354.192747
1.786579 0.831213 2.966669 12.000000 19 354.192750
1.838772 0.855492 2.503871 15.000000 17 354.192752
0.215622 0.082042 3.818010 99.000000 30 354.192760
0.393228 0.160618 3.912313 8.000000 29 354.192763
0.814093 0.366244 3.472035 11.000000 26 354.192765
1.341343 0.620950 4.073736 92.000000 24 354.192768
1.736372 0.804544 4.018998 9.000000 22 354.192770
2.126348 0.985679 3.903749 9.000000 20 354.192773
1.815363 0.841520 2.723349 15.000000 18 354.192776
2.009535 0.931525 2.479452 18.000000 16 354.192778
2.217293 1.034891 2.484370 18.000000 15 354.192736
2.359169 1.101107 2.180892 15.000000 13 354.192738
2.393061 1.116417 1.815911 14.000000 11 354.192741
2.434276 1.135642 1.492040 14.000000 9 354.192743
3.198139 1.491319 1.514029 7.000000 7 354.192746
2.422248 1.129001 0.874964 65.000000 5 354.192749
2.297418 1.070818 0.572704 19.000000 3 354.192751
2.293018 1.068280 0.319606 15.000000 1 354.192754
2.346582 1.090750 2.385091 16.000000 14 354.192761
2.392190 1.111946 2.004381 17.000000 12 354.192764
2.410096 1.119758 1.646647 15.000000 10 354.192767
2.450012 1.138301 1.336317 16.000000 8 354.192769
2.454741 1.139977 1.030600 38.000000 6 354.192772
2.292710 1.064243 0.700358 8.000000 4 354.192774
2.304390 1.069176 0.446076 18.000000 2 354.192777
2.315754 1.073958 0.196648 12.000000 0 354.192779
0.045560 0.011549 3.834128 99.000000 31 354.192790
0.504235 0.217896 3.492479 11.000000 28 354.192793
0.661586 0.284953 3.486662 15.000000 27 354.192795
1.152986 0.523619 4.092974 93.000000 25 354.192798
1.535755 0.707690 4.043236 87.000000 23 354.192800
1.954087 0.900863 4.008956 9.000000 21 354.192803
1.794581 0.827327 2.974935 12.000000 19 354.192805
1.844659 0.850411 2.507708 15.000000 17 354.192808
0.215907 0.081289 3.818010 98.000000 30 354.192816
0.394776 0.159643 3.922256 8.000000 29 354.192818
0.815366 0.363400 3.472035 11.000000 26 354.192821
1.343502 0.616264 4.073736 91.000000 24 354.192823
1.739169 0.798478 4.018998 9.000000 22 354.192826
2.094226 0.961922 3.839760 7.000000 20 354.192829
1.823767 0.837694 2.731328 15.000000 18 354.192831
2.012774 0.924505 2.479452 18.000000 16 354.192834
2.220892 1.027146 2.484370 18.000000 15 354.192791
2.373598 1.097768 2.190305 15.000000 13 354.192794
2.404535 1.111566 1.821394 14.000000 11 354.192796
2.442246 1.128996 1.494358 14.000000 9 354.192799
3.279076 1.515149 1.547743 8.000000 7 354.192802
2.426174 1.120539 0.874964 61.000000 5 354.192804
2.310061 1.066912 0.574569 19.000000 3 354.192807
2.305776 1.064444 0.320498 15.000000 1 354.192809
2.357159 1.085676 2.391740 16.000000 14 354.192817
2.403399 1.106971 2.010267 17.000000 12 354.192820
2.421823 1.114944 1.651712 15.000000 10 354.192822
2.462216 1.133537 1.340513 15.000000 8 354.192825
2.462996 1.133375 1.032243 30.000000 6 354.192827
2.317108 1.065263 0.447456 18.000000 2 354.192832
2.328568 1.070040 0.197051 11.000000 0 354.192835
0.045601 0.011390 3.834128 99.000000 31 354.192846
0.504992 0.216135 3.492479 10.000000 28 354.192848
0.663514 0.283041 3.491558 15.000000 27 354.192851
1.154807 0.519591 4.092974 93.000000 25 354.192853
1.538216 0.702325 4.043236 87.000000 23 354.192856
1.955040 0.893041 4.004567 9.000000 21 354.192858
1.802577 0.823396 2.983201 12.000000 19 354.192861
1.850532 0.845298 2.511545 14.000000 17 354.192863
0.216190 0.080535 3.818010 98.000000 30 354.192871
0.396819 0.158857 3.937171 8.000000 29 354.192874
0.816630 0.360552 3.472035 11.000000 26 354.192876
1.345645 0.611570 4.073736 91.000000 24 354.192879
1.741946 0.792402 4.018998 9.000000 22 354.192881
2.095197 0.953526 3.835494 7.000000 20 354.192884
1.832166 0.833819 2.739307 15.000000 18 354.192887
2.012903 0.916069 2.475777 17.000000 16 354.192889
2.211495 1.013444 2.470352 16.000000 15 354.192847
2.384494 1.092719 2.196581 15.000000 13 354.192849
2.416003 1.106648 1.826877 14.000000 11 354.192852
2.454228 1.124154 1.498994 14.000000 9 354.192855
3.225332 1.476675 1.521521 6.000000 7 354.192857
2.438796 1.116056 0.877783 43.000000 5 354.192860
2.322705 1.062930 0.576435 19.000000 3 354.192862
2.318535 1.060532 0.321391 15.000000 1 354.192865
2.367729 1.080542 2.398390 15.000000 14 354.192873
2.414603 1.101931 2.016154 17.000000 12 354.192875
2.433545 1.110062 1.656777 14.000000 10 354.192878
2.486804 1.134353 1.351003 9.000000 8 354.192880
2.484125 1.132607 1.038814 12.000000 6 354.192883
3.379291 1.540034 0.986404 14.000000 4 354.192885
2.329825 1.061274 0.448835 17.000000 2 354.192888
2.341383 1.066046 0.197454 11.000000 0 354.192890
0.045640 0.011230 3.834128 98.000000 31 354.192901
0.505744 0.214371 3.492479 10.000000 28 354.192904
0.664498 0.280723 3.491558 15.000000 27 354.192906
1.156613 0.515557 4.092974 93.000000 25 354.192909
1.540658 0.696951 4.043236 92.000000 23 354.192911
1.958146 0.886212 4.004567 9.000000 21 354.192914
1.810568 0.819420 2.991467 12.000000 19 354.192916
1.859313 0.841477 2.519219 14.000000 17 354.192919
0.216469 0.079780 3.818010 98.000000 30 354.192927
0.398365 0.157862 3.947114 9.000000 29 354.192929
0.817883 0.357699 3.472035 11.000000 26 354.192932
1.347772 0.606869 4.073736 91.000000 24 354.192934
1.744702 0.786317 4.018998 9.000000 22 354.192937
2.098513 0.946206 3.835494 7.000000 20 354.192940
1.840561 0.829896 2.747286 15.000000 18 354.192942
2.016088 0.909037 2.475777 17.000000 16 354.192945
2.215019 1.005718 2.470352 16.000000 15 354.192902
2.395382 1.087608 2.202856 15.000000 13 354.192905
2.427467 1.101664 1.832359 14.000000 11 354.192907
2.466206 1.119242 1.503630 13.000000 9 354.192910
2.504308 1.136008 1.199359 12.000000 7 354.192913
2.433938 1.103574 0.874964 34.000000 5 354.192915
2.335349 1.058873 0.578300 19.000000 3 354.192918
2.331295 1.056544 0.322283 15.000000 1 354.192920
2.378292 1.075348 2.405040 14.000000 14 354.192928
2.425801 1.096826 2.022040 17.000000 12 354.192931
2.445262 1.105112 1.661842 14.000000 10 354.192933
3.264138 1.475189 1.743339 8.000000 8 354.192936
2.509582 1.133650 1.047027 11.000000 6 354.192938
3.389076 1.530229 0.987576 14.000000 4 354.192941
2.342543 1.057209 0.450215 17.000000 2 354.192943
2.354198 1.061975 0.197857 12.000000 0 354.192946
0.045679 0.011071 3.834128 98.000000 31 354.192957
0.506489 0.212604 3.492479 10.000000 28 354.192959
0.665473 0.278402 3.491558 16.000000 27 354.192962
1.157040 0.510913 4.088202 94.000000 25 354.192964
1.543081 0.691569 4.043236 92.000000 23 354.192967
1.961227 0.879371 4.004567 9.000000 21 354.192969
1.818553 0.815397 2.999733 11.000000 19 354.192972
1.868089 0.837605 2.526893 14.000000 17 354.192975
0.216747 0.079023 3.818010 98.000000 30 354.192982
0.400406 0.157053 3.962028 11.000000 29 354.192985
0.819127 0.354842 3.472035 11.000000 26 354.192987
1.348306 0.601458 4.069043 91.000000 24 354.192990
1.747436 0.780222 4.018998 9.000000 22 354.192993
2.106566 0.941003 3.844026 7.000000 20 354.192995
1.848950 0.825925 2.755265 15.000000 18 354.192998
2.016154 0.900611 2.472101 16.000000 16 354.193000
2.218517 0.997980 2.470352 17.000000 15 354.192958
2.406265 1.082433 2.209132 14.000000 13 354.192960
2.438925 1.096614 1.837842 14.000000 11 354.192963
2.482219 1.116077 1.510584 13.000000 9 354.192966
2.495573 1.121558 1.193740 15.000000 7 354.192968
2.468408 1.108832 0.884829 23.000000 5 354.192971
2.343512 1.052727 0.579232 17.000000 3 354.192973
2.344055 1.052480 0.323176 15.000000 1 354.192976
2.388847 1.070093 2.411689 13.000000 14 354.192984
2.436993 1.091657 2.027926 16.000000 12 354.192986
2.460909 1.101855 1.669439 14.000000 10 354.192989
3.120146 1.397019 1.667809 5.000000 8 354.192991
3.407707 1.524344 0.991093 14.000000 4 354.192996
2.350740 1.051047 0.450905 16.000000 2 354.192999
2.367013 1.057827 0.198260 12.000000 0 354.193001
0.045717 0.010912 3.834128 98.000000 31 354.193012
0.507228 0.210835 3.492479 9.000000 28 354.193015
0.666441 0.276077 3.491558 16.000000 27 354.193017
1.158816 0.506871 4.088202 94.000000 25 354.193020
1.545486 0.686179 4.043236 92.000000 23 354.193022
1.964285 0.872520 4.004567 9.000000 21 354.193025
1.826531 0.811329 3.007999 11.000000 19 354.193027
1.876861 0.833682 2.534567 14.000000 17 354.193030
0.217021 0.078266 3.818010 99.000000 30 354.193038
0.402944 0.156424 3.981913 13.000000 29 354.193040
0.820361 0.351981 3.472035 11.000000 26 354.193043
1.350397 0.596748 4.069043 91.000000 24 354.193045
1.748157 0.773237 4.014497 9.000000 22 354.193048
2.112223 0.934699 3.848292 7.000000 20 354.193051
1.857334 0.821905 2.763244 15.000000 18 354.193053
2.016185 0.892196 2.468426 16.000000 16 354.193056
2.221987 0.990230 2.470352 17.000000 15 354.193013
2.417140 1.077197 2.215407 14.000000 13 354.193016
2.450377 1.091496 1.843325 13.000000 11 354.193019
2.510381 1.118222 1.524493 9.000000 9 354.193021
2.507943 1.116611 1.197486 10.000000 7 354.193024
2.481029 1.104109 0.887647 23.000000 5 354.193026
2.356148 1.048535 0.581098 17.000000 3 354.193029
2.356815 1.048339 0.324068 15.000000 1 354.193031
2.402808 1.066292 2.421664 13.000000 14 354.193039
2.444483 1.084783 2.030870 16.000000 12 354.193042
2.468682 1.095006 1.671972 14.000000 10 354.193044
2.519290 1.117451 1.361494 8.000000 8 354.193047
3.393825 1.504647 1.380492 12.000000 6 354.193049
3.430783 1.520317 0.995782 14.000000 4 354.193052
2.363451 1.046846 0.452284 15.000000 2 354.193054
2.379827 1.053603 0.198663 12.000000 0 354.193057
0.045755 0.010752 3.834128 98.000000 31 354.193068
0.507961 0.209063 3.492479 8.000000 28 354.193070
0.667401 0.273749 3.491558 15.000000 27 354.193073
1.160578 0.502823 4.088202 91.000000 25 354.193075
1.547872 0.680780 4.043236 92.000000 23 354.193078
1.967318 0.865658 4.004567 9.000000 21 354.193080
1.837079 0.808348 3.020398 12.000000 19 354.193083
1.885629 0.829708 2.542241 13.000000 17 354.193086
0.217293 0.077508 3.818010 98.000000 30 354.193093
0.404983 0.155589 3.996828 15.000000 29 354.193096
0.821584 0.349115 3.472035 11.000000 26 354.193098
1.352472 0.592031 4.069043 90.000000 24 354.193101
1.750845 0.767130 4.014497 10.000000 22 354.193104
2.122638 0.930462 3.861090 8.000000 20 354.193106
1.868473 0.819047 2.775213 15.000000 18 354.193109
2.016182 0.883792 2.464751 16.000000 16 354.193111
2.225430 0.982468 2.470352 16.000000 15 354.193069
2.428008 1.071897 2.221683 14.000000 13 354.193071
2.461823 1.086312 1.848808 13.000000 11 354.193074
3.296527 1.454632 1.971871 6.000000 9 354.193077
2.524551 1.113462 1.203105 9.000000 7 354.193079
2.502427 1.103183 0.893284 25.000000 5 354.193082
2.364288 1.042285 0.582030 15.000000 3 354.193084
2.369575 1.044122 0.324961 15.000000 1 354.193087
2.413352 1.060904 2.428313 13.000000 14 354.193095
2.455655 1.079497 2.036756 16.000000 12 354.193097
2.488277 1.093319 1.682101 13.000000 10 354.193100
2.519020 1.106824 1.359396 13.000000 8 354.193102
3.412027 1.498488 1.385420 12.000000 6 354.193105
3.444970 1.512239 0.998127 14.000000 4 354.193107
2.376160 1.042570 0.453664 15.000000 2 354.193110
2.392641 1.049303 0.199066 12.000000 0 354.193113
0.045792 0.010592 3.834128 99.000000 31 354.193123
0.507968 0.206996 3.487540 8.000000 28 354.193126
0.667409 0.271035 3.486662 15.000000 27 354.193128
1.162326 0.498769 4.088202 93.000000 25 354.193131
1.548447 0.674592 4.038633 91.000000 23 354.193133
1.970328 0.858785 4.004567 9.000000 21 354.193136
1.845049 0.804179 3.028664 12.000000 19 354.193139
1.894391 0.825683 2.549915 13.000000 17 354.193141
0.217562 0.076749 3.818010 98.000000 30 354.193149
0.407022 0.154741 4.011742 18.000000 29 354.193151
0.822798 0.346245 3.472035 11.000000 26 354.193154
1.352947 0.586619 4.064351 91.000000 24 354.193157
1.751515 0.760146 4.009995 10.000000 22 354.193159
2.135442 0.927201 3.878154 8.000000 20 354.193162
1.876850 0.814921 2.783192 14.000000 18 354.193164
2.016145 0.875398 2.461076 16.000000 16 354.193167
2.228846 0.974694 2.470352 16.000000 15 354.193124
2.438868 1.066535 2.227959 14.000000 13 354.193127
2.473264 1.081062 1.854291 13.000000 11 354.193130
3.179804 1.389886 1.902331 4.000000 9 354.193132
2.376916 1.037958 0.583896 14.000000 3 354.193140
2.377769 1.037836 0.325407 15.000000 1 354.193142
2.423889 1.055455 2.434963 13.000000 14 354.193150
2.466820 1.074146 2.042642 16.000000 12 354.193153
2.527656 1.100111 1.704893 12.000000 10 354.193155
2.514545 1.094402 1.355199 13.000000 8 354.193158
3.434559 1.494104 1.391991 11.000000 6 354.193160
3.463600 1.506019 1.001644 14.000000 4 354.193163
2.388868 1.038217 0.455044 16.000000 2 354.193165
2.405454 1.044926 0.199469 12.000000 0 354.193168
0.045829 0.010432 3.834128 99.000000 31 354.193179
0.508687 0.205222 3.487540 6.000000 28 354.193181
0.668351 0.268704 3.486662 15.000000 27 354.193184
1.164060 0.494708 4.088202 91.000000 25 354.193186
1.550793 0.669183 4.038633 91.000000 23 354.193189
1.973314 0.851902 4.004567 10.000000 21 354.193191
1.855595 0.801080 3.041062 11.000000 19 354.193194
1.903149 0.821606 2.557589 13.000000 17 354.193197
0.217829 0.075989 3.818010 98.000000 30 354.193204
0.409060 0.153881 4.026656 25.000000 29 354.193207
0.824001 0.343371 3.472035 11.000000 26 354.193209
1.354986 0.581893 4.064351 91.000000 24 354.193212
1.754157 0.754028 4.009995 9.000000 22 354.193215
2.148249 0.923863 3.895217 8.000000 20 354.193217
1.885221 0.810746 2.791171 14.000000 18 354.193220
2.019189 0.868356 2.461076 16.000000 16 354.193222
2.232234 0.966908 2.470352 17.000000 15 354.193180
2.449721 1.061110 2.234234 13.000000 13 354.193183
2.488533 1.077406 1.862516 12.000000 11 354.193185
3.421482 1.480610 1.594569 10.000000 7 354.193190
3.443521 1.489434 1.192033 11.000000 5 354.193193
2.385033 1.031604 0.584828 14.000000 3 354.193195
2.390519 1.033482 0.326299 14.000000 1 354.193198
2.437845 1.051424 2.444938 13.000000 14 354.193206
2.477978 1.068730 2.048529 15.000000 12 354.193208
2.527521 1.089574 1.702361 8.000000 10 354.193211
2.543357 1.096398 1.367788 10.000000 8 354.193213
3.452765 1.487713 1.396919 12.000000 6 354.193216
3.482229 1.499688 1.005161 14.000000 4 354.193218
2.401575 1.033788 0.456423 16.000000 2 354.193221
2.418265 1.040472 0.199872 12.000000 0 354.193224
0.045865 0.010272 3.834128 95.000000 31 354.193234
0.509401 0.203445 3.487540 6.000000 28 354.193237
0.669285 0.266369 3.486662 15.000000 27 354.193239
1.164403 0.490063 4.083430 91.000000 25 354.193242
1.553119 0.663766 4.038633 90.000000 23 354.193244
1.976276 0.845009 4.004567 10.000000 21 354.193247
1.863555 0.796811 3.049328 11.000000 19 354.193250
1.911901 0.817479 2.565263 13.000000 17 354.193252
0.218080 0.075267 3.818010 98.000000 30 354.193260
0.410569 0.152894 4.036599 27.000000 29 354.193262
0.823973 0.340157 3.467196 11.000000 26 354.193265
1.356909 0.577397 4.064351 91.000000 24 354.193268
1.756779 0.747900 4.009995 9.000000 22 354.193270
2.161059 0.920447 3.912281 8.000000 20 354.193273
1.893585 0.806522 2.799150 14.000000 18 354.193275
2.022057 0.861655 2.461076 16.000000 16 354.193278
2.232319 0.957704 2.466848 17.000000 15 354.193235
2.460565 1.055622 2.240510 13.000000 13 354.193238
2.503808 1.073657 1.870740 12.000000 11 354.193241
2.550179 1.093538 1.538401 11.000000 9 354.193243
3.439155 1.474737 1.600188 10.000000 7 354.193246
3.466079 1.485566 1.197670 11.000000 5 354.193248
2.397650 1.027142 0.586693 16.000000 3 354.193251
2.403268 1.029052 0.327192 14.000000 1 354.193253
2.448369 1.045842 2.451587 13.000000 14 354.193261
2.489127 1.063249 2.054415 15.000000 12 354.193264
2.634202 1.125219 1.768204 6.000000 10 354.193266
3.470708 1.481817 1.401847 11.000000 6 354.193271
3.505065 1.495763 1.009850 14.000000 4 354.193274
2.414100 1.029704 0.457803 16.000000 2 354.193277
2.430893 1.036365 0.200275 12.000000 0 354.193279
0.045899 0.010120 3.834128 95.000000 31 354.193290
0.510072 0.201754 3.487540 5.000000 28 354.193292
0.669217 0.263775 3.481767 15.000000 27 354.193295
1.166022 0.486199 4.083430 91.000000 25 354.193297
1.555312 0.658612 4.038633 91.000000 23 354.193300
1.976861 0.837516 4.000178 10.000000 21 354.193303
1.871370 0.792822 3.057594 12.000000 19 354.193305
1.920505 0.813635 2.572937 12.000000 17 354.193308
0.218341 0.074505 3.818010 98.000000 30 354.193315
0.411602 0.151644 4.041570 27.000000 29 354.193318
0.825155 0.337278 3.467196 11.000000 26 354.193321
1.357326 0.571987 4.059658 91.000000 24 354.193323
1.759249 0.742070 4.009995 9.000000 22 354.193326
2.173711 0.917331 3.929345 8.000000 20 354.193328
1.901803 0.802582 2.807129 13.000000 18 354.193331
2.025053 0.854591 2.461076 16.000000 16 354.193333
2.235482 0.950296 2.466848 16.000000 15 354.193291
2.474799 1.052025 2.249923 13.000000 13 354.193294
2.518900 1.070253 1.878964 12.000000 11 354.193296
2.557869 1.086808 1.540719 11.000000 9 354.193299
3.452815 1.466347 1.603934 10.000000 7 354.193301
3.493323 1.482830 1.204716 10.000000 5 354.193304
2.414608 1.024943 0.589491 16.000000 3 354.193306
2.411252 1.023022 0.327638 15.000000 1 354.193309
2.462141 1.042084 2.461562 13.000000 14 354.193317
2.500084 1.058140 2.060301 15.000000 12 354.193319
2.642085 1.117697 1.770736 5.000000 10 354.193322
3.453618 1.460999 1.820967 11.000000 8 354.193324
3.484559 1.473372 1.405133 11.000000 6 354.193327
3.523697 1.489195 1.013367 14.000000 4 354.193329
2.426804 1.025125 0.459183 16.000000 2 354.193332
2.443702 1.031760 0.200678 12.000000 0 354.193335
0.045934 0.009960 3.834128 98.000000 31 354.193345
0.510774 0.199973 3.487540 4.000000 28 354.193348
0.670133 0.261438 3.481767 14.000000 27 354.193350
1.167712 0.482126 4.083430 93.000000 25 354.193353
1.557601 0.653179 4.038633 90.000000 23 354.193355
1.979772 0.830610 4.000178 10.000000 21 354.193358
1.876721 0.787373 3.061727 12.000000 19 354.193360
1.929246 0.809407 2.580610 12.000000 17 354.193363
0.218600 0.073742 3.818010 99.000000 30 354.193371
0.412631 0.150388 4.046542 22.000000 29 354.193373
0.826327 0.334396 3.467196 11.000000 26 354.193376
1.359314 0.567245 4.059658 90.000000 24 354.193378
1.761829 0.735925 4.009995 10.000000 22 354.193381
2.186525 0.913760 3.946409 10.000000 20 354.193383
1.910154 0.798263 2.815108 13.000000 18 354.193386
2.028023 0.847517 2.461076 17.000000 16 354.193389
2.235499 0.941103 2.463343 16.000000 15 354.193346
2.485632 1.046401 2.256199 13.000000 13 354.193349
2.538037 1.067941 1.889930 10.000000 11 354.193351
2.577981 1.084745 1.549991 7.000000 9 354.193354
3.462186 1.456083 1.605807 10.000000 7 354.193357
3.507323 1.474346 1.207535 10.000000 5 354.193359
2.427228 1.020316 0.591357 17.000000 3 354.193362
2.423991 1.018457 0.328530 14.000000 1 354.193364
2.472651 1.036370 2.468212 13.000000 14 354.193372
2.514946 1.054094 2.069131 15.000000 12 354.193375
2.558489 1.071819 1.715023 9.000000 10 354.193377
3.467069 1.452443 1.825163 11.000000 8 354.193380
3.502749 1.466671 1.410061 11.000000 6 354.193382
3.542325 1.482516 1.016884 13.000000 4 354.193385
2.439505 1.020470 0.460562 15.000000 2 354.193387
2.456506 1.027078 0.201081 13.000000 0 354.193390
0.045969 0.009799 3.834128 98.000000 31 354.193401
0.511469 0.198189 3.487540 4.000000 28 354.193403
0.670092 0.258731 3.476872 14.000000 27 354.193406
1.169388 0.478047 4.083430 93.000000 25 354.193408
1.559872 0.647738 4.038633 90.000000 23 354.193411
1.980447 0.822776 3.995790 10.000000 21 354.193413
1.884655 0.782977 3.069993 12.000000 19 354.193416
1.940941 0.806358 2.592121 12.000000 17 354.193418
0.218856 0.072979 3.818010 98.000000 30 354.193426
0.413153 0.148947 4.046542 22.000000 29 354.193429
0.827490 0.331510 3.467196 11.000000 26 354.193431
1.361286 0.562497 4.059658 90.000000 24 354.193434
1.762374 0.728938 4.005495 9.000000 22 354.193436
2.196931 0.909114 3.959206 11.000000 20 354.193439
1.918499 0.793895 2.823087 13.000000 18 354.193442
2.030970 0.840433 2.461076 18.000000 16 354.193444
2.235479 0.931922 2.459839 17.000000 15 354.193402
2.496456 1.040714 2.262474 12.000000 13 354.193404
2.557189 1.065508 1.900896 6.000000 11 354.193407
3.268774 1.362001 1.939419 5.000000 9 354.193409
3.488646 1.452900 1.615173 10.000000 7 354.193412
3.525735 1.467624 1.211762 10.000000 5 354.193415
2.439845 1.015612 0.593222 16.000000 3 354.193417
2.436727 1.013816 0.329423 14.000000 1 354.193420
2.486601 1.032027 2.478186 13.000000 14 354.193427
2.526077 1.048407 2.075017 15.000000 12 354.193430
2.558233 1.061230 1.712490 12.000000 10 354.193433
3.472118 1.440331 1.825163 11.000000 8 354.193435
3.520934 1.459862 1.414989 11.000000 6 354.193438
3.560949 1.475724 1.020401 13.000000 4 354.193440
2.452202 1.015738 0.461942 15.000000 2 354.193443
2.469308 1.022319 0.201484 12.000000 0 354.193445
0.046002 0.009639 3.834128 98.000000 31 354.193456
0.512157 0.196402 3.487540 4.000000 28 354.193459
0.670991 0.256390 3.476872 12.000000 27 354.193461
1.171050 0.473962 4.083430 94.000000 25 354.193464
1.560316 0.641546 4.034031 91.000000 23 354.193466
1.983307 0.815858 3.995790 10.000000 21 354.193469
1.892582 0.778534 3.078259 12.000000 19 354.193471
1.949674 0.802017 2.599795 12.000000 17 354.193474
0.219109 0.072214 3.818010 98.000000 30 354.193482
0.414174 0.147682 4.051513 25.000000 29 354.193484
0.827473 0.328156 3.462357 11.000000 26 354.193487
1.361644 0.557088 4.054965 90.000000 24 354.193489
1.766924 0.723607 4.009995 9.000000 22 354.193492
2.202504 0.902429 3.963472 11.000000 20 354.193495
1.929626 0.790621 2.835055 13.000000 18 354.193497
2.030754 0.832053 2.457401 18.000000 16 354.193500
2.238718 0.924113 2.459839 17.000000 15 354.193457
2.507270 1.034964 2.268750 12.000000 13 354.193460
2.587950 1.067739 1.920086 6.000000 11 354.193462
3.506553 1.446016 1.620792 10.000000 7 354.193468
3.539707 1.458965 1.214581 10.000000 5 354.193470
2.452459 1.010833 0.595087 17.000000 3 354.193473
2.454065 1.010994 0.330761 14.000000 1 354.193475
2.497097 1.026179 2.484836 13.000000 14 354.193483
2.540937 1.044193 2.083847 16.000000 12 354.193486
2.557934 1.050655 1.709958 11.000000 10 354.193488
3.498115 1.436824 1.835654 11.000000 8 354.193491
3.534745 1.451149 1.418274 11.000000 6 354.193493
3.575072 1.466976 1.022745 13.000000 4 354.193496
2.460314 1.009051 0.462632 15.000000 2 354.193498
2.482107 1.017483 0.201888 13.000000 0 354.193501
0.046036 0.009478 3.834128 98.000000 31 354.193512
0.512840 0.194613 3.487540 5.000000 28 354.193514
0.671882 0.254046 3.476872 12.000000 27 354.193517
1.172697 0.469871 4.083430 93.000000 25 354.193519
1.562546 0.636095 4.034031 91.000000 23 354.193522
1.986143 0.808930 3.995790 9.000000 21 354.193524
1.900500 0.774046 3.086525 13.000000 19 354.193527
1.961369 0.798834 2.611306 11.000000 17 354.193529
0.219360 0.071449 3.818010 98.000000 30 354.193537
0.414687 0.146236 4.051513 26.000000 29 354.193540
0.828613 0.325265 3.462357 11.000000 26 354.193542
1.363580 0.552332 4.054965 91.000000 24 354.193545
1.769439 0.717435 4.009995 9.000000 22 354.193547
2.205641 0.894735 3.963472 10.000000 20 354.193550
1.937959 0.786147 2.843034 13.000000 18 354.193553
2.033646 0.824959 2.457401 19.000000 16 354.193555
2.238629 0.914944 2.456334 17.000000 15 354.193513
2.521678 1.030624 2.278163 13.000000 13 354.193515
2.599403 1.061861 1.925569 6.000000 11 354.193518
3.503770 1.431292 2.066911 8.000000 9 354.193521
3.528748 1.440777 1.628284 10.000000 7 354.193523
3.558103 1.452038 1.218808 10.000000 5 354.193526
2.465068 1.005979 0.596952 16.000000 3 354.193528
2.466802 1.006184 0.331654 14.000000 1 354.193531
2.507581 1.020272 2.491486 13.000000 14 354.193539
2.559542 1.041410 2.095619 14.000000 12 354.193541
3.515722 1.429734 1.841948 11.000000 8 354.193546
3.552915 1.444137 1.423202 11.000000 6 354.193549
3.593681 1.459976 1.026262 13.000000 4 354.193551
2.472998 1.004183 0.464011 15.000000 2 354.193554
2.494902 1.012570 0.202291 13.000000 0 354.193556
0.046069 0.009317 3.834128 98.000000 31 354.193567
0.512788 0.192549 3.482601 6.000000 28 354.193570
0.672765 0.251700 3.476872 13.000000 27 354.193572
1.172941 0.465224 4.078659 90.000000 25 354.193575
1.564757 0.630637 4.034031 91.000000 23 354.193577
1.988955 0.801992 3.995790 9.000000 21 354.193580
1.908410 0.769512 3.094791 13.000000 19 354.193582
1.973065 0.795579 2.622817 11.000000 17 354.193585
0.219608 0.070683 3.818010 98.000000 30 354.193593
0.414690 0.144612 4.046542 23.000000 29 354.193595
0.829743 0.322371 3.462357 11.000000 26 354.193598
1.365500 0.547569 4.054965 90.000000 24 354.193600
1.771932 0.711254 4.009995 9.000000 22 354.193603
2.211171 0.888002 3.967738 10.000000 20 354.193606
1.949082 0.782747 2.855003 12.000000 18 354.193608
2.033367 0.816592 2.453726 19.000000 16 354.193611
2.241809 0.907124 2.456334 17.000000 15 354.193568
2.532478 1.024736 2.284439 12.000000 13 354.193571
2.595341 1.049645 1.920086 10.000000 11 354.193573
3.516958 1.422375 2.071547 9.000000 9 354.193576
3.546650 1.433662 1.633903 9.000000 7 354.193579
3.572046 1.443203 1.221627 9.000000 5 354.193581
2.473119 0.999208 0.597885 16.000000 3 354.193584
2.479534 1.001296 0.332546 14.000000 1 354.193586
2.524983 1.017093 2.504785 14.000000 14 354.193594
2.578159 1.038510 2.107392 10.000000 12 354.193597
3.533321 1.422538 1.848242 10.000000 8 354.193602
3.575458 1.438778 1.429773 11.000000 6 354.193604
3.612284 1.452864 1.029779 12.000000 4 354.193607
2.485678 0.999239 0.465391 15.000000 2 354.193609
2.507693 1.007581 0.202694 13.000000 0 354.193612
0.046101 0.009157 3.834128 98.000000 31 354.193623
0.513457 0.190758 3.482601 7.000000 28 354.193625
0.673639 0.249350 3.476872 13.000000 27 354.193628
1.174558 0.461127 4.078659 90.000000 25 354.193630
1.566949 0.625171 4.034031 91.000000 23 354.193633
1.991742 0.795044 3.995790 10.000000 21 354.193635
1.924152 0.768062 3.115456 13.000000 19 354.193638
1.981785 0.791064 2.630491 11.000000 17 354.193641
0.219853 0.069916 3.818010 99.000000 30 354.193648
0.415192 0.143164 4.046542 21.000000 29 354.193651
0.830863 0.319472 3.462357 11.000000 26 354.193653
1.367403 0.542799 4.054965 88.000000 24 354.193656
1.776428 0.705869 4.014497 11.000000 22 354.193659
2.211833 0.879315 3.963472 10.000000 20 354.193661
1.957404 0.778166 2.862982 12.000000 18 354.193664
2.036205 0.809490 2.453726 19.000000 16 354.193666
2.244962 0.899293 2.456334 17.000000 15 354.193624
2.546880 1.020232 2.293852 12.000000 13 354.193626
2.587344 1.035917 1.911862 11.000000 11 354.193629
3.534240 1.415029 2.078501 9.000000 9 354.193632
3.564545 1.426441 1.639522 9.000000 7 354.193634
3.590425 1.436070 1.225854 9.000000 5 354.193637
2.485714 0.994218 0.599750 16.000000 3 354.193639
2.492263 0.996332 0.333438 14.000000 1 354.193642
2.531987 1.009656 2.508110 16.000000 14 354.193650
2.608050 1.039984 2.127994 6.000000 12 354.193652
3.501933 1.395718 2.300013 10.000000 10 354.193655
3.550913 1.415237 1.854536 10.000000 8 354.193657
3.589233 1.429783 1.433058 11.000000 6 354.193660
3.626365 1.443842 1.032124 12.000000 4 354.193662
2.498354 0.994218 0.466771 15.000000 2 354.193665
2.520479 1.002514 0.203097 13.000000 0 354.193667
0.046133 0.008996 3.834128 99.000000 31 354.193678
0.514120 0.188964 3.482601 8.000000 28 354.193681
0.674505 0.246997 3.476872 13.000000 27 354.193683
1.176161 0.457024 4.078659 91.000000 25 354.193686
1.569122 0.619698 4.034031 86.000000 23 354.193688
1.994505 0.788087 3.995790 10.000000 21 354.193691
1.947758 0.769613 3.148519 12.000000 19 354.193693
1.990498 0.786498 2.638164 11.000000 17 354.193696
0.220096 0.069148 3.818010 98.000000 30 354.193704
0.415184 0.141542 4.041570 20.000000 29 354.193706
0.831974 0.316570 3.462357 11.000000 26 354.193709
1.369289 0.538022 4.054965 90.000000 24 354.193711
1.780908 0.700461 4.018998 23.000000 22 354.193714
2.214889 0.871589 3.963472 10.000000 20 354.193717
1.968522 0.774639 2.874950 12.000000 18 354.193719
2.035863 0.801135 2.450050 19.000000 16 354.193722
2.244772 0.890136 2.452830 17.000000 15 354.193679
2.561283 1.015641 2.303265 11.000000 13 354.193682
2.587057 1.025339 1.909121 8.000000 11 354.193685
3.547395 1.405949 2.083137 9.000000 9 354.193687
3.578122 1.417404 1.643268 9.000000 7 354.193690
3.604337 1.427060 1.228673 9.000000 5 354.193692
2.498304 0.989151 0.601615 16.000000 3 354.193695
2.504987 0.991292 0.334331 14.000000 1 354.193697
2.559810 1.010409 2.531384 19.000000 14 354.193705
2.611664 1.030874 2.127994 6.000000 12 354.193708
3.526836 1.391397 2.312675 9.000000 10 354.193710
3.568498 1.407830 1.860830 10.000000 8 354.193713
3.607381 1.422443 1.437986 11.000000 6 354.193715
3.644949 1.436521 1.035641 12.000000 4 354.193718
2.511024 0.989121 0.468150 15.000000 2 354.193720
2.533261 0.997370 0.203500 13.000000 0 354.193723
0.046164 0.008835 3.834128 99.000000 31 354.193734
0.514046 0.186904 3.477662 8.000000 28 354.193736
0.674406 0.244294 3.471977 12.000000 27 354.193739
1.177749 0.452916 4.078659 93.000000 25 354.193741
1.571275 0.614217 4.034031 86.000000 23 354.193744
1.997244 0.781120 3.995790 10.000000 21 354.193746
2.021193 0.790483 3.260109 11.000000 19 354.193749
1.999202 0.781880 2.645838 11.000000 17 354.193752
0.220324 0.068418 3.818010 99.000000 30 354.193759
0.415651 0.140165 4.041570 20.000000 29 354.193762
0.833019 0.313810 3.462357 11.000000 26 354.193764
1.371066 0.533479 4.054965 92.000000 24 354.193767
1.783342 0.694240 4.018998 39.000000 22 354.193770
2.217918 0.863852 3.963472 10.000000 20 354.193772
1.976831 0.769950 2.882929 12.000000 18 354.193775
2.038509 0.794380 2.450050 18.000000 16 354.193777
2.247866 0.882295 2.452830 17.000000 15 354.193735
2.572059 1.009538 2.309541 11.000000 13 354.193737
3.568779 1.400029 2.092409 9.000000 9 354.193743
3.595750 1.410610 1.648887 9.000000 7 354.193745
3.622448 1.420354 1.232900 9.000000 5 354.193748
2.510889 0.984009 0.603481 16.000000 3 354.193750
