# .PCD v.7 - Point Cloud Data file format
VERSION .7
FIELDS x y z intensity ring timestamp
SIZE 4 4 4 4 2 8
TYPE F F F F U D
COUNT 1 1 1 1 1 1
WIDTH 907
HEIGHT 1
VIEWPOINT 0 0 0 1 0 0 0
POINTS 907
DATA ascii
-0.492071 -0.504451 4.480331 98.000000 28 354.738020
-0.649520 -0.664308 4.490184 94.000000 27 354.738023
-1.020704 -1.085953 4.808733 8.000000 25 354.738025
-0.959737 -1.032468 3.380472 14.000000 23 354.738028
-0.934703 -1.005883 2.582641 31.000000 21 354.738030
-0.917996 -0.987900 2.053288 36.000000 19 354.738033
-0.677812 -0.729428 1.268375 35.000000 17 354.738036
-0.196654 -0.183008 4.471910 101.000000 30 354.738043
-0.348381 -0.340630 4.493968 101.000000 29 354.738046
-0.833807 -0.874632 4.686676 5.000000 26 354.738048
-0.994108 -1.065711 4.017423 11.000000 24 354.738051
-0.952960 -1.022309 2.952300 22.000000 22 354.738054
-0.932817 -1.001043 2.308290 35.000000 20 354.738056
-0.858642 -0.921441 1.741933 34.000000 18 354.738059
-0.703401 -0.754845 1.196819 44.000000 16 354.738061
-0.664604 -0.716965 1.040498 44.000000 15 354.738019
-0.790717 -0.853008 1.019914 39.000000 13 354.738021
-0.874338 -0.942885 0.927676 36.000000 11 354.738024
-0.763098 -0.822921 0.673777 21.000000 9 354.738027
-0.867578 -0.935264 0.603735 50.000000 7 354.738029
-0.864969 -0.932126 0.463479 36.000000 5 354.738032
-0.868747 -0.936197 0.333953 17.000000 3 354.738034
-0.716981 -0.771035 1.018578 49.000000 14 354.738045
-0.879820 -0.946144 1.024309 55.000000 12 354.738047
-0.750003 -0.806260 0.732441 16.000000 10 354.738050
-0.835383 -0.898039 0.654450 30.000000 8 354.738052
-0.872212 -0.937303 0.534510 40.000000 6 354.738055
-0.857864 -0.921562 0.394383 31.000000 4 354.738057
-0.850375 -0.913197 0.266034 11.000000 2 354.738060
-0.042601 -0.030801 4.474103 100.000000 31 354.738073
-0.493284 -0.502176 4.475392 101.000000 28 354.738076
-0.651835 -0.662037 4.490184 94.000000 27 354.738078
-1.025515 -1.083468 4.813504 8.000000 25 354.738081
-0.966005 -1.031964 3.389677 14.000000 23 354.738083
-0.939846 -1.004364 2.587029 30.000000 21 354.738086
-0.917593 -0.980580 2.045022 35.000000 19 354.738088
-0.680354 -0.727057 1.268375 35.000000 17 354.738091
-0.197292 -0.182321 4.471910 101.000000 30 354.738099
-0.349567 -0.339412 4.493968 101.000000 29 354.738101
-1.000185 -1.064750 4.026808 11.000000 24 354.738106
-0.959504 -1.022151 2.961301 22.000000 22 354.738109
-0.938090 -0.999682 2.312556 35.000000 20 354.738112
-0.859791 -0.916240 1.737943 35.000000 18 354.738114
-0.706032 -0.752385 1.196819 42.000000 16 354.738117
-0.664669 -0.712034 1.036993 44.000000 15 354.738074
-0.793690 -0.850243 1.019914 39.000000 13 354.738077
-0.871916 -0.933715 0.922193 27.000000 11 354.738080
-0.759918 -0.813777 0.669141 24.000000 9 354.738082
-0.870837 -0.932230 0.603735 48.000000 7 354.738085
-0.868218 -0.929100 0.463479 36.000000 5 354.738087
-0.872010 -0.933159 0.333953 17.000000 3 354.738090
-0.719668 -0.768527 1.018578 49.000000 14 354.738100
-0.883118 -0.943068 1.024309 55.000000 12 354.738103
-0.738076 -0.787905 0.719779 14.000000 10 354.738105
-0.841615 -0.898430 0.656548 34.000000 8 354.738108
-0.875479 -0.934253 0.534510 42.000000 6 354.738110
-0.864400 -0.922108 0.395556 31.000000 4 354.738113
-0.856945 -0.913835 0.266724 10.000000 2 354.738115
-0.042708 -0.030652 4.474103 101.000000 31 354.738129
-0.495033 -0.500451 4.475392 101.000000 28 354.738131
-0.654142 -0.659758 4.490184 94.000000 27 354.738134
-1.031352 -1.082044 4.823048 8.000000 25 354.738136
-0.970941 -1.030008 3.394280 14.000000 23 354.738139
-0.944989 -1.002820 2.591418 30.000000 21 354.738141
-0.905571 -0.960987 2.011958 32.000000 19 354.738144
-0.685087 -0.727011 1.272212 35.000000 17 354.738147
-0.197927 -0.181631 4.471910 101.000000 30 354.738154
-0.350750 -0.338190 4.493968 101.000000 29 354.738157
-1.006267 -1.063760 4.036194 11.000000 24 354.738162
-0.964562 -1.020378 2.965802 23.000000 22 354.738165
-0.943365 -0.998297 2.316822 35.000000 20 354.738167
-0.858844 -0.908852 1.729964 35.000000 18 354.738170
-0.706325 -0.747452 1.193144 42.000000 16 354.738172
-0.667150 -0.709709 1.036993 45.000000 15 354.738130
-0.796653 -0.847467 1.019914 39.000000 13 354.738132
-0.759719 -0.807892 0.666823 15.000000 9 354.738138
-0.877263 -0.932561 0.605608 48.000000 7 354.738140
-0.871455 -0.926064 0.463479 36.000000 5 354.738143
-0.875262 -0.930109 0.333953 17.000000 3 354.738145
-0.719784 -0.763294 1.015253 49.000000 14 354.738156
-0.889177 -0.942920 1.027252 53.000000 12 354.738158
-0.740822 -0.785324 0.719779 14.000000 10 354.738161
-0.847861 -0.898788 0.658646 29.000000 8 354.738163
-0.881976 -0.934626 0.536152 40.000000 6 354.738166
-0.867614 -0.919085 0.395556 31.000000 4 354.738168
-0.860130 -0.910838 0.266724 9.000000 2 354.738171
-0.042815 -0.030503 4.474103 100.000000 31 354.738184
-0.496777 -0.498720 4.475392 101.000000 28 354.738187
-0.656441 -0.657471 4.490184 95.000000 27 354.738189
-1.038225 -1.081669 4.837363 8.000000 25 354.738192
-0.977221 -1.029446 3.403485 14.000000 23 354.738194
-0.951782 -1.002991 2.600195 30.000000 21 354.738197
-0.866305 -0.912914 1.921033 23.000000 19 354.738200
-0.687620 -0.724616 1.272212 35.000000 17 354.738202
-0.198560 -0.180939 4.471910 101.000000 30 354.738210
-0.351928 -0.336963 4.493968 101.000000 29 354.738212
-1.112322 -1.142499 6.172312 4.000000 26 354.738215
-1.011165 -1.061490 4.040886 11.000000 24 354.738218
-0.969619 -1.018583 2.970303 23.000000 22 354.738220
-0.948642 -0.996887 2.321088 35.000000 20 354.738223
-0.859933 -0.903665 1.725975 35.000000 18 354.738225
-0.706593 -0.742526 1.189469 42.000000 16 354.738228
-0.672075 -0.709966 1.040498 45.000000 15 354.738185
-0.799606 -0.844681 1.019914 39.000000 13 354.738188
-0.759489 -0.802018 0.664505 14.000000 9 354.738193
-0.880513 -0.929493 0.605608 46.000000 7 354.738196
-0.877982 -0.926499 0.464888 36.000000 5 354.738198
-0.878503 -0.927048 0.333953 17.000000 3 354.738201
-0.722444 -0.760776 1.015253 49.000000 14 354.738211
-0.892463 -0.939810 1.027252 51.000000 12 354.738214
-0.725743 -0.763979 0.704585 13.000000 10 354.738216
-0.847867 -0.892533 0.656548 29.000000 8 354.738219
-0.885233 -0.931541 0.536152 42.000000 6 354.738221
-0.874165 -0.919573 0.396728 31.000000 4 354.738224
-0.873542 -0.918596 0.268793 6.000000 2 354.738226
-0.042921 -0.030353 4.474103 100.000000 31 354.738240
-0.497965 -0.496435 4.470453 101.000000 28 354.738242
-0.658732 -0.655175 4.490184 96.000000 27 354.738245
-1.044071 -1.080186 4.846907 8.000000 25 354.738247
-0.983508 -1.028853 3.412690 14.000000 23 354.738250
-0.956932 -1.001395 2.604584 30.000000 21 354.738252
-0.830603 -0.869195 1.838374 21.000000 19 354.738255
-0.692360 -0.724529 1.276049 35.000000 17 354.738258
-0.199190 -0.180245 4.471910 100.000000 30 354.738265
-0.353102 -0.335733 4.493968 101.000000 29 354.738268
-1.114542 -1.136813 6.162633 5.000000 26 354.738270
-1.017253 -1.060444 4.050272 11.000000 24 354.738273
-0.976183 -1.018336 2.979305 23.000000 22 354.738276
-0.950312 -0.991687 2.316822 35.000000 20 354.738278
-0.860997 -0.898482 1.721985 35.000000 18 354.738281
-0.706835 -0.737607 1.185794 40.000000 16 354.738283
-0.677010 -0.710197 1.044002 40.000000 15 354.738241
-0.802550 -0.841885 1.019914 39.000000 13 354.738244
-0.759226 -0.796156 0.662187 14.000000 9 354.738249
-0.883752 -0.926414 0.605608 40.000000 7 354.738251
-0.881211 -0.923428 0.464888 36.000000 5 354.738254
-0.885125 -0.927530 0.334886 18.000000 3 354.738256
-0.725095 -0.758250 1.015253 51.000000 14 354.738267
-0.898532 -0.939611 1.030195 51.000000 12 354.738269
-0.719465 -0.752095 0.696987 7.000000 10 354.738272
-0.847840 -0.886288 0.654450 30.000000 8 354.738274
-0.891744 -0.931857 0.537795 42.000000 6 354.738277
-0.877370 -0.916516 0.396728 32.000000 4 354.738279
-0.043027 -0.030203 4.474103 101.000000 31 354.738295
-0.499694 -0.494693 4.470453 101.000000 28 354.738298
-0.660290 -0.652157 4.485289 98.000000 27 354.738300
-1.049919 -1.078676 4.856450 8.000000 25 354.738303
-0.988449 -1.026821 3.417292 12.000000 23 354.738305
-0.962083 -0.999775 2.608973 30.000000 21 354.738308
-0.808266 -0.839931 1.784646 20.000000 19 354.738311
-0.694885 -0.722107 1.276049 35.000000 17 354.738313
-0.199787 -0.179583 4.471910 101.000000 30 354.738321
-0.354603 -0.334926 4.498940 101.000000 29 354.738323
-1.124492 -1.139377 6.196508 7.000000 26 354.738326
-1.023162 -1.059548 4.059658 11.000000 24 354.738329
-0.981244 -1.016489 2.983805 22.000000 22 354.738331
-0.955578 -0.990240 2.321088 33.000000 20 354.738334
-0.862035 -0.893302 1.717996 35.000000 18 354.738336
-0.702216 -0.727939 1.174768 40.000000 16 354.738339
-0.684425 -0.712975 1.051011 39.000000 15 354.738296
-0.805484 -0.839078 1.019914 39.000000 13 354.738299
-0.755863 -0.787110 0.657550 17.000000 9 354.738304
-0.886819 -0.923478 0.605608 38.000000 7 354.738307
-0.887592 -0.923961 0.466298 36.000000 5 354.738309
-0.888357 -0.924434 0.334886 18.000000 3 354.738312
-0.727738 -0.755714 1.015253 51.000000 14 354.738322
-0.904610 -0.939380 1.033138 53.000000 12 354.738325
-0.844478 -0.876933 0.650254 28.000000 8 354.738330
-0.894829 -0.928895 0.537795 42.000000 6 354.738332
-0.883777 -0.917102 0.397900 32.000000 4 354.738335
-0.043127 -0.030060 4.474103 101.000000 31 354.738351
-0.501332 -0.493033 4.470453 101.000000 28 354.738353
-0.662449 -0.649963 4.485289 97.000000 27 354.738356
-1.056626 -1.078388 4.870765 8.000000 25 354.738358
-0.994567 -1.026344 3.426497 12.000000 23 354.738361
-0.967060 -0.998299 2.613361 30.000000 21 354.738364
-0.803215 -0.829161 1.768114 14.000000 19 354.738366
-0.699507 -0.722102 1.279886 35.000000 17 354.738369
-0.200412 -0.178885 4.471910 101.000000 30 354.738376
-0.355770 -0.333686 4.498940 101.000000 29 354.738379
-1.127575 -1.134552 6.191669 8.000000 26 354.738382
-1.029260 -1.058444 4.069043 11.000000 24 354.738384
-0.986127 -1.014791 2.988306 22.000000 22 354.738387
-0.958857 -0.987066 2.321088 26.000000 20 354.738389
-0.864993 -0.890439 1.717996 34.000000 18 354.738392
-0.700028 -0.720620 1.167418 39.000000 16 354.738394
-0.694220 -0.718395 1.061525 38.000000 15 354.738352
-0.808262 -0.836402 1.019914 39.000000 13 354.738355
-0.696107 -0.720092 0.741256 4.000000 11 354.738357
-0.755390 -0.781414 0.655232 12.000000 9 354.738360
-0.890037 -0.920377 0.605608 33.000000 7 354.738362
-0.890812 -0.920857 0.466298 36.000000 5 354.738365
-0.891418 -0.921483 0.334886 18.000000 3 354.738367
-0.730240 -0.753297 1.015253 51.000000 14 354.738378
-0.907720 -0.936375 1.033138 51.000000 12 354.738380
-0.834896 -0.860948 0.641862 22.000000 8 354.738385
-0.898067 -0.925766 0.537795 42.000000 6 354.738388
-0.886973 -0.914011 0.397900 31.000000 4 354.738390
-0.043231 -0.029909 4.474103 101.000000 31 354.738407
-0.503606 -0.491823 4.475392 101.000000 28 354.738410
-0.664714 -0.647647 4.485289 97.000000 27 354.738412
-1.062482 -1.076820 4.880309 8.000000 25 354.738415
-0.999509 -1.024264 3.431100 14.000000 23 354.738417
-0.970539 -0.994918 2.613361 29.000000 21 354.738420
-0.784489 -0.804195 1.722652 6.000000 19 354.738422
-0.702023 -0.719656 1.279886 35.000000 17 354.738425
-0.201035 -0.178184 4.471910 101.000000 30 354.738433
-0.356932 -0.332442 4.498940 101.000000 29 354.738435
-1.133308 -1.132387 6.201347 8.000000 26 354.738438
-1.035363 -1.057311 4.078429 11.000000 24 354.738440
-0.992887 -1.014283 2.997308 22.000000 22 354.738443
-0.866143 -0.885108 1.714006 34.000000 18 354.738448
-0.695551 -0.710781 1.156392 38.000000 16 354.738451
-0.706672 -0.726190 1.075543 38.000000 15 354.738408
-0.808461 -0.830786 1.016777 39.000000 13 354.738411
-0.686949 -0.705673 0.730290 6.000000 11 354.738413
-0.755023 -0.775598 0.652914 12.000000 9 354.738416
-0.890010 -0.913944 0.603735 28.000000 7 354.738419
-0.894021 -0.917742 0.466298 36.000000 5 354.738421
-0.891361 -0.914692 0.333953 18.000000 3 354.738424
-0.732996 -0.750615 1.015253 49.000000 14 354.738434
-0.913970 -0.935934 1.036081 46.000000 12 354.738437
-0.825360 -0.844896 0.633469 5.000000 8 354.738442
-0.904754 -0.925846 0.539438 42.000000 6 354.738444
-0.893715 -0.914230 0.399073 32.000000 4 354.738447
-0.043341 -0.029751 4.474103 101.000000 31 354.738463
-0.505406 -0.489974 4.475392 101.000000 28 354.738465
-0.667816 -0.645914 4.490184 97.000000 27 354.738468
-1.068528 -1.075037 4.889852 8.000000 25 354.738470
-1.005995 -1.023380 3.440305 13.000000 23 354.738473
-0.975858 -0.993063 2.617750 29.000000 21 354.738475
-0.787431 -0.801314 1.722652 6.000000 19 354.738478
-0.706903 -0.719364 1.283723 35.000000 17 354.738480
-0.201438 -0.177291 4.466919 101.000000 30 354.738488
-0.358090 -0.331194 4.498940 101.000000 29 354.738491
-1.143505 -1.134625 6.235221 9.000000 26 354.738493
-1.041471 -1.056148 4.087814 11.000000 24 354.738496
-0.997950 -1.012361 3.001809 21.000000 22 354.738498
-0.869227 -0.882080 1.714006 32.000000 18 354.738504
-0.688388 -0.698810 1.141692 38.000000 16 354.738506
-0.719315 -0.733782 1.089561 38.000000 15 354.738464
-0.811501 -0.827817 1.016777 39.000000 13 354.738466
-0.689531 -0.703151 0.730290 7.000000 11 354.738469
-0.751657 -0.766499 0.648278 17.000000 9 354.738471
-0.889949 -0.907521 0.601862 26.000000 7 354.738474
-0.897219 -0.914615 0.466298 36.000000 5 354.738477
-0.894548 -0.911575 0.333953 20.000000 3 354.738479
-0.732993 -0.745389 1.011928 47.000000 14 354.738489
-0.917232 -0.932737 1.036081 39.000000 12 354.738492
-0.702560 -0.714439 0.674196 4.000000 10 354.738495
-0.818610 -0.832446 0.627175 5.000000 8 354.738497
-0.907819 -0.922840 0.539438 44.000000 6 354.738500
-0.896742 -0.911261 0.399073 32.000000 4 354.738502
-0.043439 -0.029607 4.474103 101.000000 31 354.738518
-0.507028 -0.488295 4.475392 101.000000 28 354.738521
-0.669954 -0.643696 4.490184 97.000000 27 354.738523
-1.075256 -1.074655 4.904167 8.000000 25 354.738526
-1.010757 -1.021427 3.444908 13.000000 23 354.738528
-0.980831 -0.991524 2.622139 30.000000 21 354.738531
-0.780189 -0.788696 1.701987 4.000000 19 354.738533
-0.709285 -0.717016 1.283723 36.000000 17 354.738536
-0.202056 -0.176587 4.466919 101.000000 30 354.738544
-0.359244 -0.329942 4.498940 101.000000 29 354.738546
-1.153731 -1.136806 6.269095 9.000000 26 354.738549
-1.047583 -1.054955 4.097200 11.000000 24 354.738551
-1.002836 -1.010592 3.006310 21.000000 22 354.738554
-0.870025 -0.877053 1.710017 30.000000 18 354.738559
-0.683660 -0.689182 1.130666 38.000000 16 354.738562
-0.729259 -0.739008 1.100075 39.000000 15 354.738519
-0.814242 -0.825122 1.016777 39.000000 13 354.738522
-0.691859 -0.700860 0.730290 6.000000 11 354.738524
-0.751082 -0.760850 0.645960 16.000000 9 354.738527
-0.893111 -0.904409 0.601862 25.000000 7 354.738530
-0.903778 -0.914891 0.467707 36.000000 5 354.738532
-0.897566 -0.908603 0.333953 21.000000 3 354.738535
-0.735461 -0.742955 1.011928 49.000000 14 354.738545
-0.920320 -0.929691 1.036081 38.000000 12 354.738548
-0.702016 -0.708919 0.671663 5.000000 10 354.738550
-0.811931 -0.819909 0.620881 17.000000 8 354.738553
-0.914359 -0.923021 0.541080 44.000000 6 354.738555
-0.903338 -0.911578 0.400245 32.000000 4 354.738558
-0.043542 -0.029455 4.474103 101.000000 31 354.738574
-0.508729 -0.486522 4.475392 101.000000 28 354.738576
-0.672197 -0.641353 4.490184 97.000000 27 354.738579
-1.077940 -1.069843 4.899395 8.000000 25 354.738581
-1.017075 -1.020660 3.454113 13.000000 23 354.738584
-0.985977 -0.989792 2.626528 30.000000 21 354.738586
-0.714046 -0.716807 1.287560 36.000000 17 354.738591
-0.202671 -0.175880 4.466919 101.000000 30 354.738599
-0.360394 -0.328686 4.498940 101.000000 29 354.738602
-1.163087 -1.138049 6.298131 9.000000 26 354.738604
-1.052480 -1.052512 4.101892 11.000000 24 354.738607
-1.007897 -1.008626 3.010810 21.000000 22 354.738609
-0.870951 -0.871878 1.706027 30.000000 18 354.738615
-0.678874 -0.679596 1.119641 39.000000 16 354.738617
-0.739375 -0.744047 1.110588 39.000000 15 354.738575
-0.819861 -0.825036 1.019914 39.000000 13 354.738577
-0.700197 -0.704372 0.735773 5.000000 11 354.738580
-0.750610 -0.755081 0.643642 16.000000 9 354.738583
-0.892994 -0.897999 0.599989 24.000000 7 354.738585
-0.906966 -0.911731 0.467707 37.000000 5 354.738588
-0.900733 -0.905465 0.333953 21.000000 3 354.738590
-0.738050 -0.740383 1.011928 53.000000 14 354.738601
-0.914998 -0.917885 1.027252 35.000000 12 354.738603
-0.741017 -0.743097 0.702052 4.000000 10 354.738606
-0.805174 -0.807429 0.614587 7.000000 8 354.738608
-0.917575 -0.919823 0.541080 44.000000 6 354.738611
-0.906515 -0.908419 0.400245 33.000000 4 354.738613
-0.043645 -0.029303 4.474103 100.000000 31 354.738629
-0.510424 -0.484744 4.475392 100.000000 28 354.738632
-0.674431 -0.639003 4.490184 97.000000 27 354.738634
-1.088051 -1.072363 4.928026 8.000000 25 354.738637
-1.023399 -1.019862 3.463318 13.000000 23 354.738639
-0.991123 -0.988036 2.630916 30.000000 21 354.738642
-0.718814 -0.716574 1.291397 36.000000 17 354.738647
-0.203284 -0.175172 4.466919 101.000000 30 354.738655
-0.361539 -0.327426 4.498940 101.000000 29 354.738657
-1.173368 -1.140117 6.332006 9.000000 26 354.738660
-1.058596 -1.051264 4.111278 10.000000 24 354.738662
-1.012956 -1.006637 3.015311 21.000000 22 354.738665
-0.728089 -0.723799 1.749452 4.000000 20 354.738668
-0.871852 -0.866708 1.702038 31.000000 18 354.738670
-0.676434 -0.672442 1.112291 39.000000 16 354.738673
-0.747013 -0.746503 1.117597 40.000000 15 354.738630
-0.822736 -0.822169 1.019914 39.000000 13 354.738633
-0.705610 -0.704879 0.738515 5.000000 11 354.738635
-0.740704 -0.739933 0.634370 21.000000 9 354.738638
-0.896123 -0.894876 0.599989 23.000000 7 354.738641
-0.913538 -0.911948 0.469116 37.000000 5 354.738643
-0.903888 -0.902315 0.333953 21.000000 3 354.738646
-0.740630 -0.737802 1.011928 51.000000 14 354.738656
-0.909606 -0.906127 1.018422 25.000000 12 354.738659
-0.752771 -0.749632 0.709650 5.000000 10 354.738661
-0.795123 -0.791803 0.606195 7.000000 8 354.738664
-0.924127 -0.919947 0.542723 44.000000 6 354.738666
-0.913126 -0.908678 0.401417 33.000000 4 354.738669
-0.043747 -0.029150 4.474103 100.000000 31 354.738685
-0.512113 -0.482959 4.475392 101.000000 28 354.738687
-0.677400 -0.637342 4.495080 97.000000 27 354.738690
-1.631921 -1.597127 7.342517 2.000000 25 354.738692
-1.028341 -1.017658 3.467920 13.000000 23 354.738695
-0.997971 -0.987941 2.639693 31.000000 21 354.738697
-0.721311 -0.714060 1.291397 36.000000 17 354.738703
-0.204115 -0.174648 4.471910 101.000000 30 354.738710
-0.362680 -0.326162 4.498940 101.000000 29 354.738713
-1.182772 -1.141254 6.361041 9.000000 26 354.738715
-1.063488 -1.048774 4.115971 10.000000 24 354.738718
-1.019564 -1.006154 3.024313 21.000000 22 354.738721
-0.730611 -0.721253 1.749452 6.000000 20 354.738723
-0.874872 -0.863659 1.702038 31.000000 18 354.738726
-0.676364 -0.667695 1.108615 39.000000 16 354.738728
-0.752146 -0.746403 1.121102 39.000000 15 354.738686
-0.828364 -0.822034 1.023052 39.000000 13 354.738688
-0.714003 -0.708301 0.743997 5.000000 11 354.738691
-0.749573 -0.743583 0.639006 9.000000 9 354.738694
-0.902533 -0.895007 0.601862 22.000000 7 354.738696
-0.920122 -0.912131 0.470525 37.000000 5 354.738699
-0.907032 -0.899154 0.333953 23.000000 3 354.738701
-0.743201 -0.735212 1.011928 47.000000 14 354.738712
-0.895522 -0.885891 1.000763 17.000000 12 354.738714
-0.801366 -0.792471 0.747636 7.000000 10 354.738717
-0.801110 -0.792214 0.608293 10.000000 8 354.738719
-0.927333 -0.916715 0.542723 44.000000 6 354.738722
-0.916292 -0.905485 0.401417 33.000000 4 354.738724
-0.043848 -0.028997 4.474103 98.000000 31 354.738740
-0.513796 -0.481168 4.475392 101.000000 28 354.738743
-0.679620 -0.634974 4.495080 97.000000 27 354.738745
-1.097653 -1.066823 4.937569 8.000000 25 354.738748
-1.034674 -1.016801 3.477125 13.000000 23 354.738750
-1.003122 -0.986131 2.644082 32.000000 21 354.738753
-0.789118 -0.775753 1.697854 3.000000 19 354.738755
-0.726085 -0.713786 1.295234 36.000000 17 354.738758
-0.204723 -0.173935 4.471910 101.000000 30 354.738766
-0.363816 -0.324894 4.498940 101.000000 29 354.738768
-1.193107 -1.143209 6.394915 9.000000 26 354.738771
-1.069608 -1.047470 4.125357 10.000000 24 354.738773
-1.024625 -1.004113 3.028814 21.000000 22 354.738776
-0.744299 -0.729653 1.775048 6.000000 20 354.738779
-0.877881 -0.860600 1.702038 34.000000 18 354.738781
-0.676270 -0.662957 1.104940 40.000000 16 354.738784
-0.757287 -0.746276 1.124606 40.000000 15 354.738741
-0.831228 -0.819138 1.023052 38.000000 13 354.738744
-0.725408 -0.714608 0.752222 6.000000 11 354.738747
-0.742696 -0.731635 0.632052 6.000000 9 354.738749
-0.905652 -0.891851 0.601862 21.000000 7 354.738752
-0.923301 -0.908914 0.470525 37.000000 5 354.738754
-0.910165 -0.895983 0.333953 23.000000 3 354.738757
-0.745762 -0.732614 1.011928 45.000000 14 354.738767
-0.846707 -0.831773 0.947787 13.000000 12 354.738770
-0.850268 -0.834980 0.785622 8.000000 10 354.738772
-0.820061 -0.805313 0.618783 17.000000 8 354.738775
-0.933897 -0.916781 0.544366 44.000000 6 354.738777
-0.922916 -0.905685 0.402589 34.000000 4 354.738780
-0.043949 -0.028844 4.474103 98.000000 31 354.738796
-0.515472 -0.479372 4.475392 101.000000 28 354.738798
-0.681832 -0.632598 4.495080 97.000000 27 354.738801
-1.635508 -1.578436 7.309115 3.000000 25 354.738803
-1.039616 -1.014547 3.481728 13.000000 23 354.738806
-1.008272 -0.984297 2.648471 32.000000 21 354.738808
-0.791821 -0.772994 1.697854 4.000000 19 354.738811
-0.728572 -0.711247 1.295234 36.000000 17 354.738814
-0.205329 -0.173219 4.471910 101.000000 30 354.738821
-0.364948 -0.323622 4.498940 101.000000 29 354.738824
-1.203469 -1.145106 6.428790 9.000000 26 354.738826
-1.074495 -1.044933 4.130049 11.000000 24 354.738829
-1.031245 -1.003568 3.037815 21.000000 22 354.738832
-0.748710 -0.728870 1.779314 6.000000 20 354.738834
-0.880880 -0.857530 1.702038 37.000000 18 354.738837
-0.678580 -0.660592 1.104940 40.000000 16 354.738839
-0.759887 -0.743628 1.124606 39.000000 15 354.738797
-0.836865 -0.818954 1.026190 38.000000 13 354.738799
-0.739854 -0.723767 0.763188 7.000000 11 354.738802
-0.754746 -0.738332 0.639006 4.000000 9 354.738805
-0.912074 -0.891926 0.603735 20.000000 7 354.738807
-0.929898 -0.909039 0.471934 37.000000 5 354.738810
-0.916800 -0.896234 0.334886 23.000000 3 354.738812
-0.748315 -0.730006 1.011928 47.000000 14 354.738823
-0.811992 -0.792120 0.909525 9.000000 12 354.738825
-0.859351 -0.838027 0.790687 6.000000 10 354.738828
-0.806621 -0.786602 0.608293 5.000000 8 354.738830
-0.937091 -0.913515 0.544366 44.000000 6 354.738833
-0.926072 -0.902458 0.402589 34.000000 4 354.738835
-0.044049 -0.028691 4.474103 101.000000 31 354.738851
-0.517714 -0.478097 4.480331 99.000000 28 354.738854
-0.684037 -0.630214 4.495080 97.000000 27 354.738856
-1.641008 -1.572717 7.309115 3.000000 25 354.738859
-1.044554 -1.012272 3.486330 13.000000 23 354.738861
-1.013422 -0.982439 2.652859 32.000000 21 354.738864
-0.786433 -0.762391 1.681322 6.000000 19 354.738867
-0.733352 -0.710931 1.299071 37.000000 17 354.738869
-0.206155 -0.172686 4.476902 102.000000 30 354.738877
-0.366075 -0.322346 4.498940 101.000000 29 354.738879
-1.213859 -1.146945 6.462664 10.000000 26 354.738882
-1.080619 -1.043574 4.139435 11.000000 24 354.738885
-1.036308 -1.001475 3.042316 21.000000 22 354.738887
-0.766250 -0.740753 1.813441 6.000000 20 354.738890
-0.883868 -0.854450 1.702038 36.000000 18 354.738892
-0.683319 -0.660576 1.108615 39.000000 16 354.738895
-0.762478 -0.740971 1.124606 39.000000 15 354.738852
-0.839719 -0.816028 1.026190 38.000000 13 354.738855
-0.754373 -0.732835 0.774154 8.000000 11 354.738858
-0.918508 -0.891966 0.605608 18.000000 7 354.738863
-0.933066 -0.905787 0.471934 37.000000 5 354.738865
-0.919923 -0.893029 0.334886 23.000000 3 354.738868
-0.750859 -0.727389 1.011928 47.000000 14 354.738878
-0.768301 -0.744283 0.862435 6.000000 12 354.738881
-0.862271 -0.835022 0.790687 6.000000 10 354.738883
-0.943668 -0.913523 0.546008 46.000000 6 354.738888
-0.932710 -0.902600 0.403762 34.000000 4 354.738891
-0.044149 -0.028537 4.474103 101.000000 31 354.738907
-0.519379 -0.476287 4.480331 99.000000 28 354.738909
-0.686232 -0.627822 4.495080 96.000000 27 354.738912
-1.644324 -1.564920 7.299572 3.000000 25 354.738914
-1.050896 -1.011328 3.495535 13.000000 23 354.738917
-1.020297 -0.982218 2.661637 32.000000 21 354.738919
-0.795171 -0.765496 1.693721 8.000000 19 354.738922
-0.726591 -0.699473 1.283723 38.000000 17 354.738925
-0.206757 -0.171966 4.476902 102.000000 30 354.738932
-0.367198 -0.321067 4.498940 101.000000 29 354.738935
-1.225194 -1.149585 6.501378 10.000000 26 354.738937
-1.086746 -1.042184 4.148820 11.000000 24 354.738940
-1.042940 -1.000868 3.051318 20.000000 22 354.738943
-0.776357 -0.745298 1.830505 6.000000 20 354.738945
-0.886845 -0.851360 1.702038 36.000000 18 354.738948
-0.685621 -0.658187 1.108615 39.000000 16 354.738950
-0.765060 -0.738305 1.124606 40.000000 15 354.738908
-0.842562 -0.813092 1.026190 36.000000 13 354.738911
-0.768964 -0.741809 0.785119 8.000000 11 354.738913
-0.924953 -0.891973 0.607481 18.000000 7 354.738918
-0.939676 -0.905854 0.473344 38.000000 5 354.738921
-0.926571 -0.893221 0.335819 24.000000 3 354.738923
-0.753393 -0.724764 1.011928 51.000000 14 354.738934
-0.735939 -0.707970 0.827117 4.000000 12 354.738936
-0.865180 -0.832007 0.790687 7.000000 10 354.738939
-0.946851 -0.910224 0.546008 46.000000 6 354.738944
-0.935855 -0.899339 0.403762 34.000000 4 354.738946
-0.044249 -0.028382 4.474103 101.000000 31 354.738962
-0.521613 -0.474994 4.485271 101.000000 28 354.738965
-0.688420 -0.625423 4.495080 93.000000 27 354.738967
-1.651948 -1.561222 7.309115 3.000000 25 354.738970
-1.055832 -1.009004 3.500138 13.000000 23 354.738972
-1.025451 -0.980306 2.666025 32.000000 21 354.738975
-0.793770 -0.758826 1.685455 8.000000 19 354.738978
-0.717441 -0.685856 1.264538 37.000000 17 354.738980
-0.207356 -0.171243 4.476902 101.000000 30 354.738988
-0.368317 -0.319783 4.498940 101.000000 29 354.738990
-1.233801 -1.149588 6.525574 10.000000 26 354.738993
-1.091627 -1.039574 4.153513 10.000000 24 354.738996
-1.048004 -0.998723 3.055819 20.000000 22 354.738998
-0.788392 -0.751581 1.851835 7.000000 20 354.739001
-0.887630 -0.846179 1.698048 35.000000 18 354.739003
-0.690368 -0.658129 1.112291 39.000000 16 354.739006
-0.767633 -0.735630 1.124606 40.000000 15 354.738963
-0.848206 -0.812839 1.029328 36.000000 13 354.738966
-0.783627 -0.750691 0.796085 8.000000 11 354.738969
-0.756038 -0.724258 0.634370 3.000000 9 354.738971
-0.931409 -0.891945 0.609354 17.000000 7 354.738974
-0.942832 -0.902569 0.473344 38.000000 5 354.738976
-0.929683 -0.889981 0.335819 24.000000 3 354.738979
-0.755919 -0.722130 1.011928 49.000000 14 354.738989
-0.738406 -0.705397 0.827117 4.000000 12 354.738992
-0.868079 -0.828982 0.790687 8.000000 10 354.738994
-0.953438 -0.910174 0.547651 46.000000 6 354.738999
-0.942505 -0.899423 0.404934 34.000000 4 354.739002
-0.044348 -0.028228 4.474103 100.000000 31 354.739018
-0.523268 -0.473170 4.485271 101.000000 28 354.739020
-0.690598 -0.623016 4.495080 93.000000 27 354.739023
-1.655209 -1.553402 7.299572 3.000000 25 354.739025
-1.062182 -1.008002 3.509343 12.000000 23 354.739028
-1.030604 -0.978370 2.670414 32.000000 21 354.739031
-0.794373 -0.754113 1.681322 7.000000 19 354.739033
-0.705881 -0.670104 1.241517 38.000000 17 354.739036
-0.207952 -0.170518 4.476902 101.000000 30 354.739043
-0.369431 -0.318495 4.498940 101.000000 29 354.739046
-1.239653 -1.146982 6.535252 10.000000 26 354.739049
-1.097757 -1.038129 4.162899 10.000000 24 354.739051
-1.054647 -0.998053 3.064821 20.000000 22 354.739054
-0.800481 -0.757789 1.873165 7.000000 20 354.739056
-0.890578 -0.843076 1.698048 33.000000 18 354.739059
-0.695123 -0.658045 1.115966 38.000000 16 354.739061
-0.772779 -0.735404 1.128111 42.000000 15 354.739019
-0.853858 -0.812557 1.032465 36.000000 13 354.739022
-0.795331 -0.756597 0.804310 7.000000 11 354.739024
-0.732883 -0.697187 0.615826 8.000000 9 354.739027
-0.937876 -0.891883 0.611227 17.000000 7 354.739029
-0.949454 -0.902578 0.474753 38.000000 5 354.739032
-0.936344 -0.890115 0.336751 25.000000 3 354.739034
-0.758435 -0.719487 1.011928 47.000000 14 354.739045
-0.740864 -0.702815 0.827117 4.000000 12 354.739047
-0.870968 -0.825947 0.790687 8.000000 10 354.739050
-0.956609 -0.906840 0.547651 46.000000 6 354.739055
-0.945639 -0.896127 0.404934 34.000000 4 354.739057
-0.044446 -0.028073 4.474103 101.000000 31 354.739073
-0.524917 -0.471340 4.485271 101.000000 28 354.739076
-0.693528 -0.621281 4.499975 96.000000 27 354.739078
-1.660621 -1.547615 7.299572 3.000000 25 354.739081
-1.067116 -1.005628 3.513946 12.000000 23 354.739083
-1.035756 -0.976410 2.674803 32.000000 21 354.739086
-0.797001 -0.751336 1.681322 7.000000 19 354.739088
-0.698884 -0.658840 1.226169 38.000000 17 354.739091
-0.208516 -0.169828 4.476902 101.000000 30 354.739099
-0.370891 -0.317615 4.503911 101.000000 29 354.739101
-1.242524 -1.142014 6.530413 9.000000 26 354.739104
-1.103709 -1.036846 4.172284 10.000000 24 354.739106
-1.059712 -0.995857 3.069321 20.000000 22 354.739109
-0.806922 -0.758563 1.881696 8.000000 20 354.739111
-0.891320 -0.837898 1.694059 33.000000 18 354.739114
-0.699771 -0.658059 1.119641 37.000000 16 354.739117
-0.775342 -0.732702 1.128111 42.000000 15 354.739074
-0.859518 -0.812245 1.035603 36.000000 13 354.739077
-0.801007 -0.756687 0.807051 7.000000 11 354.739079
-0.944198 -0.891952 0.613100 17.000000 7 354.739085
-0.952442 -0.899424 0.474753 38.000000 5 354.739087
-0.939446 -0.886841 0.336751 25.000000 3 354.739090
-0.760942 -0.716835 1.011928 45.000000 14 354.739100
-0.743313 -0.700224 0.827117 4.000000 12 354.739103
-0.873702 -0.823054 0.790687 8.000000 10 354.739105
-0.963049 -0.906901 0.549294 48.000000 6 354.739110
-0.948605 -0.892986 0.404934 34.000000 4 354.739113
-0.044539 -0.027925 4.474103 101.000000 31 354.739129
-0.526477 -0.469597 4.485271 101.000000 28 354.739131
-0.695584 -0.618977 4.499975 95.000000 27 354.739134
-1.664648 -1.541085 7.294800 2.000000 25 354.739136
-1.073298 -1.004754 3.523150 12.000000 23 354.739139
-1.040738 -0.974608 2.679191 32.000000 21 354.739141
-0.797434 -0.746765 1.677189 11.000000 19 354.739144
-0.689365 -0.645562 1.206984 38.000000 17 354.739146
-0.209108 -0.169099 4.476902 101.000000 30 354.739154
-0.371997 -0.316319 4.503911 101.000000 29 354.739157
-1.239999 -1.131735 6.496539 8.000000 26 354.739159
-1.109845 -1.035341 4.181670 10.000000 24 354.739162
-1.066192 -0.995309 3.078323 20.000000 22 354.739164
-0.818964 -0.764783 1.903026 10.000000 20 354.739167
-0.894093 -0.834937 1.694059 34.000000 18 354.739170
-0.704541 -0.657926 1.123316 37.000000 16 354.739172
-0.780367 -0.732568 1.131616 40.000000 15 354.739130
-0.865045 -0.812055 1.038741 35.000000 13 354.739132
-0.806561 -0.756888 0.809793 7.000000 11 354.739135
-0.950687 -0.891822 0.614973 21.000000 7 354.739140
-0.959075 -0.899376 0.476162 38.000000 5 354.739143
-0.942381 -0.883721 0.336751 25.000000 3 354.739145
-0.763314 -0.714308 1.011928 44.000000 14 354.739155
-0.745630 -0.697756 0.827117 4.000000 12 354.739158
-0.876569 -0.819999 0.790687 8.000000 10 354.739161
-0.802896 -0.751078 0.595704 4.000000 8 354.739163
-0.966209 -0.903533 0.549294 48.000000 6 354.739166
-0.955267 -0.892989 0.406106 35.000000 4 354.739168
-0.044636 -0.027770 4.474103 100.000000 31 354.739184
-0.528113 -0.467757 4.485271 101.000000 28 354.739187
-0.698504 -0.617220 4.504870 94.000000 27 354.739189
-1.672217 -1.537287 7.304344 2.000000 25 354.739192
-1.079660 -1.003662 3.532356 11.000000 23 354.739194
-1.045888 -0.972600 2.683580 32.000000 21 354.739197
-0.800036 -0.743977 1.677189 10.000000 19 354.739199
-0.684571 -0.636602 1.195473 38.000000 17 354.739202
-0.209697 -0.168368 4.476902 101.000000 30 354.739210
-0.373099 -0.315018 4.503911 101.000000 29 354.739212
-1.237417 -1.121488 6.462664 8.000000 26 354.739215
-1.115984 -1.033806 4.191055 11.000000 24 354.739217
-1.071257 -0.993062 3.082824 19.000000 22 354.739220
-0.833102 -0.772560 1.928622 15.000000 20 354.739223
-0.894792 -0.829762 1.690069 32.000000 18 354.739225
-0.706834 -0.655463 1.123316 38.000000 16 354.739228
-0.782920 -0.729840 1.131616 40.000000 15 354.739185
-0.873570 -0.814339 1.045017 35.000000 13 354.739188
-0.812257 -0.756919 0.812534 7.000000 11 354.739190
-0.960579 -0.894818 0.618719 32.000000 7 354.739196
-0.962208 -0.896022 0.476162 38.000000 5 354.739198
-0.949055 -0.883774 0.337684 26.000000 3 354.739201
-0.783550 -0.729398 0.188866 4.000000 1 354.739203
-0.765803 -0.711639 1.011928 44.000000 14 354.739211
-0.748061 -0.695149 0.827117 5.000000 12 354.739214
-0.879426 -0.816934 0.790687 7.000000 10 354.739216
-0.805513 -0.748271 0.595704 7.000000 8 354.739219
-0.969357 -0.900155 0.549294 46.000000 6 354.739221
-0.958378 -0.889649 0.406106 35.000000 4 354.739224
-0.044732 -0.027614 4.474103 101.000000 31 354.739240
-0.529743 -0.465910 4.485271 101.000000 28 354.739242
-0.701420 -0.615449 4.509765 88.000000 27 354.739245
-1.677573 -1.531440 7.304344 2.000000 25 354.739247
-1.084593 -1.001212 3.536958 11.000000 23 354.739250
-1.051036 -0.970569 2.687969 31.000000 21 354.739252
-0.802628 -0.741180 1.677189 8.000000 19 354.739255
-0.679723 -0.627684 1.183962 38.000000 17 354.739257
-0.210283 -0.167635 4.476902 101.000000 30 354.739265
-0.374197 -0.313714 4.503911 101.000000 29 354.739268
-1.246000 -1.121368 6.486860 8.000000 26 354.739270
-1.123396 -1.033409 4.205133 11.000000 24 354.739273
-1.077921 -0.992266 3.091825 19.000000 22 354.739275
-0.824283 -0.759047 1.903026 30.000000 20 354.739278
-0.897683 -0.826633 1.690069 32.000000 18 354.739281
-0.711611 -0.655288 1.126991 38.000000 16 354.739283
-0.788080 -0.729525 1.135120 40.000000 15 354.739241
-0.887834 -0.821863 1.057568 34.000000 13 354.739243
-0.814894 -0.754079 0.812534 8.000000 11 354.739246
-0.967100 -0.894607 0.620592 38.000000 7 354.739251
-0.968852 -0.895915 0.477571 38.000000 5 354.739254
-0.952134 -0.880456 0.337684 26.000000 3 354.739256
-0.928712 -0.858496 0.206269 12.000000 1 354.739259
-0.768283 -0.708961 1.011928 45.000000 14 354.739267
-0.750484 -0.692533 0.827117 7.000000 12 354.739269
-0.882273 -0.813860 0.790687 7.000000 10 354.739272
-0.811456 -0.748532 0.597803 7.000000 8 354.739274
-0.975965 -0.899967 0.550936 46.000000 6 354.739277
-0.965052 -0.889593 0.407279 35.000000 4 354.739279
-0.975902 -0.899279 0.277071 17.000000 2 354.739282
-0.044829 -0.027457 4.474103 101.000000 31 354.739295
-0.531366 -0.464058 4.485271 101.000000 28 354.739298
-0.702796 -0.612328 4.504870 77.000000 27 354.739300
-1.680695 -1.523569 7.294800 2.000000 25 354.739303
-1.092401 -1.001380 3.550766 12.000000 23 354.739305
-1.056184 -0.968513 2.692357 27.000000 21 354.739308
-0.805210 -0.738374 1.677189 6.000000 19 354.739310
-0.677184 -0.620974 1.176288 38.000000 17 354.739313
-0.210867 -0.166900 4.476902 101.000000 30 354.739321
-0.375700 -0.312747 4.508883 101.000000 29 354.739323
-1.256472 -1.122878 6.520734 8.000000 26 354.739326
-1.130819 -1.032973 4.219212 12.000000 24 354.739328
-1.084593 -0.991436 3.100827 19.000000 22 354.739331
-0.828852 -0.757925 1.907292 32.000000 20 354.739334
-0.900563 -0.823495 1.690069 32.000000 18 354.739336
-0.713894 -0.652800 1.126991 38.000000 16 354.739339
-0.790621 -0.726770 1.135120 40.000000 15 354.739296
-0.905027 -0.831931 1.073256 34.000000 13 354.739299
-0.820600 -0.754059 0.815276 7.000000 11 354.739301
-0.917711 -0.843291 0.738681 19.000000 9 354.739304
-0.973631 -0.894362 0.622465 40.000000 7 354.739307
-0.971974 -0.892528 0.477571 38.000000 5 354.739309
-0.958820 -0.880449 0.338616 26.000000 3 354.739312
-0.953716 -0.875455 0.208946 11.000000 1 354.739314
-0.773506 -0.708798 1.015253 47.000000 14 354.739322
-0.752896 -0.689909 0.827117 8.000000 12 354.739325
-0.885108 -0.810775 0.790687 6.000000 10 354.739327
-0.807371 -0.739563 0.593606 5.000000 8 354.739330
-0.979100 -0.896555 0.550936 46.000000 6 354.739332
-0.971737 -0.889500 0.408451 35.000000 4 354.739335
-0.975381 -0.892524 0.276381 15.000000 2 354.739337
-0.044924 -0.027301 4.474103 101.000000 31 354.739351
-0.532982 -0.462201 4.485271 101.000000 28 354.739353
-0.706470 -0.611203 4.514660 42.000000 27 354.739356
-1.170921 -1.054074 5.080721 8.000000 25 354.739358
-1.098780 -1.000191 3.559971 12.000000 23 354.739361
-1.061329 -0.966434 2.696746 27.000000 21 354.739363
-0.807783 -0.735559 1.677189 6.000000 19 354.739366
-0.674607 -0.614289 1.168615 38.000000 17 354.739369
-0.211449 -0.166163 4.476902 101.000000 30 354.739376
-0.376790 -0.311433 4.508883 101.000000 29 354.739379
-1.263206 -1.120990 6.535252 8.000000 26 354.739381
-1.138252 -1.032498 4.233290 13.000000 24 354.739384
-1.089660 -0.989108 3.105328 19.000000 22 354.739387
-0.827631 -0.751521 1.898760 34.000000 20 354.739389
-0.903432 -0.820346 1.690069 36.000000 18 354.739392
-0.713659 -0.648025 1.123316 36.000000 16 354.739394
-0.795787 -0.726410 1.138625 40.000000 15 354.739352
-0.945303 -0.862885 1.114048 36.000000 13 354.739354
-0.823228 -0.751190 0.815276 6.000000 11 354.739357
-0.920649 -0.840083 0.738681 19.000000 9 354.739360
-0.980172 -0.894082 0.624338 46.000000 7 354.739362
-0.978628 -0.892362 0.478980 37.000000 5 354.739365
-0.965518 -0.880407 0.339549 26.000000 3 354.739367
-0.971488 -0.885540 0.210731 8.000000 1 354.739370
-0.775975 -0.706094 1.015253 49.000000 14 354.739378
-0.758290 -0.689997 0.830060 7.000000 12 354.739380
-0.891122 -0.810581 0.793220 6.000000 10 354.739383
-0.816662 -0.742848 0.597803 5.000000 8 354.739385
-0.985718 -0.896309 0.552579 46.000000 6 354.739388
-0.978432 -0.889372 0.409623 35.000000 4 354.739390
-0.978491 -0.889114 0.276381 15.000000 2 354.739393
-0.045019 -0.027144 4.474103 101.000000 31 354.739406
-0.534592 -0.460337 4.485271 101.000000 28 354.739409
-0.717870 -0.616691 4.573403 26.000000 27 354.739411
-1.680155 -1.501845 7.247083 2.000000 25 354.739414
-1.103714 -0.997659 3.564573 12.000000 23 354.739416
-1.068250 -0.965937 2.705523 27.000000 21 354.739419
-0.810345 -0.732735 1.677189 6.000000 19 354.739421
-0.674369 -0.609781 1.164778 39.000000 17 354.739424
-0.212027 -0.165423 4.476902 101.000000 30 354.739432
-0.377875 -0.310116 4.508883 101.000000 29 354.739434
-1.271831 -1.120731 6.559448 8.000000 26 354.739437
-1.145696 -1.031983 4.247368 15.000000 24 354.739439
-1.096341 -0.988214 3.114330 19.000000 22 354.739442
-0.830249 -0.748627 1.898760 20.000000 20 354.739445
-0.906290 -0.817188 1.690069 35.000000 18 354.739447
-0.715917 -0.645530 1.123316 35.000000 16 354.739450
-0.800961 -0.726022 1.142129 40.000000 15 354.739407
-0.982921 -0.890953 1.151701 38.000000 13 354.739410
-0.828943 -0.751120 0.818017 6.000000 11 354.739413
-0.923576 -0.836864 0.738681 18.000000 9 354.739415
-0.986723 -0.893768 0.626211 48.000000 7 354.739418
-0.981737 -0.888940 0.478980 37.000000 5 354.739420
-0.972226 -0.880328 0.340482 26.000000 3 354.739423
-0.778435 -0.703381 1.015253 49.000000 14 354.739433
-0.760693 -0.687346 0.830060 6.000000 12 354.739436
-0.893946 -0.807466 0.793220 6.000000 10 354.739438
-0.822618 -0.743035 0.599901 17.000000 8 354.739441
-0.988841 -0.892863 0.552579 46.000000 6 354.739443
-0.985139 -0.889208 0.410796 35.000000 4 354.739446
-0.977912 -0.882375 0.275692 15.000000 2 354.739448
-0.045114 -0.026986 4.474103 101.000000 31 354.739462
-0.536196 -0.458468 4.485271 100.000000 28 354.739464
-0.726993 -0.620126 4.617460 14.000000 27 354.739467
-1.182720 -1.049839 5.099808 8.000000 25 354.739469
-1.110097 -0.996411 3.573778 12.000000 23 354.739472
-1.073398 -0.963803 2.709912 27.000000 21 354.739474
-0.812898 -0.729901 1.677189 6.000000 19 354.739477
-0.674108 -0.605281 1.160941 39.000000 17 354.739480
-0.212603 -0.164682 4.476902 101.000000 30 354.739487
-0.378540 -0.308459 4.503911 101.000000 29 354.739490
-1.280469 -1.120425 6.583644 8.000000 26 354.739492
-1.153150 -1.031429 4.261447 20.000000 24 354.739495
-1.103029 -0.987286 3.123331 19.000000 22 354.739498
-0.832857 -0.745725 1.898760 5.000000 20 354.739500
-0.906892 -0.812009 1.686080 35.000000 18 354.739503
-0.715640 -0.640766 1.119641 35.000000 16 354.739505
-0.803490 -0.723222 1.142129 40.000000 15 354.739463
-1.003385 -0.903142 1.170528 39.000000 13 354.739465
-0.831560 -0.748222 0.818017 6.000000 11 354.739468
-0.949545 -0.854378 0.754908 15.000000 9 354.739471
-0.989836 -0.890318 0.626211 46.000000 7 354.739473
-0.984834 -0.885508 0.478980 38.000000 5 354.739476
-0.975293 -0.876929 0.340482 26.000000 3 354.739478
-0.780886 -0.700659 1.015253 47.000000 14 354.739489
-0.766097 -0.687386 0.833003 6.000000 12 354.739491
-0.899969 -0.807219 0.795752 7.000000 10 354.739494
-0.828586 -0.743190 0.601999 17.000000 8 354.739496
-0.995467 -0.892558 0.554222 48.000000 6 354.739499
-0.988237 -0.885764 0.410796 36.000000 4 354.739501
-0.984674 -0.882261 0.276381 15.000000 2 354.739504
-0.045208 -0.026829 4.474103 101.000000 31 354.739517
-0.537793 -0.456594 4.485271 100.000000 28 354.739520
-0.737703 -0.624819 4.671308 12.000000 27 354.739522
-1.188618 -1.047680 5.109351 8.000000 25 354.739525
-1.115027 -0.993829 3.578381 12.000000 23 354.739527
-1.080333 -0.963238 2.718689 28.000000 21 354.739530
-0.815441 -0.727059 1.677189 6.000000 19 354.739533
-0.673824 -0.600791 1.157104 38.000000 17 354.739535
-0.212947 -0.163764 4.471910 101.000000 30 354.739543
-0.379615 -0.307135 4.503911 101.000000 29 354.739545
-1.288170 -1.119249 6.603001 9.000000 26 354.739548
-1.156744 -1.027397 4.261447 28.000000 24 354.739551
-1.109724 -0.986323 3.132333 19.000000 22 354.739553
-0.835456 -0.742813 1.898760 5.000000 20 354.739556
-0.909721 -0.808838 1.686080 36.000000 18 354.739558
-0.715339 -0.636011 1.115966 34.000000 16 354.739561
-0.808669 -0.722790 1.145634 40.000000 15 354.739518
-1.012337 -0.904823 1.176803 42.000000 13 354.739521
-0.837285 -0.748100 0.820758 6.000000 11 354.739524
-0.936003 -0.836299 0.743317 10.000000 9 354.739526
-0.996396 -0.889946 0.628084 44.000000 7 354.739529
-0.987919 -0.882065 0.478980 38.000000 5 354.739531
-0.982013 -0.876791 0.341414 26.000000 3 354.739534
-0.991854 -0.885267 0.212069 18.000000 1 354.739536
-0.783327 -0.697929 1.015253 45.000000 14 354.739544
-0.771509 -0.687397 0.835946 7.000000 12 354.739547
-0.902781 -0.804073 0.795752 8.000000 10 354.739549
-0.831175 -0.740293 0.601999 16.000000 8 354.739552
-1.002104 -0.892218 0.555864 48.000000 6 354.739554
-0.994954 -0.885541 0.411968 36.000000 4 354.739557
-0.991448 -0.882110 0.277071 15.000000 2 354.739559
-0.045301 -0.026671 4.474103 101.000000 31 354.739573
-0.539978 -0.455214 4.490210 101.000000 28 354.739575
-0.745336 -0.626826 4.705575 11.000000 27 354.739578
-1.121415 -0.992521 3.587586 11.000000 23 354.739583
-1.085482 -0.961050 2.723078 28.000000 21 354.739585
-0.817974 -0.724209 1.677189 7.000000 19 354.739588
-0.675917 -0.598435 1.157104 35.000000 17 354.739591
-0.213517 -0.163019 4.471910 101.000000 30 354.739598
-0.380684 -0.305808 4.503911 101.000000 29 354.739601
-1.296831 -1.118853 6.627197 9.000000 26 354.739603
-1.161617 -1.024495 4.266139 35.000000 24 354.739606
-1.116426 -0.985325 3.141335 18.000000 22 354.739609
-0.838043 -0.739892 1.898760 5.000000 20 354.739611
-0.912539 -0.805658 1.686080 35.000000 18 354.739614
-0.715013 -0.631267 1.112291 34.000000 16 354.739616
-0.811187 -0.719962 1.145634 42.000000 15 354.739574
-1.018401 -0.903867 1.179941 44.000000 13 354.739577
-0.839891 -0.745173 0.820758 7.000000 11 354.739579
-0.935603 -0.830087 0.740999 10.000000 9 354.739582
-0.999496 -0.886462 0.628084 44.000000 7 354.739584
-0.994582 -0.881794 0.480390 38.000000 5 354.739587
-0.985067 -0.873358 0.341414 26.000000 3 354.739589
-0.983757 -0.871890 0.210731 6.000000 1 354.739592
-0.788555 -0.697665 1.018578 44.000000 14 354.739600
-0.773904 -0.684699 0.835946 11.000000 12 354.739602
-0.908812 -0.803773 0.798285 8.000000 10 354.739605
-0.837153 -0.740394 0.604097 16.000000 8 354.739607
-1.005212 -0.888715 0.555864 44.000000 6 354.739610
-1.001681 -0.885281 0.413140 36.000000 4 354.739612
-0.998232 -0.881923 0.277761 15.000000 2 354.739615
-0.045394 -0.026512 4.474103 99.000000 31 354.739628
-0.541564 -0.453327 4.490210 101.000000 28 354.739631
-0.749083 -0.625525 4.715364 9.000000 27 354.739633
-1.201540 -1.044254 5.133210 9.000000 25 354.739636
-1.126341 -0.989890 3.592188 11.000000 23 354.739638
-1.092429 -0.960418 2.731855 28.000000 21 354.739641
-0.818383 -0.719491 1.673056 17.000000 19 354.739644
-0.675594 -0.593955 1.153267 35.000000 17 354.739646
-0.214085 -0.162273 4.471910 101.000000 30 354.739654
-0.381750 -0.304478 4.503911 101.000000 29 354.739656
-1.305505 -1.118410 6.651393 9.000000 26 354.739659
-1.165186 -1.020434 4.266139 40.000000 24 354.739662
-1.123134 -0.984293 3.150336 19.000000 22 354.739664
-0.842582 -0.738682 1.903026 6.000000 20 354.739667
-0.913079 -0.800480 1.682090 31.000000 18 354.739669
-0.714663 -0.626532 1.108615 34.000000 16 354.739672
-0.816370 -0.719484 1.149138 42.000000 15 354.739629
-1.027391 -0.905455 1.186217 42.000000 13 354.739632
-0.842487 -0.742237 0.820758 8.000000 11 354.739635
-0.928522 -0.818030 0.734045 14.000000 9 354.739637
-1.006063 -0.886032 0.629957 44.000000 7 354.739640
-0.997654 -0.878316 0.480390 38.000000 5 354.739642
-0.988110 -0.869914 0.341414 27.000000 3 354.739645
-0.990533 -0.871741 0.211177 6.000000 1 354.739647
-0.790986 -0.694908 1.018578 42.000000 14 354.739655
-0.779326 -0.684661 0.838890 12.000000 12 354.739658
-0.911612 -0.800596 0.798285 7.000000 10 354.739660
-0.832912 -0.731477 0.599901 18.000000 8 354.739663
-1.011857 -0.888316 0.557507 44.000000 6 354.739665
-1.004765 -0.881779 0.413140 37.000000 4 354.739668
-1.005027 -0.881699 0.278451 16.000000 2 354.739671
-0.045525 -0.026373 4.479103 99.000000 31 354.739684
-0.543143 -0.451434 4.490210 101.000000 28 354.739686
-0.755183 -0.626154 4.739841 6.000000 27 354.739689
-1.207439 -1.042005 5.142753 9.000000 25 354.739691
-1.132733 -0.988521 3.601393 11.000000 23 354.739694
-1.097579 -0.958175 2.736244 27.000000 21 354.739697
-0.820890 -0.716630 1.673056 17.000000 19 354.739699
-0.677663 -0.591593 1.153267 36.000000 17 354.739702
-0.214650 -0.161525 4.471910 101.000000 30 354.739709
-0.382810 -0.303143 4.503911 101.000000 29 354.739712
-1.314192 -1.117921 6.675589 9.000000 26 354.739715
-1.168741 -1.016360 4.266139 55.000000 24 354.739717
-1.129849 -0.983225 3.159338 18.000000 22 354.739720
-0.847122 -0.737448 1.907292 5.000000 20 354.739722
-0.915868 -0.797288 1.682090 31.000000 18 354.739725
-0.716845 -0.624034 1.108615 35.000000 16 354.739727
-0.818877 -0.716630 1.149138 40.000000 15 354.739685
-1.033474 -0.904427 1.189354 40.000000 13 354.739688
-0.845073 -0.739291 0.820758 9.000000 11 354.739690
-0.914700 -0.800199 0.722455 10.000000 9 354.739693
-1.012640 -0.885566 0.631830 44.000000 7 354.739695
-1.004325 -0.877986 0.481799 39.000000 5 354.739698
-0.991140 -0.866460 0.341414 27.000000 3 354.739700
-0.989820 -0.865001 0.210731 6.000000 1 354.739703
-0.793407 -0.692143 1.018578 40.000000 14 354.739711
-0.784757 -0.684594 0.841833 9.000000 12 354.739713
-0.914401 -0.797409 0.798285 7.000000 10 354.739716
-0.855984 -0.746463 0.612489 15.000000 8 354.739718
-1.014952 -0.884779 0.557507 44.000000 6 354.739721
-1.011501 -0.881460 0.414313 37.000000 4 354.739723
-1.011833 -0.881438 0.279141 16.000000 2 354.739726
-0.045617 -0.026214 4.479103 101.000000 31 354.739739
-0.544715 -0.449535 4.490210 98.000000 28 354.739742
-1.213338 -1.039728 5.152297 8.000000 25 354.739747
-1.139130 -0.987120 3.610599 11.000000 23 354.739749
-1.104538 -0.957476 2.745021 27.000000 21 354.739752
-0.821260 -0.711917 1.668923 21.000000 19 354.739754
-0.677301 -0.587124 1.149430 37.000000 17 354.739757
-0.215445 -0.160947 4.476902 101.000000 30 354.739765
-0.383866 -0.301805 4.503911 101.000000 29 354.739767
-1.321930 -1.116573 6.694946 9.000000 26 354.739770
-1.172282 -1.012274 4.266139 63.000000 24 354.739772
-1.136570 -0.982123 3.168340 18.000000 22 354.739775
-0.851665 -0.736192 1.911558 5.000000 20 354.739777
-0.916365 -0.792116 1.678101 32.000000 18 354.739780
-0.719019 -0.621528 1.108615 36.000000 16 354.739783
-0.821373 -0.713768 1.149138 42.000000 15 354.739740
