# .PCD v.7 - Point Cloud Data file format
VERSION .7
FIELDS x y z intensity ring timestamp
SIZE 4 4 4 4 2 8
TYPE F F F F U D
COUNT 1 1 1 1 1 1
WIDTH 925
HEIGHT 1
VIEWPOINT 0 0 0 1 0 0 0
POINTS 925
DATA ascii
1.160533 -1.766734 1.470486 35.000000 11 354.215562
1.143967 -1.741518 1.176788 38.000000 9 354.215565
1.122600 -1.709640 0.914658 40.000000 7 354.215568
1.105809 -1.684710 0.681905 42.000000 5 354.215570
1.091678 -1.663181 0.469183 45.000000 3 354.215573
1.073555 -1.636194 0.268292 37.000000 1 354.215575
1.190597 -1.818024 2.016032 30.000000 14 354.215583
1.166223 -1.780809 1.633543 36.000000 12 354.215586
1.143861 -1.747328 1.312367 38.000000 10 354.215588
1.134133 -1.732472 1.044688 40.000000 8 354.215591
1.112223 -1.699650 0.795696 44.000000 6 354.215593
1.093668 -1.671932 0.572576 50.000000 4 354.215596
1.086719 -1.661941 0.368817 45.000000 2 354.215598
1.068621 -1.634887 0.172464 37.000000 0 354.215601
0.018037 -0.043544 3.849127 97.000000 31 354.215612
0.295247 -0.478797 3.576447 19.000000 28 354.215614
0.372569 -0.605779 3.442605 48.000000 27 354.215617
0.607716 -0.946056 3.639660 8.000000 25 354.215619
1.298699 -1.997492 5.672530 10.000000 23 354.215622
1.337782 -2.056830 4.561927 7.000000 21 354.215624
1.267682 -1.949055 3.487421 10.000000 19 354.215627
1.231598 -1.893580 2.780132 15.000000 17 354.215630
0.111327 -0.201403 3.808027 98.000000 30 354.215637
0.192117 -0.328380 3.499686 30.000000 29 354.215640
0.477297 -0.754367 3.472035 14.000000 26 354.215642
0.775601 -1.197021 3.932953 95.000000 24 354.215645
1.397423 -2.155926 5.373748 6.000000 22 354.215648
1.287878 -1.986169 3.942142 8.000000 20 354.215650
1.242755 -1.916584 3.098362 15.000000 18 354.215653
1.205377 -1.858234 2.479452 21.000000 16 354.215655
1.198317 -1.837499 2.235548 25.000000 15 354.215613
1.171228 -1.795966 1.810634 32.000000 13 354.215615
1.147509 -1.760265 1.462262 35.000000 11 354.215618
1.133042 -1.738078 1.172152 39.000000 9 354.215621
1.111861 -1.705586 0.910912 42.000000 7 354.215623
1.094978 -1.680329 0.679086 43.000000 5 354.215626
1.077822 -1.654634 0.466385 45.000000 3 354.215628
1.062403 -1.631584 0.267399 37.000000 1 354.215631
1.178139 -1.812776 2.006058 30.000000 14 354.215639
1.153392 -1.774702 1.624713 36.000000 12 354.215641
1.131012 -1.740267 1.304770 38.000000 10 354.215644
1.123435 -1.728612 1.040492 42.000000 8 354.215646
1.101435 -1.695408 0.792411 44.000000 6 354.215649
1.082823 -1.667396 0.570231 52.000000 4 354.215651
1.075809 -1.657228 0.367437 46.000000 2 354.215654
1.057755 -1.630040 0.172061 36.000000 0 354.215656
0.017906 -0.043645 3.854127 97.000000 31 354.215667
0.295279 -0.482426 3.596204 27.000000 28 354.215670
0.371088 -0.607881 3.447501 50.000000 27 354.215672
0.605378 -0.949325 3.644432 8.000000 25 354.215675
1.295246 -2.006712 5.686337 11.000000 23 354.215677
1.321857 -2.047166 4.531207 7.000000 21 354.215680
1.253579 -1.941427 3.466756 10.000000 19 354.215682
1.220095 -1.889574 2.768620 16.000000 17 354.215685
0.110624 -0.201790 3.808027 98.000000 30 354.215693
0.189901 -0.327200 3.479801 34.000000 29 354.215695
0.476667 -0.759224 3.486553 14.000000 26 354.215698
0.771418 -1.199721 3.932953 94.000000 24 354.215700
1.390266 -2.160548 5.373748 7.000000 22 354.215703
1.272814 -1.977271 3.916547 9.000000 20 354.215706
1.228235 -1.908023 3.078415 15.000000 18 354.215708
1.191544 -1.851027 2.464751 21.000000 16 354.215711
1.184464 -1.829488 2.221529 25.000000 15 354.215668
1.158919 -1.790036 1.801221 32.000000 13 354.215671
1.137121 -1.757040 1.456779 36.000000 11 354.215674
1.122458 -1.734388 1.167516 38.000000 9 354.215676
1.100864 -1.701672 0.907166 40.000000 7 354.215679
1.083896 -1.676085 0.676268 42.000000 5 354.215681
1.066994 -1.649949 0.464520 44.000000 3 354.215684
1.054283 -1.630916 0.266953 37.000000 1 354.215686
1.166047 -1.807259 1.996083 31.000000 14 354.215694
1.140926 -1.768328 1.615884 36.000000 12 354.215697
1.120257 -1.736958 1.299705 38.000000 10 354.215699
1.112475 -1.724895 1.036296 42.000000 8 354.215702
1.090392 -1.691305 0.789126 44.000000 6 354.215704
1.074363 -1.667080 0.569059 52.000000 4 354.215707
1.064653 -1.652647 0.366057 45.000000 2 354.215709
1.046649 -1.625322 0.171658 37.000000 0 354.215712
0.017753 -0.043707 3.854127 97.000000 31 354.215723
0.292384 -0.481460 3.581386 27.000000 28 354.215725
0.369491 -0.610044 3.452396 51.000000 27 354.215728
0.592478 -0.936287 3.587171 7.000000 25 354.215730
1.291395 -2.016157 5.700145 10.000000 23 354.215733
1.305655 -2.037647 4.500486 9.000000 21 354.215735
1.240722 -1.936314 3.450224 11.000000 19 354.215738
1.206573 -1.883024 2.753273 16.000000 17 354.215741
0.109918 -0.202175 3.808027 98.000000 30 354.215748
0.188227 -0.326934 3.469858 39.000000 29 354.215751
0.476008 -0.764087 3.501070 14.000000 26 354.215753
0.766297 -1.200952 3.928260 94.000000 24 354.215756
1.381543 -2.163552 5.369247 8.000000 22 354.215759
1.258885 -1.970712 3.895217 10.000000 20 354.215761
1.215078 -1.902139 3.062457 15.000000 18 354.215764
1.179600 -1.846605 2.453726 21.000000 16 354.215766
1.172288 -1.824610 2.211016 26.000000 15 354.215724
1.148455 -1.787521 1.794945 33.000000 13 354.215726
1.124203 -1.750444 1.448554 36.000000 11 354.215729
1.111609 -1.730840 1.162880 39.000000 9 354.215732
1.089908 -1.697702 0.903420 40.000000 7 354.215734
1.072857 -1.671783 0.673449 40.000000 5 354.215737
1.055922 -1.645395 0.462655 45.000000 3 354.215739
1.043205 -1.626203 0.266061 37.000000 1 354.215742
1.153691 -1.801883 1.986109 31.000000 14 354.215750
1.128208 -1.762087 1.607054 36.000000 12 354.215752
1.107215 -1.729964 1.292108 38.000000 10 354.215755
1.101554 -1.721123 1.032099 43.000000 8 354.215757
1.076847 -1.683166 0.784198 48.000000 6 354.215760
1.063300 -1.662630 0.566714 53.000000 4 354.215762
1.053543 -1.648009 0.364678 48.000000 2 354.215765
1.035589 -1.620546 0.171255 37.000000 0 354.215768
0.017601 -0.043769 3.854127 97.000000 31 354.215778
0.290702 -0.482478 3.581386 31.000000 28 354.215781
0.367883 -0.612203 3.457291 65.000000 27 354.215783
0.586030 -0.933290 3.568084 6.000000 25 354.215786
1.286445 -2.023950 5.709350 9.000000 23 354.215788
1.288251 -2.026019 4.465377 12.000000 21 354.215791
1.227916 -1.931135 3.433693 11.000000 19 354.215794
1.194832 -1.879108 2.741762 16.000000 17 354.215796
0.109348 -0.202813 3.813018 98.000000 30 354.215804
0.186820 -0.327125 3.464886 51.000000 29 354.215806
0.475322 -0.768954 3.515588 13.000000 26 354.215809
0.762101 -1.203619 3.928260 95.000000 24 354.215812
1.371652 -2.164683 5.360246 9.000000 22 354.215814
1.246413 -1.966283 3.878154 10.000000 20 354.215817
1.203590 -1.898732 3.050488 16.000000 18 354.215819
1.165887 -1.839257 2.439025 22.000000 16 354.215822
1.160160 -1.819670 2.200502 26.000000 15 354.215779
1.135930 -1.781671 1.785532 33.000000 13 354.215782
1.113591 -1.747305 1.443071 36.000000 11 354.215785
1.098418 -1.723502 1.155926 39.000000 9 354.215787
1.078994 -1.693676 0.899674 40.000000 7 354.215790
1.061861 -1.667425 0.670631 42.000000 5 354.215792
1.044895 -1.640784 0.460790 45.000000 3 354.215795
1.032174 -1.621432 0.265168 37.000000 1 354.215797
1.141387 -1.796443 1.976134 31.000000 14 354.215805
1.115548 -1.755780 1.598225 37.000000 12 354.215808
1.096547 -1.726540 1.287043 38.000000 10 354.215810
1.090673 -1.717295 1.027903 42.000000 8 354.215813
1.065903 -1.678941 0.780912 48.000000 6 354.215815
1.052280 -1.658124 0.564369 52.000000 4 354.215818
1.042479 -1.643313 0.363298 46.000000 2 354.215820
1.027250 -1.619932 0.171053 37.000000 0 354.215823
0.017448 -0.043830 3.854127 97.000000 31 354.215834
0.288618 -0.482822 3.576447 32.000000 28 354.215836
0.366265 -0.614358 3.462186 79.000000 27 354.215839
0.577241 -0.926456 3.534683 6.000000 25 354.215841
1.281457 -2.031733 5.718554 8.000000 23 354.215844
1.272222 -2.016320 4.434656 13.000000 21 354.215846
1.213659 -1.923509 3.413028 11.000000 19 354.215849
1.183133 -1.875133 2.730251 17.000000 17 354.215852
0.108640 -0.203194 3.813018 97.000000 30 354.215859
0.185677 -0.327775 3.464886 65.000000 29 354.215862
0.474607 -0.773825 3.530106 13.000000 26 354.215864
0.757895 -1.206272 3.928260 95.000000 24 354.215867
1.362928 -2.167614 5.355745 12.000000 22 354.215870
1.232599 -1.959584 3.856824 10.000000 20 354.215872
1.190536 -1.892717 3.034530 16.000000 18 354.215875
1.152239 -1.831837 2.424324 22.000000 16 354.215877
1.148081 -1.814667 2.189989 25.000000 15 354.215835
1.125541 -1.779046 1.779256 33.000000 13 354.215838
1.100780 -1.740579 1.434847 36.000000 11 354.215840
1.087659 -1.719836 1.151290 39.000000 9 354.215843
1.068121 -1.689595 0.895928 40.000000 7 354.215845
1.048346 -1.658955 0.666403 42.000000 5 354.215848
1.033913 -1.636116 0.458924 44.000000 3 354.215850
1.023848 -1.620815 0.264722 37.000000 1 354.215853
1.129134 -1.790940 1.966160 31.000000 14 354.215861
1.105101 -1.752825 1.592339 37.000000 12 354.215863
1.083618 -1.719415 1.279446 38.000000 10 354.215866
1.077412 -1.709573 1.021609 43.000000 8 354.215868
1.055001 -1.674660 0.777627 48.000000 6 354.215871
1.041306 -1.653561 0.562025 40.000000 4 354.215873
1.034098 -1.642751 0.362608 46.000000 2 354.215876
1.016268 -1.615051 0.170650 36.000000 0 354.215879
0.017295 -0.043891 3.854127 97.000000 31 354.215889
0.284159 -0.479147 3.541872 36.000000 28 354.215892
0.364636 -0.616510 3.467082 91.000000 27 354.215894
0.569292 -0.920842 3.506052 6.000000 25 354.215897
1.276430 -2.039506 5.727760 6.000000 23 354.215899
1.257548 -2.008565 4.408324 12.000000 21 354.215902
1.200965 -1.918194 3.396496 11.000000 19 354.215905
1.169776 -1.868383 2.714903 17.000000 17 354.215907
0.107930 -0.203572 3.813018 97.000000 30 354.215915
0.184272 -0.327955 3.459915 73.000000 29 354.215917
0.473210 -0.777627 3.539784 13.000000 26 354.215920
0.753679 -1.208910 3.928260 95.000000 24 354.215923
1.353048 -2.168663 5.346744 12.000000 22 354.215925
1.218846 -1.952812 3.835494 10.000000 20 354.215928
1.179134 -1.889190 3.022562 16.000000 18 354.215930
1.140453 -1.827220 2.413299 22.000000 16 354.215933
1.136051 -1.809603 2.179475 26.000000 15 354.215890
1.113115 -1.773073 1.769843 33.000000 13 354.215893
1.090252 -1.737328 1.429364 36.000000 11 354.215896
1.076939 -1.716118 1.146654 39.000000 9 354.215898
1.057290 -1.685459 0.892182 42.000000 7 354.215901
1.037451 -1.654475 0.663585 42.000000 5 354.215903
1.025586 -1.635553 0.457992 44.000000 3 354.215906
1.012894 -1.615940 0.263830 37.000000 1 354.215908
1.116934 -1.785372 1.956185 32.000000 14 354.215916
1.092544 -1.746392 1.583509 36.000000 12 354.215919
1.073038 -1.715876 1.274381 38.000000 10 354.215921
1.066625 -1.705627 1.017413 42.000000 8 354.215924
1.046646 -1.674329 0.775984 48.000000 6 354.215926
1.030376 -1.648942 0.559680 40.000000 4 354.215929
1.023110 -1.637950 0.361229 43.000000 2 354.215932
1.005332 -1.610113 0.170247 36.000000 0 354.215934
0.017141 -0.043951 3.854127 97.000000 31 354.215945
0.286027 -0.486166 3.586325 36.000000 28 354.215947
0.362482 -0.617779 3.467082 99.000000 27 354.215950
0.560608 -0.913912 3.472650 7.000000 25 354.215952
1.270333 -2.045609 5.732363 6.000000 23 354.215955
1.242943 -2.000733 4.381992 12.000000 21 354.215958
1.186837 -1.910423 3.375831 11.000000 19 354.215960
1.158171 -1.864285 2.703393 17.000000 17 354.215963
0.107218 -0.203947 3.813018 97.000000 30 354.215970
0.183126 -0.328596 3.459915 82.000000 29 354.215973
0.471792 -0.781428 3.549462 12.000000 26 354.215976
0.749455 -1.211534 3.928260 95.000000 24 354.215978
1.343177 -2.169669 5.337742 12.000000 22 354.215981
1.205157 -1.945969 3.814165 9.000000 20 354.215983
1.166185 -1.883045 3.006604 16.000000 18 354.215986
1.126928 -1.819661 2.398598 23.000000 16 354.215988
1.124071 -1.804476 2.168962 26.000000 15 354.215946
1.100744 -1.767035 1.760430 33.000000 13 354.215949
1.079761 -1.734024 1.423881 36.000000 11 354.215951
1.063917 -1.708584 1.139700 39.000000 9 354.215954
1.046500 -1.681268 0.888436 42.000000 7 354.215956
1.026601 -1.649940 0.660767 42.000000 5 354.215959
1.014681 -1.630782 0.456127 44.000000 3 354.215961
1.001987 -1.611008 0.262937 37.000000 1 354.215964
1.106756 -1.782915 1.949535 32.000000 14 354.215972
1.082178 -1.743326 1.577623 37.000000 12 354.215974
1.062495 -1.712285 1.269316 39.000000 10 354.215977
1.055879 -1.701627 1.013217 43.000000 8 354.215979
1.035817 -1.669946 0.772699 50.000000 6 354.215982
1.019491 -1.644266 0.557335 48.000000 4 354.215984
1.012169 -1.633093 0.359849 43.000000 2 354.215987
0.994443 -1.605119 0.169844 36.000000 0 354.215990
0.016988 -0.044011 3.854127 97.000000 31 354.216000
0.290196 -0.497231 3.660414 29.000000 28 354.216003
0.360835 -0.619920 3.471977 103.000000 27 354.216005
0.553533 -0.909483 3.448791 8.000000 25 354.216008
1.264210 -2.051694 5.736965 7.000000 23 354.216010
1.227152 -1.990783 4.351272 10.000000 21 354.216013
1.174254 -1.904972 3.359299 12.000000 19 354.216015
1.146610 -1.860129 2.691882 17.000000 17 354.216018
0.106409 -0.204044 3.808027 97.000000 30 354.216026
0.181777 -0.328734 3.454944 87.000000 29 354.216028
0.476308 -0.794858 3.602694 11.000000 26 354.216031
0.746336 -1.215483 3.932953 95.000000 24 354.216033
1.334455 -2.172489 5.333241 13.000000 22 354.216036
1.191530 -1.939054 3.792835 10.000000 20 354.216038
1.154871 -1.879401 2.994635 16.000000 18 354.216041
1.115561 -1.814724 2.387573 23.000000 16 354.216044
1.112140 -1.799288 2.158448 26.000000 15 354.216001
1.088429 -1.760932 1.751016 33.000000 13 354.216004
1.069306 -1.730668 1.418398 36.000000 11 354.216006
1.053289 -1.704750 1.135064 39.000000 9 354.216009
1.036046 -1.676841 0.884690 42.000000 7 354.216012
1.016082 -1.645172 0.657948 43.000000 5 354.216014
1.006401 -1.630134 0.455194 42.000000 3 354.216017
0.991127 -1.606020 0.262045 37.000000 1 354.216019
1.094651 -1.777228 1.939561 32.000000 14 354.216027
1.069727 -1.736768 1.568793 37.000000 12 354.216030
1.052290 -1.708457 1.264251 39.000000 10 354.216032
1.043090 -1.693526 1.006923 43.000000 8 354.216035
1.025321 -1.665329 0.769414 50.000000 6 354.216037
1.008938 -1.639359 0.554991 55.000000 4 354.216040
1.001558 -1.628005 0.358469 42.000000 2 354.216042
0.983881 -1.599896 0.169441 37.000000 0 354.216045
0.016842 -0.044067 3.854127 97.000000 31 354.216056
0.292824 -0.505590 3.714746 24.000000 28 354.216058
0.359286 -0.621996 3.476872 108.000000 27 354.216061
0.550514 -0.911314 3.448791 8.000000 25 354.216063
1.257399 -2.055875 5.736965 7.000000 23 354.216066
1.214292 -1.984623 4.329328 10.000000 21 354.216068
1.160588 -1.896854 3.338635 12.000000 19 354.216071
1.135416 -1.855717 2.680371 17.000000 17 354.216073
0.105696 -0.204414 3.808027 98.000000 30 354.216081
0.180373 -0.328898 3.449972 96.000000 29 354.216084
0.479314 -0.806247 3.646246 12.000000 26 354.216086
0.742089 -1.218081 3.932953 95.000000 24 354.216089
1.315908 -2.158309 5.288233 12.000000 22 354.216091
1.178303 -1.931861 3.771505 11.000000 20 354.216094
1.143924 -1.875501 2.982667 16.000000 18 354.216097
1.102159 -1.807030 2.372872 23.000000 16 354.216099
1.098707 -1.790807 2.144429 27.000000 15 354.216057
1.078512 -1.757896 1.744741 34.000000 13 354.216059
1.059188 -1.727075 1.412915 36.000000 11 354.216062
1.040682 -1.696904 1.128110 38.000000 9 354.216064
1.025340 -1.672543 0.880944 43.000000 7 354.216067
1.007827 -1.644619 0.656539 42.000000 5 354.216070
0.995857 -1.625086 0.453329 44.000000 3 354.216072
0.980593 -1.600804 0.261152 36.000000 1 354.216075
1.084855 -1.774477 1.932911 32.000000 14 354.216082
1.059745 -1.733409 1.562907 37.000000 12 354.216085
1.041823 -1.704763 1.259186 39.000000 10 354.216088
1.032439 -1.689412 1.002727 42.000000 8 354.216090
1.014578 -1.660837 0.766128 48.000000 6 354.216093
0.998143 -1.634574 0.552646 57.000000 4 354.216095
0.990709 -1.623037 0.357090 42.000000 2 354.216098
0.973086 -1.594791 0.169038 37.000000 0 354.216100
0.016688 -0.044125 3.854127 98.000000 31 354.216111
0.291058 -0.506609 3.714746 23.000000 28 354.216114
0.357618 -0.624130 3.481767 111.000000 27 354.216116
0.545026 -0.909387 3.434476 8.000000 25 354.216119
1.251229 -2.061921 5.741567 7.000000 23 354.216121
1.201141 -1.978610 4.307384 11.000000 21 354.216124
1.148118 -1.891271 3.322103 12.000000 19 354.216126
1.122277 -1.848707 2.665023 17.000000 17 354.216129
0.104982 -0.204782 3.808027 98.000000 30 354.216137
0.179224 -0.329526 3.449972 98.000000 29 354.216139
0.482884 -0.818751 3.694639 12.000000 26 354.216142
0.737832 -1.220664 3.932953 96.000000 24 354.216144
1.301603 -2.151709 5.261228 12.000000 22 354.216147
1.163451 -1.922575 3.745909 12.000000 20 354.216150
1.131129 -1.869168 2.966709 17.000000 18 354.216152
1.090579 -1.802165 2.361846 23.000000 16 354.216155
1.088741 -1.788539 2.137420 27.000000 15 354.216112
1.066297 -1.751674 1.735328 34.000000 13 354.216115
1.048806 -1.723618 1.407432 36.000000 11 354.216117
1.030146 -1.692957 1.123474 39.000000 9 354.216120
1.014677 -1.668190 0.877198 43.000000 7 354.216123
0.997095 -1.639928 0.653721 42.000000 5 354.216125
0.985074 -1.620157 0.451464 44.000000 3 354.216128
0.969826 -1.595706 0.260260 36.000000 1 354.216130
1.072845 -1.768674 1.922937 32.000000 14 354.216138
1.049495 -1.730186 1.557021 37.000000 12 354.216141
1.031396 -1.701016 1.254121 39.000000 10 354.216143
1.021829 -1.685244 0.998531 43.000000 8 354.216146
1.003879 -1.656291 0.762843 50.000000 6 354.216148
0.987394 -1.629734 0.550301 55.000000 4 354.216151
0.979907 -1.618013 0.355710 42.000000 2 354.216153
0.964926 -1.593904 0.168836 37.000000 0 354.216156
0.016534 -0.044183 3.854127 98.000000 31 354.216167
0.286982 -0.503570 3.685111 23.000000 28 354.216169
0.355940 -0.626260 3.486662 114.000000 27 354.216172
0.542612 -0.912567 3.439248 8.000000 25 354.216174
1.244024 -2.066277 5.741567 6.000000 23 354.216177
1.188047 -1.972530 4.285442 12.000000 21 354.216179
1.135702 -1.885625 3.305571 12.000000 19 354.216182
1.110855 -1.844375 2.653512 18.000000 17 354.216184
0.104266 -0.205147 3.808027 97.000000 30 354.216192
0.177820 -0.329679 3.445001 100.000000 29 354.216195
0.487643 -0.833461 3.752709 11.000000 26 354.216197
0.733567 -1.223232 3.932953 95.000000 24 354.216200
1.287360 -2.145035 5.234223 12.000000 22 354.216202
1.151363 -1.917680 3.728846 11.000000 20 354.216205
1.119943 -1.865353 2.954740 18.000000 18 354.216208
1.079047 -1.797241 2.350821 24.000000 16 354.216210
1.076960 -1.783170 2.126907 28.000000 15 354.216168
1.056151 -1.748721 1.729052 34.000000 13 354.216170
1.036300 -1.716529 1.399208 37.000000 11 354.216173
1.019651 -1.688957 1.118838 39.000000 9 354.216176
1.004058 -1.663784 0.873452 43.000000 7 354.216178
0.986409 -1.635184 0.650902 45.000000 5 354.216181
0.976875 -1.619380 0.450531 46.000000 3 354.216183
0.959107 -1.590552 0.259368 36.000000 1 354.216186
1.062813 -1.766009 1.916287 33.000000 14 354.216194
1.037197 -1.723449 1.548191 37.000000 12 354.216196
1.021007 -1.697217 1.249056 39.000000 10 354.216199
1.011261 -1.681022 0.994335 43.000000 8 354.216201
0.995658 -1.655739 0.761200 52.000000 6 354.216204
0.976691 -1.624839 0.547957 55.000000 4 354.216206
0.971702 -1.617179 0.355020 42.000000 2 354.216209
0.954211 -1.588697 0.168433 37.000000 0 354.216211
0.016379 -0.044241 3.854127 97.000000 31 354.216222
0.282167 -0.499155 3.645597 18.000000 28 354.216225
0.354251 -0.628386 3.491558 117.000000 27 354.216227
0.539423 -0.914456 3.439248 9.000000 25 354.216230
1.236803 -2.070606 5.741567 6.000000 23 354.216232
1.175009 -1.966382 4.263498 11.000000 21 354.216235
1.123339 -1.879915 3.289039 12.000000 19 354.216237
1.097832 -1.837233 2.638164 18.000000 17 354.216240
0.103550 -0.205510 3.808027 98.000000 30 354.216248
0.176668 -0.330297 3.445001 102.000000 29 354.216250
0.487886 -0.840598 3.776905 11.000000 26 354.216253
0.729292 -1.225785 3.932953 95.000000 24 354.216255
1.273180 -2.138289 5.207218 12.000000 22 354.216258
1.137989 -1.910485 3.707516 11.000000 20 354.216261
1.108798 -1.861483 2.942772 18.000000 18 354.216263
1.067562 -1.792259 2.339795 24.000000 16 354.216266
1.065230 -1.777742 2.116393 28.000000 15 354.216223
1.044038 -1.742379 1.719639 34.000000 13 354.216226
1.026005 -1.712962 1.393725 37.000000 11 354.216228
1.009197 -1.684905 1.114202 39.000000 9 354.216231
0.993481 -1.659323 0.869706 43.000000 7 354.216234
0.978231 -1.634500 0.649493 45.000000 5 354.216236
0.966172 -1.614350 0.448666 48.000000 3 354.216239
0.950992 -1.589617 0.258921 35.000000 1 354.216241
1.050899 -1.760089 1.906312 33.000000 14 354.216249
1.027030 -1.720118 1.542305 37.000000 12 354.216252
1.010657 -1.693367 1.243992 39.000000 10 354.216254
1.000735 -1.676748 0.990138 45.000000 8 354.216257
0.985033 -1.651093 0.757915 50.000000 6 354.216259
0.966034 -1.619889 0.545612 57.000000 4 354.216262
0.960980 -1.612054 0.353641 42.000000 2 354.216264
0.943545 -1.583435 0.168030 37.000000 0 354.216267
0.016225 -0.044297 3.854127 97.000000 31 354.216278
0.277007 -0.494035 3.601143 15.000000 28 354.216280
0.352552 -0.630507 3.496453 125.000000 27 354.216283
0.536228 -0.916333 3.439248 9.000000 25 354.216285
1.227576 -2.071550 5.732363 6.000000 23 354.216288
1.162030 -1.960167 4.241555 11.000000 21 354.216290
1.111030 -1.874143 3.272508 13.000000 19 354.216293
1.084873 -1.830023 2.622817 18.000000 17 354.216296
0.102868 -0.205852 3.808027 97.000000 30 354.216303
0.175572 -0.330882 3.445001 105.000000 29 354.216306
0.485724 -0.843301 3.781744 12.000000 26 354.216308
0.725223 -1.228197 3.932953 95.000000 24 354.216311
1.261278 -2.135220 5.189214 12.000000 22 354.216314
1.127332 -1.907709 3.694718 11.000000 20 354.216316
1.097693 -1.857557 2.930803 18.000000 18 354.216319
1.056437 -1.787034 2.328770 24.000000 16 354.216321
1.053551 -1.772253 2.105880 28.000000 15 354.216279
1.033971 -1.739320 1.713363 34.000000 13 354.216281
1.013611 -1.705749 1.385501 36.000000 11 354.216284
0.998783 -1.680800 1.109566 39.000000 9 354.216287
0.983236 -1.654638 0.865960 45.000000 7 354.216289
0.967906 -1.629486 0.646675 45.000000 5 354.216292
0.955515 -1.609265 0.446800 46.000000 3 354.216294
0.940354 -1.584362 0.258029 34.000000 1 354.216297
1.039039 -1.754108 1.896338 33.000000 14 354.216305
1.014840 -1.713260 1.533475 37.000000 12 354.216307
1.000642 -1.689290 1.238927 39.000000 10 354.216310
0.990544 -1.672247 0.985942 45.000000 8 354.216312
0.974741 -1.646223 0.754629 50.000000 6 354.216315
0.955705 -1.614718 0.543268 57.000000 4 354.216317
0.953107 -1.610969 0.352951 43.000000 2 354.216320
0.933203 -1.577955 0.167627 36.000000 0 354.216322
0.016078 -0.044351 3.854127 91.000000 31 354.216333
0.274236 -0.492913 3.586325 14.000000 28 354.216336
0.350953 -0.632564 3.501348 128.000000 27 354.216338
0.533186 -0.918106 3.439248 10.000000 25 354.216341
1.225652 -2.084029 5.755375 5.000000 23 354.216343
1.150664 -1.955750 4.224000 11.000000 21 354.216346
1.099102 -1.868115 3.255976 13.000000 19 354.216348
1.072296 -1.822558 2.607469 18.000000 17 354.216351
0.102148 -0.206210 3.808027 97.000000 30 354.216359
0.174416 -0.331492 3.445001 106.000000 29 354.216361
0.486520 -0.851545 3.810780 11.000000 26 354.216364
0.720932 -1.230721 3.932953 95.000000 24 354.216366
1.242076 -2.118725 5.139705 12.000000 22 354.216369
1.115723 -1.902438 3.677655 11.000000 20 354.216372
1.085429 -1.850788 2.914845 19.000000 18 354.216374
1.045048 -1.781938 2.317744 24.000000 16 354.216377
1.044044 -1.769593 2.098870 28.000000 15 354.216334
1.022263 -1.732681 1.703950 34.000000 13 354.216337
1.003701 -1.701897 1.380018 36.000000 11 354.216340
0.988703 -1.676471 1.104930 39.000000 9 354.216342
0.972746 -1.650073 0.862213 45.000000 7 354.216345
0.957341 -1.624589 0.643856 45.000000 5 354.216347
0.947679 -1.608193 0.445868 46.000000 3 354.216350
0.932567 -1.583180 0.257583 34.000000 1 354.216352
1.029431 -1.751105 1.889688 33.000000 14 354.216360
1.005056 -1.709646 1.527589 37.000000 12 354.216363
0.990371 -1.685339 1.233862 39.000000 10 354.216365
0.982401 -1.671782 0.983844 43.000000 8 354.216368
0.964204 -1.641472 0.751344 50.000000 6 354.216370
0.947602 -1.613853 0.542095 57.000000 4 354.216373
0.942465 -1.605745 0.351571 42.000000 2 354.216375
0.922633 -1.572585 0.167224 36.000000 0 354.216378
0.015923 -0.044407 3.854127 91.000000 31 354.216389
0.271764 -0.492506 3.576447 12.000000 28 354.216391
0.348743 -0.633785 3.501348 138.000000 27 354.216394
0.529978 -0.919962 3.439248 9.000000 25 354.216396
1.137792 -1.949409 4.202057 10.000000 21 354.216401
1.086900 -1.862219 3.239444 13.000000 19 354.216404
1.061079 -1.817983 2.595958 19.000000 17 354.216407
0.101428 -0.206565 3.808027 97.000000 30 354.216414
0.173258 -0.332099 3.445001 107.000000 29 354.216417
0.481684 -0.849955 3.796262 11.000000 26 354.216419
0.716631 -1.233230 3.932953 95.000000 24 354.216422
1.220440 -2.098575 5.081194 12.000000 22 354.216425
1.103829 -1.897304 3.660591 11.000000 20 354.216427
1.074415 -1.846750 2.902877 19.000000 18 354.216430
1.033707 -1.776784 2.306719 24.000000 16 354.216432
1.032457 -1.763994 2.088357 28.000000 15 354.216390
1.012276 -1.729519 1.697674 35.000000 13 354.216392
0.993531 -1.698172 1.374535 36.000000 11 354.216395
0.978370 -1.672264 1.100294 39.000000 9 354.216398
0.962300 -1.645455 0.858467 45.000000 7 354.216400
0.949243 -1.623779 0.642447 45.000000 5 354.216403
0.937101 -1.603009 0.444003 48.000000 3 354.216405
0.922010 -1.577826 0.256690 35.000000 1 354.216408
1.017669 -1.745010 1.879714 34.000000 14 354.216416
0.992973 -1.702669 1.518760 37.000000 12 354.216418
0.980139 -1.681337 1.228797 39.000000 10 354.216421
0.971988 -1.667359 0.979648 47.000000 8 354.216423
0.953713 -1.636667 0.748059 52.000000 6 354.216426
0.937070 -1.608750 0.539751 55.000000 4 354.216428
0.934362 -1.604745 0.350881 43.000000 2 354.216431
0.914625 -1.571478 0.167023 37.000000 0 354.216434
0.015768 -0.044462 3.854127 97.000000 31 354.216444
0.269298 -0.492088 3.566568 11.000000 28 354.216447
0.347015 -0.635892 3.506243 141.000000 27 354.216449
0.527505 -0.923103 3.444020 9.000000 25 354.216452
0.678715 -1.172690 3.251601 11.000000 23 354.216454
1.124978 -1.943002 4.180113 10.000000 21 354.216457
1.074753 -1.856260 3.222912 13.000000 19 354.216460
1.048301 -1.810578 2.580610 20.000000 17 354.216462
0.100581 -0.206657 3.803035 97.000000 30 354.216470
0.172097 -0.332702 3.445001 106.000000 29 354.216472
0.479331 -0.852727 3.801101 11.000000 26 354.216475
0.712322 -1.235724 3.932953 94.000000 24 354.216478
1.201137 -2.082072 5.031685 12.000000 22 354.216480
1.091985 -1.892110 3.643527 12.000000 20 354.216483
1.061936 -1.840048 2.886919 19.000000 18 354.216485
1.022414 -1.771572 2.295693 25.000000 16 354.216488
1.020920 -1.758335 2.077843 28.000000 15 354.216445
1.002323 -1.726309 1.691399 35.000000 13 354.216448
0.981300 -1.690780 1.366310 37.000000 11 354.216451
0.968079 -1.668006 1.095657 39.000000 9 354.216453
0.954224 -1.644794 0.856594 45.000000 7 354.216456
0.938756 -1.618783 0.639629 46.000000 5 354.216458
0.926571 -1.597772 0.442137 46.000000 3 354.216461
0.913999 -1.576727 0.256244 35.000000 1 354.216463
1.007831 -1.742087 1.873064 34.000000 14 354.216471
0.982976 -1.699128 1.512873 37.000000 12 354.216474
0.969948 -1.677283 1.223732 40.000000 10 354.216476
0.961618 -1.662884 0.975452 47.000000 8 354.216479
0.943268 -1.631809 0.744773 48.000000 6 354.216481
0.929017 -1.607803 0.538578 54.000000 4 354.216484
0.923801 -1.599420 0.349502 43.000000 2 354.216486
0.904138 -1.566007 0.166620 37.000000 0 354.216489
0.015613 -0.044517 3.854127 97.000000 31 354.216500
0.267578 -0.493025 3.566568 11.000000 28 354.216502
0.344794 -0.637100 3.506243 146.000000 27 354.216505
0.524279 -0.924939 3.444020 9.000000 25 354.216507
0.672672 -1.171663 3.242397 15.000000 23 354.216510
1.113416 -1.938607 4.162559 11.000000 21 354.216512
1.062661 -1.850240 3.206380 13.000000 19 354.216515
1.035588 -1.803107 2.565263 20.000000 17 354.216518
0.099895 -0.206990 3.803035 98.000000 30 354.216525
0.170993 -0.333271 3.445001 106.000000 29 354.216528
0.476500 -0.854312 3.801101 10.000000 26 354.216530
0.708221 -1.238079 3.932953 94.000000 24 354.216533
1.175475 -2.054120 4.955171 11.000000 22 354.216536
1.078895 -1.884594 3.622197 12.000000 20 354.216538
1.049517 -1.833281 2.870961 20.000000 18 354.216541
1.011480 -1.766128 2.284668 26.000000 16 354.216543
1.009437 -1.752616 2.067329 29.000000 15 354.216501
0.990463 -1.719678 1.681985 34.000000 13 354.216504
0.971220 -1.686948 1.360827 37.000000 11 354.216506
0.957830 -1.663696 1.091021 39.000000 9 354.216509
0.944138 -1.639913 0.852848 47.000000 7 354.216511
0.928597 -1.613571 0.636810 46.000000 5 354.216514
0.916090 -1.592480 0.440272 46.000000 3 354.216516
0.903525 -1.571273 0.255352 35.000000 1 354.216519
0.996168 -1.735878 1.863089 33.000000 14 354.216527
0.973015 -1.695537 1.506987 37.000000 12 354.216529
0.960089 -1.673012 1.218667 40.000000 10 354.216532
0.953839 -1.662127 0.973354 49.000000 8 354.216534
0.933152 -1.626735 0.741488 50.000000 6 354.216537
0.918845 -1.602442 0.536234 54.000000 4 354.216539
0.913567 -1.593882 0.348122 42.000000 2 354.216542
0.896456 -1.564662 0.166418 37.000000 0 354.216545
0.015465 -0.044569 3.854127 97.000000 31 354.216555
0.265574 -0.493225 3.561629 13.000000 28 354.216558
0.342198 -0.637342 3.501348 145.000000 27 354.216560
0.521941 -0.927974 3.448791 10.000000 25 354.216563
0.668783 -1.173888 3.242397 15.000000 23 354.216565
1.101050 -1.931882 4.140616 11.000000 21 354.216568
1.052339 -1.846419 3.193982 13.000000 19 354.216571
1.024841 -1.798175 2.553752 20.000000 17 354.216573
0.099172 -0.207337 3.803035 98.000000 30 354.216581
0.169829 -0.333866 3.445001 107.000000 29 354.216583
0.474124 -0.857071 3.805940 9.000000 26 354.216586
0.703895 -1.240544 3.932953 92.000000 24 354.216589
1.166506 -2.054219 4.946169 10.000000 22 354.216591
1.067487 -1.879090 3.605134 12.000000 20 354.216594
1.038965 -1.828889 2.858992 19.000000 18 354.216596
1.000285 -1.760804 2.273643 26.000000 16 354.216599
1.000080 -1.749762 2.060320 29.000000 15 354.216556
0.980891 -1.716193 1.675710 34.000000 13 354.216559
0.961472 -1.682898 1.355344 38.000000 11 354.216562
0.950110 -1.663017 1.088704 39.000000 9 354.216564
0.933810 -1.635148 0.849102 47.000000 7 354.216567
0.918202 -1.608470 0.633992 48.000000 5 354.216569
0.908368 -1.591243 0.439339 46.000000 3 354.216572
0.895841 -1.569935 0.254906 35.000000 1 354.216574
0.986710 -1.732681 1.856440 34.000000 14 354.216582
0.961387 -1.688217 1.498158 37.000000 12 354.216585
0.949977 -1.668860 1.213603 40.000000 10 354.216587
0.943541 -1.657558 0.969158 49.000000 8 354.216590
0.922797 -1.621774 0.738202 50.000000 6 354.216592
0.908439 -1.597189 0.533889 55.000000 4 354.216595
0.903102 -1.588451 0.346743 42.000000 2 354.216598
0.888521 -1.563439 0.166217 37.000000 0 354.216600
0.015309 -0.044622 3.854127 97.000000 31 354.216611
0.264216 -0.494835 3.566568 13.000000 28 354.216613
0.339971 -0.638533 3.501348 136.000000 27 354.216616
0.519426 -0.931095 3.453563 11.000000 25 354.216618
0.668526 -1.183019 3.260807 20.000000 23 354.216621
1.088405 -1.925286 4.118672 11.000000 21 354.216624
1.040349 -1.840282 3.177450 14.000000 19 354.216626
1.012247 -1.790578 2.538404 20.000000 17 354.216629
0.098570 -0.207944 3.808027 98.000000 30 354.216636
0.168662 -0.334456 3.445001 108.000000 29 354.216639
0.471129 -0.858721 3.805940 9.000000 26 354.216642
0.699560 -1.242993 3.932953 85.000000 24 354.216644
1.150778 -2.043099 4.910162 10.000000 22 354.216647
1.054520 -1.871444 3.583804 12.000000 20 354.216649
1.026657 -1.822001 2.843034 18.000000 18 354.216652
0.989140 -1.755425 2.262617 26.000000 16 354.216654
0.988690 -1.743935 2.049807 30.000000 15 354.216612
0.969135 -1.709447 1.666296 35.000000 13 354.216615
0.951468 -1.678968 1.349862 37.000000 11 354.216617
0.939931 -1.658615 1.084067 40.000000 9 354.216620
0.923527 -1.630330 0.845356 45.000000 7 354.216622
0.910218 -1.607491 0.632583 46.000000 5 354.216625
0.897968 -1.585855 0.437474 46.000000 3 354.216627
0.885450 -1.564385 0.254013 35.000000 1 354.216630
0.975146 -1.726361 1.846465 34.000000 14 354.216638
0.951512 -1.684524 1.492271 37.000000 12 354.216640
0.939907 -1.664657 1.208538 40.000000 10 354.216643
0.933287 -1.652937 0.964962 49.000000 8 354.216645
0.912488 -1.616760 0.734917 52.000000 6 354.216648
0.898082 -1.591884 0.531544 55.000000 4 354.216650
0.895120 -1.587280 0.346053 43.000000 2 354.216653
0.880605 -1.562178 0.166015 36.000000 0 354.216656
0.015143 -0.044633 3.849127 97.000000 31 354.216667
0.262487 -0.495754 3.566568 14.000000 28 354.216670
0.337265 -0.638815 3.496453 126.000000 27 354.216672
0.516896 -0.934209 3.458335 16.000000 25 354.216675
0.661527 -1.180232 3.246999 26.000000 23 354.216677
1.075819 -1.918625 4.096729 10.000000 21 354.216680
1.029790 -1.836539 3.165051 15.000000 19 354.216682
1.001287 -1.785711 2.526893 20.000000 17 354.216685
0.097844 -0.208287 3.808027 97.000000 30 354.216693
0.167732 -0.335521 3.449972 112.000000 29 354.216695
0.466326 -0.857045 3.791423 9.000000 26 354.216698
0.695217 -1.245428 3.932953 68.000000 24 354.216700
1.136205 -2.033796 4.878657 11.000000 22 354.216703
1.042891 -1.866007 3.566740 12.000000 20 354.216705
1.015880 -1.817681 2.831066 19.000000 18 354.216708
0.978044 -1.749989 2.251591 27.000000 16 354.216711
0.979100 -1.741159 2.042798 30.000000 15 354.216668
0.959346 -1.706033 1.660021 35.000000 13 354.216671
0.941504 -1.674989 1.344379 37.000000 11 354.216673
0.929794 -1.654162 1.079431 40.000000 9 354.216676
0.913288 -1.625461 0.841610 45.000000 7 354.216679
0.899903 -1.602293 0.629764 48.000000 5 354.216681
0.890021 -1.584697 0.436542 48.000000 3 354.216684
0.877546 -1.563124 0.253567 35.000000 1 354.216686
0.965464 -1.723238 1.839815 34.000000 14 354.216694
0.941675 -1.680783 1.486385 37.000000 12 354.216697
0.929877 -1.660405 1.203473 40.000000 10 354.216699
0.923076 -1.648265 0.960766 47.000000 8 354.216702
0.904532 -1.615814 0.733274 48.000000 6 354.216704
0.890146 -1.590767 0.530372 55.000000 4 354.216707
0.884739 -1.581751 0.344673 42.000000 2 354.216709
0.870270 -1.556521 0.165612 37.000000 0 354.216712
0.014987 -0.044686 3.849127 97.000000 31 354.216723
0.261116 -0.497356 3.571508 14.000000 28 354.216725
0.334561 -0.639086 3.491558 113.000000 27 354.216728
0.513632 -0.936008 3.458335 27.000000 25 354.216730
0.657403 -1.182534 3.246999 28.000000 23 354.216733
1.063293 -1.911900 4.074786 9.000000 21 354.216735
1.019269 -1.832744 3.152652 15.000000 19 354.216738
0.990373 -1.780790 2.515382 20.000000 17 354.216740
0.097116 -0.208627 3.808027 97.000000 30 354.216748
0.166559 -0.336105 3.449972 116.000000 29 354.216751
0.459152 -0.850918 3.757548 8.000000 26 354.216753
0.691701 -1.249357 3.937645 36.000000 24 354.216756
1.119599 -2.020605 4.838149 11.000000 22 354.216758
1.031314 -1.860512 3.549676 12.000000 20 354.216761
1.003684 -1.810672 2.815108 20.000000 18 354.216764
0.966999 -1.744497 2.240566 27.000000 16 354.216766
0.967805 -1.735222 2.032284 30.000000 15 354.216724
0.949592 -1.702572 1.653745 36.000000 13 354.216726
0.931579 -1.670961 1.338896 37.000000 11 354.216729
0.919700 -1.649658 1.074795 39.000000 9 354.216731
0.905352 -1.624589 0.839737 45.000000 7 354.216734
0.889636 -1.597042 0.626946 48.000000 5 354.216737
0.879703 -1.579211 0.434676 48.000000 3 354.216739
0.867239 -1.557475 0.252674 35.000000 1 354.216742
0.954001 -1.716805 1.829841 34.000000 14 354.216749
0.931875 -1.676993 1.480499 37.000000 12 354.216752
0.919889 -1.656103 1.198408 39.000000 10 354.216755
0.912909 -1.643542 0.956570 49.000000 8 354.216757
0.894302 -1.610704 0.729989 48.000000 6 354.216760
0.879870 -1.585365 0.528027 57.000000 4 354.216762
0.876809 -1.580499 0.343983 43.000000 2 354.216765
0.862409 -1.555181 0.165410 37.000000 0 354.216767
0.014831 -0.044738 3.849127 97.000000 31 354.216778
0.260095 -0.499643 3.581386 15.000000 28 354.216781
0.331860 -0.639346 3.486662 108.000000 27 354.216783
0.510361 -0.937795 3.458335 32.000000 25 354.216786
0.653271 -1.184822 3.246999 24.000000 23 354.216788
1.051985 -1.907208 4.057231 9.000000 21 354.216791
1.008788 -1.828899 3.140253 15.000000 19 354.216793
0.979506 -1.775815 2.503871 20.000000 17 354.216796
0.096387 -0.208965 3.808027 97.000000 30 354.216804
0.165620 -0.337164 3.454944 125.000000 29 354.216806
0.448467 -0.838097 3.694639 6.000000 26 354.216809
0.687336 -1.251763 3.937645 13.000000 24 354.216811
1.103100 -2.007324 4.797642 11.000000 22 354.216814
1.019787 -1.854959 3.532613 12.000000 20 354.216817
0.991549 -1.803600 2.799150 21.000000 18 354.216819
0.956004 -1.738949 2.229541 27.000000 16 354.216822
0.958290 -1.732348 2.025275 30.000000 15 354.216779
0.939875 -1.699063 1.647470 36.000000 13 354.216782
0.921694 -1.666884 1.333413 37.000000 11 354.216784
0.909648 -1.645104 1.070159 39.000000 9 354.216787
0.895191 -1.619625 0.835991 45.000000 7 354.216790
0.881736 -1.595939 0.625537 50.000000 5 354.216792
0.871810 -1.577973 0.433744 48.000000 3 354.216795
0.859389 -1.556134 0.252228 35.000000 1 354.216797
0.944398 -1.713583 1.823191 34.000000 14 354.216805
0.922114 -1.673156 1.474612 37.000000 12 354.216808
0.909942 -1.651751 1.193343 40.000000 10 354.216810
0.902787 -1.638768 0.952373 50.000000 8 354.216813
0.884118 -1.605543 0.726704 50.000000 6 354.216815
0.871987 -1.584168 0.526855 57.000000 4 354.216818
0.866513 -1.574873 0.342604 42.000000 2 354.216820
0.852160 -1.549426 0.165007 37.000000 0 354.216823
0.014675 -0.044789 3.849127 97.000000 31 354.216834
0.258705 -0.501239 3.586325 15.000000 28 354.216836
0.329161 -0.639595 3.481767 107.000000 27 354.216839
0.506375 -0.938256 3.453563 34.000000 25 354.216841
0.649131 -1.187095 3.246999 24.000000 23 354.216844
1.039572 -1.900360 4.035287 9.000000 21 354.216846
0.998347 -1.825003 3.127854 15.000000 19 354.216849
0.968685 -1.770785 2.492361 20.000000 17 354.216851
0.095657 -0.209300 3.808027 98.000000 30 354.216859
0.164442 -0.337740 3.454944 125.000000 29 354.216862
0.437878 -0.825212 3.631729 6.000000 26 354.216864
1.086708 -1.993953 4.757134 11.000000 22 354.216869
1.009561 -1.851638 3.519815 12.000000 20 354.216872
0.979476 -1.796465 2.783192 22.000000 18 354.216875
0.945060 -1.733346 2.218515 26.000000 16 354.216877
0.948806 -1.729430 2.018266 31.000000 15 354.216835
0.928321 -1.692095 1.638057 36.000000 13 354.216837
0.911849 -1.662758 1.327930 37.000000 11 354.216840
0.899640 -1.640501 1.065523 40.000000 9 354.216843
0.885075 -1.614609 0.832245 45.000000 7 354.216845
0.871549 -1.590593 0.622718 50.000000 5 354.216848
0.861575 -1.572391 0.431878 50.000000 3 354.216850
0.849168 -1.550388 0.251336 35.000000 1 354.216853
0.933037 -1.707039 1.813217 34.000000 14 354.216861
0.912391 -1.669271 1.468726 38.000000 12 354.216863
0.900036 -1.647351 1.188278 40.000000 10 354.216866
0.892709 -1.633944 0.948177 50.000000 8 354.216868
0.876244 -1.604475 0.725061 50.000000 6 354.216871
0.861794 -1.578670 0.524511 58.000000 4 354.216873
0.858638 -1.573541 0.341914 43.000000 2 354.216876
0.844354 -1.548006 0.164806 37.000000 0 354.216878
0.014528 -0.044883 3.854127 97.000000 31 354.216889
0.257661 -0.503522 3.596204 16.000000 28 354.216892
0.326464 -0.639833 3.476872 107.000000 27 354.216894
0.503097 -0.940018 3.453563 34.000000 25 354.216897
0.644984 -1.189354 3.246999 28.000000 23 354.216899
1.028363 -1.895553 4.017733 8.000000 21 354.216902
0.987945 -1.821056 3.115456 16.000000 19 354.216904
0.957912 -1.765702 2.480850 20.000000 17 354.216907
0.094963 -0.209616 3.808027 97.000000 30 354.216915
0.163321 -0.338283 3.454944 116.000000 29 354.216917
0.424597 -0.806623 3.544623 4.000000 26 354.216920
1.070422 -1.980492 4.716627 11.000000 22 354.216925
0.998129 -1.845975 3.502751 12.000000 20 354.216928
0.967466 -1.789268 2.767234 22.000000 18 354.216930
0.936081 -1.730507 2.211165 26.000000 16 354.216933
0.939355 -1.726466 2.011257 31.000000 15 354.216890
0.918688 -1.688486 1.631781 36.000000 13 354.216893
0.902044 -1.658584 1.322447 37.000000 11 354.216895
0.889675 -1.635847 1.060887 40.000000 9 354.216898
0.875286 -1.609390 0.828499 45.000000 7 354.216901
0.863978 -1.589259 0.621309 51.000000 5 354.216903
0.853736 -1.571072 0.430946 50.000000 3 354.216906
0.841373 -1.548967 0.250890 35.000000 1 354.216908
0.923514 -1.703720 1.806567 34.000000 14 354.216916
0.902706 -1.665339 1.462840 37.000000 12 354.216919
0.892514 -1.646536 1.185746 40.000000 10 354.216921
0.885123 -1.632905 0.946079 50.000000 8 354.216924
0.866420 -1.599067 0.721776 50.000000 6 354.216926
0.854240 -1.577245 0.523338 58.000000 4 354.216929
0.848700 -1.567670 0.340534 40.000000 2 354.216931
0.836838 -1.546403 0.164604 37.000000 0 354.216934
0.014379 -0.044931 3.854127 98.000000 31 354.216945
0.257043 -0.506453 3.611022 20.000000 28 354.216947
0.323881 -0.640003 3.471977 107.000000 27 354.216950
0.499977 -0.941682 3.453563 34.000000 25 354.216952
0.641036 -1.191486 3.246999 28.000000 23 354.216955
1.018665 -1.892624 4.004567 8.000000 21 354.216957
0.977899 -1.816889 3.103057 16.000000 19 354.216960
0.947493 -1.760400 2.469339 22.000000 17 354.216963
0.094230 -0.209947 3.808027 97.000000 30 354.216970
0.162139 -0.338851 3.454944 105.000000 29 354.216973
0.421779 -0.808100 3.544623 4.000000 26 354.216975
1.055272 -1.968861 4.680620 11.000000 22 354.216981
0.987982 -1.842552 3.489954 12.000000 20 354.216983
0.956941 -1.784666 2.755265 23.000000 18 354.216986
0.924926 -1.724963 2.200139 27.000000 16 354.216988
0.928543 -1.720157 2.000743 31.000000 15 354.216946
0.909385 -1.684672 1.625505 36.000000 13 354.216948
0.892567 -1.654207 1.316964 37.000000 11 354.216951
0.880038 -1.630991 1.056251 40.000000 9 354.216954
0.865261 -1.604275 0.824753 44.000000 7 354.216956
0.853872 -1.583820 0.618491 46.000000 5 354.216959
0.843586 -1.565394 0.429081 50.000000 3 354.216961
0.833600 -1.547510 0.250443 35.000000 1 354.216964
0.912257 -1.697065 1.796592 34.000000 14 354.216972
0.893060 -1.661359 1.456953 37.000000 12 354.216974
0.882392 -1.642201 1.180681 40.000000 10 354.216977
0.874835 -1.628142 0.941883 50.000000 8 354.216979
0.858318 -1.598072 0.720133 52.000000 6 354.216982
0.843855 -1.571800 0.520994 58.000000 4 354.216984
0.840607 -1.566406 0.339844 39.000000 2 354.216987
0.826710 -1.540511 0.164201 37.000000 0 354.216989
0.014214 -0.044983 3.854127 97.000000 31 354.217000
0.256231 -0.509475 3.625839 22.000000 28 354.217003
0.321077 -0.640275 3.467082 105.000000 27 354.217005
0.495827 -0.942186 3.448791 34.000000 25 354.217008
0.636665 -1.193827 3.246999 28.000000 23 354.217010
1.006083 -1.885777 3.982624 9.000000 21 354.217013
0.967260 -1.813012 3.090658 16.000000 19 354.217015
0.936507 -1.755375 2.457828 22.000000 17 354.217018
0.093497 -0.210274 3.808027 98.000000 30 354.217026
0.160955 -0.339415 3.454944 97.000000 29 354.217028
0.414910 -0.801747 3.510749 4.000000 26 354.217031
1.041239 -1.959072 4.649114 11.000000 22 354.217036
0.976647 -1.836779 3.472890 13.000000 20 354.217039
0.945046 -1.777351 2.739307 23.000000 18 354.217041
0.916016 -1.722034 2.192789 27.000000 16 354.217044
0.917184 -1.714115 1.990229 31.000000 15 354.217001
0.899531 -1.681129 1.619230 36.000000 13 354.217004
0.882554 -1.650093 1.311481 38.000000 11 354.217007
0.871965 -1.630299 1.053933 40.000000 9 354.217009
0.857470 -1.603198 0.822880 44.000000 7 354.217012
0.846077 -1.582560 0.617082 46.000000 5 354.217014
0.835801 -1.563997 0.428148 50.000000 3 354.217017
0.825846 -1.546018 0.249997 35.000000 1 354.217019
0.902814 -1.693648 1.789943 35.000000 14 354.217027
0.883452 -1.657332 1.451067 38.000000 12 354.217030
0.872886 -1.637509 1.175616 40.000000 10 354.217032
0.865162 -1.623025 0.937687 49.000000 8 354.217035
0.848573 -1.592574 0.716848 52.000000 6 354.217037
0.836353 -1.570300 0.519821 58.000000 4 354.217040
0.830753 -1.560442 0.338465 39.000000 2 354.217042
0.818981 -1.538977 0.164000 37.000000 0 354.217045
0.014065 -0.045030 3.854127 97.000000 31 354.217056
0.252809 -0.506845 3.601143 27.000000 28 354.217058
0.318500 -0.640425 3.462186 103.000000 27 354.217061
0.492009 -0.942501 3.444020 35.000000 25 354.217063
0.632702 -1.195932 3.246999 28.000000 23 354.217066
0.995341 -1.880633 3.965069 9.000000 21 354.217068
0.957293 -1.808748 3.078259 16.000000 19 354.217071
0.926182 -1.749971 2.446317 23.000000 17 354.217074
0.092762 -0.210599 3.808027 97.000000 30 354.217081
0.159769 -0.339975 3.454944 94.000000 29 354.217084
0.414979 -0.808786 3.534945 5.000000 26 354.217086
1.027627 -1.949029 4.617609 11.000000 22 354.217092
0.966900 -1.833087 3.460092 14.000000 20 354.217094
0.934928 -1.772477 2.727339 23.000000 18 354.217097
0.906836 -1.719224 2.185439 28.000000 16 354.217099
0.908151 -1.710847 1.983220 30.000000 15 354.217057
0.890301 -1.677226 1.612954 36.000000 13 354.217059
0.873158 -1.645623 1.305998 37.000000 11 354.217062
0.862401 -1.625354 1.049297 40.000000 9 354.217065
0.847524 -1.597990 0.819134 44.000000 7 354.217067
0.836053 -1.577027 0.614263 51.000000 5 354.217070
0.826009 -1.558080 0.426283 46.000000 3 354.217072
0.816051 -1.539947 0.249105 34.000000 1 354.217075
0.893701 -1.690031 1.783293 35.000000 14 354.217083
0.874173 -1.653106 1.445181 38.000000 12 354.217085
0.863135 -1.632923 1.170551 40.000000 10 354.217088
0.855249 -1.618010 0.933491 50.000000 8 354.217090
0.840802 -1.591351 0.715205 51.000000 6 354.217093
0.826326 -1.564613 0.517477 59.000000 4 354.217095
0.822989 -1.558953 0.337775 39.000000 2 354.217098
0.808940 -1.532989 0.163597 37.000000 0 354.217101
0.013908 -0.045079 3.854127 97.000000 31 354.217111
0.251038 -0.507724 3.601143 29.000000 28 354.217114
0.315812 -0.640619 3.457291 100.000000 27 354.217116
0.490775 -0.948192 3.458335 31.000000 25 354.217119
0.630339 -1.201594 3.256204 29.000000 23 354.217121
0.984317 -1.875610 3.947514 10.000000 21 354.217124
0.947051 -1.804604 3.065860 17.000000 19 354.217127
0.917089 -1.747515 2.438643 24.000000 17 354.217129
0.092027 -0.210922 3.808027 98.000000 30 354.217137
0.158582 -0.340531 3.454944 71.000000 29 354.217139
0.414433 -0.814715 3.554302 8.000000 26 354.217142
0.556527 -1.065393 3.322893 5.000000 24 354.217145
1.014764 -1.941025 4.590603 11.000000 22 354.217147
0.955661 -1.827207 3.443028 14.000000 20 354.217150
0.924545 -1.767718 2.715370 24.000000 18 354.217152
0.896116 -1.713367 2.174413 29.000000 16 354.217155
0.897190 -1.704539 1.972707 31.000000 15 354.217112
0.879001 -1.669989 1.603541 37.000000 13 354.217115
0.863514 -1.641260 1.300515 38.000000 11 354.217118
0.852596 -1.620514 1.044661 40.000000 9 354.217120
0.839783 -1.596835 0.817261 44.000000 7 354.217123
0.828311 -1.575690 0.612854 50.000000 5 354.217125
0.818279 -1.556606 0.425350 46.000000 3 354.217128
0.808354 -1.538378 0.248659 34.000000 1 354.217130
0.884328 -1.686525 1.776643 35.000000 14 354.217138
0.864643 -1.648988 1.439294 38.000000 12 354.217141
0.853427 -1.628289 1.165486 40.000000 10 354.217143
0.845382 -1.612946 0.929295 50.000000 8 354.217146
0.830859 -1.585909 0.711920 51.000000 6 354.217148
0.818605 -1.563183 0.516304 58.000000 4 354.217151
0.812949 -1.553042 0.336395 39.000000 2 354.217153
0.801268 -1.531377 0.163395 37.000000 0 354.217156
0.013750 -0.045127 3.854127 97.000000 31 354.217167
0.247557 -0.505107 3.576447 34.000000 28 354.217169
0.313128 -0.640802 3.452396 98.000000 27 354.217172
0.490871 -0.956544 3.482193 24.000000 25 354.217174
0.633353 -1.217652 3.293024 30.000000 23 354.217177
0.973341 -1.870533 3.929960 9.000000 21 354.217179
0.936849 -1.800410 3.053461 17.000000 19 354.217182
0.906544 -1.742174 2.427133 23.000000 17 354.217185
0.091403 -0.211508 3.813018 97.000000 30 354.217192
0.157615 -0.341567 3.459915 40.000000 29 354.217195
0.413851 -0.820649 3.573658 10.000000 26 354.217197
0.553598 -1.068862 3.327586 7.000000 24 354.217200
1.002971 -1.934888 4.568099 11.000000 22 354.217203
0.945675 -1.823586 3.430230 14.000000 20 354.217205
0.912819 -1.760232 2.699412 24.000000 18 354.217208
0.887008 -1.710465 2.167063 29.000000 16 354.217210
0.886285 -1.698176 1.962193 31.000000 15 354.217168
0.869565 -1.666145 1.597265 36.000000 13 354.217171
0.855846 -1.640557 1.297774 38.000000 11 354.217173
0.844885 -1.619552 1.042343 40.000000 9 354.217176
0.829917 -1.591536 0.813515 45.000000 7 354.217178
