# .PCD v.7 - Point Cloud Data file format
VERSION .7
FIELDS x y z intensity ring timestamp
SIZE 4 4 4 4 2 8
TYPE F F F F U D
COUNT 1 1 1 1 1 1
WIDTH 932
HEIGHT 1
VIEWPOINT 0 0 0 1 0 0 0
POINTS 932
DATA ascii
-3.346154 2.446306 7.660322 74.000000 21 355.060337
-3.837402 2.805453 7.054156 8.000000 19 355.060339
-4.424492 3.234670 6.636261 14.000000 17 355.060342
-0.063802 0.053136 1.272290 8.000000 30 355.060350
-0.115210 0.092360 1.332151 7.000000 29 355.060352
-2.418582 1.816348 11.674488 23.000000 26 355.060355
-2.962463 2.174525 10.047626 106.000000 24 355.060357
-3.823656 2.805651 9.865580 11.000000 22 355.060360
-4.376655 3.210258 7.259409 9.000000 18 355.060365
-6.523374 4.784877 8.848512 5.000000 16 355.060368
-3.775140 2.752870 4.671207 4.000000 15 355.060325
-5.393668 3.933124 5.463007 10.000000 13 355.060328
-4.889914 3.567087 4.052947 8.000000 11 355.060330
-4.872331 3.554264 3.242150 13.000000 9 355.060333
-0.480003 0.350278 0.328399 8.000000 7 355.060336
-0.565980 0.413171 0.295785 4.000000 5 355.060338
-6.224754 4.547491 0.783664 15.000000 1 355.060343
-5.056446 3.700749 5.660067 3.000000 14 355.060351
-5.896064 4.315260 5.403731 10.000000 12 355.060354
-4.857519 3.556462 3.621940 8.000000 10 355.060356
-0.425686 0.311666 0.331350 5.000000 8 355.060359
-0.514787 0.377040 0.311104 6.000000 6 355.060361
-6.234807 4.569873 1.169003 2.000000 2 355.060366
-6.180988 4.530426 0.402814 20.000000 0 355.060369
-0.017664 0.016042 1.164229 26.000000 31 355.060380
-1.923103 1.491217 15.470180 11.000000 28 355.060382
-0.184709 0.143074 1.146744 8.000000 27 355.060385
-0.296835 0.221203 1.229940 9.000000 25 355.060387
-3.374276 2.486796 9.934466 10.000000 23 355.060390
-3.344880 2.464237 7.677876 53.000000 21 355.060392
-3.827093 2.819499 7.054156 9.000000 19 355.060395
-4.404864 3.245160 6.624751 15.000000 17 355.060397
-0.063607 0.053369 1.272290 8.000000 30 355.060405
-0.115285 0.093119 1.337123 7.000000 29 355.060408
-2.410906 1.824442 11.669648 12.000000 26 355.060410
-2.954473 2.185368 10.047626 105.000000 24 355.060413
-3.820843 2.824158 9.883584 11.000000 22 355.060415
-3.581907 2.646588 7.354890 4.000000 20 355.060418
-4.481777 3.311488 7.450905 13.000000 18 355.060421
-6.454826 4.769341 8.778684 5.000000 16 355.060423
-3.756403 2.760352 4.660694 15.000000 15 355.060381
-5.376080 3.950562 5.459870 10.000000 13 355.060383
-4.816164 3.540406 4.003601 9.000000 11 355.060386
-4.862841 3.574723 3.244468 9.000000 9 355.060389
-0.478716 0.352035 0.328399 7.000000 7 355.060391
-0.564462 0.415242 0.295785 4.000000 5 355.060394
-6.216864 4.575096 0.784557 15.000000 1 355.060399
-4.971359 3.665192 5.580270 5.000000 14 355.060407
-5.880965 4.335815 5.403731 10.000000 12 355.060409
-4.845075 3.573396 3.621940 7.000000 10 355.060412
-0.420943 0.310456 0.329252 4.000000 8 355.060414
-0.513467 0.378834 0.311104 6.000000 6 355.060417
-0.598469 0.441710 0.270118 3.000000 4 355.060419
-6.258657 4.621024 1.175901 3.000000 2 355.060422
-6.172379 4.558987 0.403217 20.000000 0 355.060424
-0.017581 0.016069 1.159229 26.000000 31 355.060435
-1.911763 1.493137 15.420787 10.000000 28 355.060438
-0.184208 0.143718 1.146744 8.000000 27 355.060440
-0.306809 0.230311 1.272886 15.000000 25 355.060443
-3.365575 2.498560 9.934466 10.000000 23 355.060445
-3.819488 2.834517 7.058289 10.000000 19 355.060450
-4.396083 3.262427 6.628587 14.000000 17 355.060453
-0.063420 0.053591 1.272290 9.000000 30 355.060461
-0.114959 0.093521 1.337123 7.000000 29 355.060463
-2.937140 2.188451 10.014777 96.000000 24 355.060468
-3.812709 2.838779 9.888084 11.000000 22 355.060471
-3.537080 2.632603 7.282370 6.000000 20 355.060474
-4.508874 3.355904 7.514737 19.000000 18 355.060476
-6.391906 4.757432 8.716206 5.000000 16 355.060479
-3.695150 2.735255 4.597612 15.000000 15 355.060436
-5.365385 3.971619 5.463007 10.000000 13 355.060439
-4.753370 3.519871 3.962479 9.000000 11 355.060441
-4.818290 3.567947 3.223606 7.000000 9 355.060444
-0.477484 0.353704 0.328399 7.000000 7 355.060447
-0.563009 0.417210 0.295785 4.000000 5 355.060449
-6.212858 4.605666 0.785895 15.000000 1 355.060454
-4.910567 3.646899 5.527072 9.000000 14 355.060462
-5.869040 4.358727 5.406675 10.000000 12 355.060465
-4.777201 3.549150 3.581421 8.000000 10 355.060467
-0.419856 0.311923 0.329252 4.000000 8 355.060470
-0.512142 0.380624 0.311104 6.000000 6 355.060472
-0.593023 0.440897 0.268945 4.000000 4 355.060475
-6.258383 4.654665 1.178660 3.000000 2 355.060477
-6.164443 4.586469 0.403620 20.000000 0 355.060480
-0.017525 0.016130 1.159229 26.000000 31 355.060491
-1.899212 1.494035 15.361516 9.000000 28 355.060493
-0.183706 0.144360 1.146744 7.000000 27 355.060496
-0.304812 0.230479 1.268114 16.000000 25 355.060498
-3.356833 2.510292 9.934466 10.000000 23 355.060501
-3.809570 2.847833 7.058289 10.000000 19 355.060506
-4.394940 3.285430 6.643935 8.000000 17 355.060509
-0.063233 0.053812 1.272290 10.000000 30 355.060516
-0.114632 0.093921 1.337123 7.000000 29 355.060519
-2.926723 2.196618 10.005392 64.000000 24 355.060524
-3.801034 2.850764 9.883584 10.000000 22 355.060527
-3.492395 2.618338 7.209849 8.000000 20 355.060529
-4.501955 3.375238 7.522716 12.000000 18 355.060532
-6.285749 4.712605 8.594925 5.000000 16 355.060534
-3.662708 2.731083 4.569576 13.000000 15 355.060492
-5.351489 3.990324 5.463007 9.000000 13 355.060494
-4.687427 3.496440 3.918615 9.000000 11 355.060497
-4.791601 3.574149 3.214334 7.000000 9 355.060500
-0.476247 0.355368 0.328399 7.000000 7 355.060502
-0.565394 0.422043 0.297194 4.000000 5 355.060505
-6.192754 4.624345 0.785449 15.000000 1 355.060510
-4.885845 3.655070 5.513773 12.000000 14 355.060518
-5.853789 4.379188 5.406675 10.000000 12 355.060520
-4.702652 3.519307 3.535837 9.000000 10 355.060523
-0.415131 0.310668 0.327154 4.000000 8 355.060525
-0.510810 0.382410 0.311104 6.000000 6 355.060528
-0.587590 0.440050 0.267773 3.000000 4 355.060530
-6.218317 4.658667 1.174522 4.000000 2 355.060533
-6.156393 4.613951 0.404023 19.000000 0 355.060535
-0.017442 0.016157 1.154230 26.000000 31 355.060546
-0.183998 0.145634 1.151639 5.000000 27 355.060551
-0.301630 0.229731 1.258570 16.000000 25 355.060554
-3.348050 2.521995 9.934466 11.000000 23 355.060556
-3.799606 2.861113 7.058289 10.000000 19 355.060561
-0.063044 0.054033 1.272290 11.000000 30 355.060572
-0.114303 0.094321 1.337123 7.000000 29 355.060574
-3.452016 2.606936 7.145859 10.000000 20 355.060585
-4.446854 3.358239 7.450905 9.000000 18 355.060587
-6.204332 4.685484 8.506721 5.000000 16 355.060590
-3.638895 2.733143 4.552053 13.000000 15 355.060547
-5.340641 4.011317 5.466145 9.000000 13 355.060550
-4.621706 3.472592 3.874752 9.000000 11 355.060553
-4.729510 3.553596 3.181881 9.000000 9 355.060555
-0.475003 0.357028 0.328399 7.000000 7 355.060558
-0.563917 0.424014 0.297194 4.000000 5 355.060560
-6.184533 4.651921 0.786341 14.000000 1 355.060565
-4.870075 3.669855 5.510448 11.000000 14 355.060573
-4.638699 3.496773 3.497851 10.000000 10 355.060578
-0.414044 0.312115 0.327154 4.000000 8 355.060581
-0.509472 0.384190 0.311104 6.000000 6 355.060583
-0.589931 0.445026 0.268945 4.000000 4 355.060586
-6.198064 4.677361 1.173832 5.000000 2 355.060588
-6.140249 4.635413 0.404023 18.000000 0 355.060591
-0.017385 0.016218 1.154230 26.000000 31 355.060602
-0.183488 0.146275 1.151639 5.000000 27 355.060607
-0.298457 0.228964 1.249027 18.000000 25 355.060609
-3.339226 2.533666 9.934466 10.000000 23 355.060612
-3.787354 2.872659 7.054156 10.000000 19 355.060617
-6.037286 4.579216 9.145623 4.000000 17 355.060620
-0.062639 0.054060 1.267298 12.000000 30 355.060627
-0.113973 0.094719 1.337123 7.000000 29 355.060630
-2.922300 2.225361 10.042933 12.000000 24 355.060635
-2.997717 2.281146 7.849207 6.000000 22 355.060638
-3.422138 2.603181 7.103200 14.000000 20 355.060640
-6.106993 4.645538 8.396466 4.000000 16 355.060645
-3.586672 2.713553 4.499485 14.000000 15 355.060603
-5.326605 4.029935 5.466145 10.000000 13 355.060605
-4.556210 3.448329 3.830889 10.000000 11 355.060608
-4.664089 3.529980 3.147111 8.000000 9 355.060611
-0.477450 0.361483 0.330272 7.000000 7 355.060613
-0.562434 0.425980 0.297194 4.000000 5 355.060616
-6.172226 4.676488 0.786788 14.000000 1 355.060621
-4.857234 3.686832 5.510448 11.000000 14 355.060629
-4.535243 3.442430 4.229411 4.000000 12 355.060631
-4.574961 3.473837 3.459865 10.000000 10 355.060634
-0.409338 0.310814 0.325056 4.000000 8 355.060636
-0.508128 0.385966 0.311104 6.000000 6 355.060639
-0.588374 0.447083 0.268945 4.000000 4 355.060641
-6.128008 4.659842 0.404225 17.000000 0 355.060647
-0.017328 0.016278 1.154230 26.000000 31 355.060657
-0.144335 0.115547 1.175968 3.000000 28 355.060660
-2.245206 1.808548 13.884125 22.000000 27 355.060662
-0.296474 0.229091 1.244255 20.000000 25 355.060665
-3.330361 2.545307 9.934466 10.000000 23 355.060667
-3.800142 2.903307 8.827705 3.000000 21 355.060670
-3.784011 2.890986 7.066555 10.000000 19 355.060673
-5.980505 4.569122 9.084232 5.000000 17 355.060675
-0.062450 0.054278 1.267298 11.000000 30 355.060683
-0.113642 0.095117 1.337123 7.000000 29 355.060685
-2.984551 2.287622 7.835704 8.000000 22 355.060693
-3.415100 2.616697 7.107466 13.000000 20 355.060696
-3.966350 3.039077 6.688910 8.000000 18 355.060698
-3.543140 2.700117 4.457430 33.000000 15 355.060658
-5.318699 4.053223 5.472421 10.000000 13 355.060661
-4.490940 3.423651 3.787025 10.000000 11 355.060664
-4.605938 3.511323 3.116977 7.000000 9 355.060666
-0.476185 0.363147 0.330272 7.000000 7 355.060669
-0.560943 0.427940 0.297194 4.000000 5 355.060671
-4.847302 3.706033 5.513773 11.000000 14 355.060684
-4.436502 3.391955 4.149945 11.000000 12 355.060687
-4.514865 3.453117 3.424411 9.000000 10 355.060689
-0.411855 0.314998 0.327154 4.000000 8 355.060692
-0.506778 0.387738 0.311104 6.000000 6 355.060694
-0.590669 0.452088 0.270118 4.000000 4 355.060697
-4.647511 3.558432 0.907563 21.000000 2 355.060699
-6.119637 4.687280 0.404628 18.000000 0 355.060702
-0.017298 0.016374 1.159229 26.000000 31 355.060713
-0.146950 0.118495 1.200664 4.000000 28 355.060715
-2.236507 1.814449 13.869439 31.000000 27 355.060718
-0.295673 0.230124 1.244255 21.000000 25 355.060720
-3.321456 2.556916 9.934466 11.000000 23 355.060723
-3.714039 2.858111 8.652159 4.000000 21 355.060725
-3.776127 2.905894 7.070687 10.000000 19 355.060728
-5.908624 4.546955 8.999819 5.000000 17 355.060731
-0.062260 0.054496 1.267298 11.000000 30 355.060738
-0.113309 0.095513 1.337123 7.000000 29 355.060741
-3.405946 2.628602 7.107466 11.000000 20 355.060751
-3.941402 3.041855 6.664974 12.000000 18 355.060754
-3.387910 2.614688 4.717627 12.000000 16 355.060756
-3.545009 2.721154 4.471448 37.000000 15 355.060714
-5.307606 4.074135 5.475558 10.000000 13 355.060717
-4.425899 3.398560 3.743161 9.000000 11 355.060719
-4.544460 3.489605 3.084524 8.000000 9 355.060722
-0.478591 0.367631 0.332145 7.000000 7 355.060724
-0.559446 0.429896 0.297194 4.000000 5 355.060727
-4.603543 3.538807 0.613212 5.000000 1 355.060732
-4.834336 3.722930 5.513773 11.000000 14 355.060740
-4.296536 3.308772 4.032219 11.000000 12 355.060742
-4.451554 3.429390 3.386424 9.000000 10 355.060745
-0.399967 0.308124 0.320860 4.000000 8 355.060747
-0.509162 0.392387 0.312747 6.000000 6 355.060750
-0.589088 0.454147 0.270118 4.000000 4 355.060752
-4.635063 3.574633 0.907563 22.000000 2 355.060755
-0.017241 0.016434 1.159229 25.000000 31 355.060768
-0.148342 0.120480 1.215482 5.000000 28 355.060771
-2.234890 1.826111 13.898810 27.000000 27 355.060773
-0.294868 0.231155 1.244255 22.000000 25 355.060776
-3.314055 2.569692 9.939069 10.000000 23 355.060778
-3.779305 2.929401 7.095486 9.000000 19 355.060784
-5.839506 4.526308 8.919243 5.000000 17 355.060786
-0.062069 0.054713 1.267298 12.000000 30 355.060794
-0.112975 0.095908 1.337123 7.000000 29 355.060796
-2.889302 2.248422 10.010085 5.000000 24 355.060802
-3.752422 2.918004 9.888084 7.000000 22 355.060804
-3.396749 2.640475 7.107466 11.000000 20 355.060807
-3.937899 3.061145 6.676942 13.000000 18 355.060809
-3.381439 2.628579 4.721303 14.000000 16 355.060812
-5.302592 4.099781 5.484972 10.000000 13 355.060772
-4.361087 3.373057 3.699298 8.000000 11 355.060775
-4.486695 3.470211 3.054390 8.000000 9 355.060777
-0.477305 0.369299 0.332145 7.000000 7 355.060780
-0.557942 0.431846 0.297194 4.000000 5 355.060782
-4.583287 3.548757 0.612320 14.000000 1 355.060787
-4.821311 3.739783 5.513773 11.000000 14 355.060795
-4.253023 3.298976 4.002787 12.000000 12 355.060798
-4.391870 3.407906 3.350970 9.000000 10 355.060800
-0.409646 0.317865 0.327154 3.000000 8 355.060803
-0.507789 0.394162 0.312747 6.000000 6 355.060805
-0.591338 0.459182 0.271290 4.000000 4 355.060808
-4.575871 3.555807 0.327441 17.000000 0 355.060813
-0.017183 0.016494 1.159229 26.000000 31 355.060824
-0.147320 0.120504 1.210542 9.000000 28 355.060826
-2.230075 1.835196 13.908601 11.000000 27 355.060829
-0.294059 0.232183 1.244255 24.000000 25 355.060831
-3.305064 2.581244 9.939069 10.000000 23 355.060834
-3.199235 2.497699 7.502330 6.000000 21 355.060837
-5.775657 4.509179 8.846341 5.000000 17 355.060842
-0.061878 0.054929 1.267298 11.000000 30 355.060849
-0.112640 0.096301 1.337123 7.000000 29 355.060852
-2.877362 2.255300 9.996007 8.000000 24 355.060857
-3.742213 2.931084 9.888084 9.000000 22 355.060860
-3.389565 2.653923 7.111732 11.000000 20 355.060862
-3.927189 3.074872 6.676942 13.000000 18 355.060865
-3.353557 2.625736 4.695576 9.000000 16 355.060867
-4.406611 3.431679 5.568371 6.000000 15 355.060825
-5.288249 4.118266 5.484972 10.000000 13 355.060828
-4.296509 3.347144 3.655434 8.000000 11 355.060830
-4.422132 3.445012 3.019620 9.000000 9 355.060833
-0.476013 0.370963 0.332145 7.000000 7 355.060835
-0.552648 0.430841 0.295785 4.000000 5 355.060838
-4.582653 3.573921 0.613658 8.000000 1 355.060843
-4.808228 3.756590 5.513773 11.000000 14 355.060851
-4.212815 3.291405 3.976299 12.000000 12 355.060853
-4.325599 3.380738 3.310452 9.000000 10 355.060856
-0.408534 0.319293 0.327154 3.000000 8 355.060858
-0.510130 0.398841 0.314390 6.000000 6 355.060861
-0.582074 0.455254 0.268945 4.000000 4 355.060863
-6.177893 4.833645 1.184869 15.000000 2 355.060866
-4.551629 3.562520 0.326837 27.000000 0 355.060869
-0.017125 0.016554 1.159229 26.000000 31 355.060879
-0.147497 0.121513 1.215482 8.000000 28 355.060882
-0.294415 0.234138 1.249027 25.000000 25 355.060887
-3.299105 2.595181 9.948275 11.000000 23 355.060889
-3.167898 2.491080 7.449667 8.000000 21 355.060892
-3.986601 3.134876 7.521179 6.000000 19 355.060894
-5.712001 4.491661 8.773438 5.000000 17 355.060897
-0.061686 0.055145 1.267298 11.000000 30 355.060905
-0.111900 0.096344 1.332151 7.000000 29 355.060907
-2.870826 2.266399 10.000699 10.000000 24 355.060912
-3.733669 2.945478 9.892586 10.000000 22 355.060915
-3.380280 2.665738 7.111732 11.000000 20 355.060917
-3.921165 3.092294 6.684922 14.000000 18 355.060920
-3.328400 2.624831 4.673525 7.000000 16 355.060923
-4.414248 3.462447 5.592903 4.000000 15 355.060880
-5.267715 4.131894 5.478696 10.000000 13 355.060883
-4.219007 3.310496 3.600605 9.000000 11 355.060885
-4.347343 3.411200 2.977895 11.000000 9 355.060888
-0.474715 0.372623 0.332145 7.000000 7 355.060891
-0.551140 0.432768 0.295785 4.000000 5 355.060893
-4.798020 3.775660 5.517098 11.000000 14 355.060906
-4.191771 3.298592 3.967469 10.000000 12 355.060909
-4.262959 3.355816 3.272465 9.000000 10 355.060911
-0.508735 0.400619 0.314390 6.000000 6 355.060916
-0.603391 0.475330 0.275979 4.000000 4 355.060919
-6.168762 4.861311 1.186248 15.000000 2 355.060921
-0.017093 0.016649 1.164229 26.000000 31 355.060935
-0.147072 0.122027 1.215482 9.000000 28 355.060937
-2.467317 2.059547 15.475074 7.000000 27 355.060940
-0.293596 0.235164 1.249027 25.000000 25 355.060942
-3.283901 2.601829 9.929864 10.000000 23 355.060945
-3.134768 2.482786 7.392613 8.000000 21 355.060947
-4.008723 3.174981 7.583173 8.000000 19 355.060950
-5.643511 4.469772 8.692863 5.000000 17 355.060952
-0.061706 0.055557 1.272290 11.000000 30 355.060960
-0.111563 0.096734 1.332151 7.000000 29 355.060963
-2.868301 2.280703 10.019470 10.000000 24 355.060968
-3.687559 2.930043 9.798068 8.000000 22 355.060970
-3.372997 2.679144 7.115998 11.000000 20 355.060973
-3.912707 3.107837 6.688910 10.000000 18 355.060976
-3.290015 2.613239 4.633098 7.000000 16 355.060978
-4.385345 3.464569 5.571876 5.000000 15 355.060936
-5.265478 4.159909 5.491247 10.000000 13 355.060938
-4.191023 3.312240 3.586898 10.000000 11 355.060941
-4.245039 3.354934 2.917626 9.000000 9 355.060943
-0.473412 0.374277 0.332145 7.000000 7 355.060946
-0.549626 0.434689 0.295785 4.000000 5 355.060949
-6.115898 4.838714 0.791696 12.000000 1 355.060954
-4.784811 3.792385 5.517098 11.000000 14 355.060961
-4.158057 3.295629 3.946867 7.000000 12 355.060964
-4.190410 3.322462 3.226882 9.000000 10 355.060967
-0.511033 0.405327 0.316032 6.000000 6 355.060972
-0.601728 0.477433 0.275979 4.000000 4 355.060974
-6.167271 4.895130 1.189008 17.000000 2 355.060977
-6.091677 4.836861 0.407449 15.000000 0 355.060979
-0.017035 0.016708 1.164229 27.000000 31 355.060990
-0.147240 0.123039 1.220421 10.000000 28 355.060993
-2.466348 2.073389 15.514235 6.000000 27 355.060995
-0.293936 0.237125 1.253799 26.000000 25 355.060998
-3.274799 2.613276 9.929864 10.000000 23 355.061000
-3.101736 2.474291 7.335561 9.000000 21 355.061003
-4.006415 3.195974 7.599705 10.000000 19 355.061005
-5.587776 4.457457 8.631473 5.000000 17 355.061008
-0.061511 0.055772 1.272290 12.000000 30 355.061016
-0.111225 0.097123 1.332151 7.000000 29 355.061018
-2.857628 2.288543 10.010085 10.000000 24 355.061023
-3.609298 2.888468 9.618034 5.000000 22 355.061026
-3.363624 2.690901 7.115998 11.000000 20 355.061029
-3.230576 2.584469 4.563270 14.000000 16 355.061034
-4.367643 3.475415 5.564867 8.000000 15 355.060991
-4.149992 3.303411 3.562225 10.000000 11 355.060996
-4.219438 3.358695 2.908354 9.000000 9 355.060999
-0.472102 0.375928 0.332145 7.000000 7 355.061002
-0.551858 0.439594 0.297194 4.000000 5 355.061004
-6.110654 4.869343 0.793035 14.000000 1 355.061009
-4.774463 3.811394 5.520423 11.000000 14 355.061017
-4.146528 3.310123 3.946867 7.000000 12 355.061020
-4.138361 3.304786 3.196492 11.000000 10 355.061022
-0.509615 0.407109 0.316032 6.000000 6 355.061027
-0.596260 0.476496 0.274807 4.000000 4 355.061030
-6.154014 4.919720 1.189698 18.000000 2 355.061032
-6.078657 4.861216 0.407651 16.000000 0 355.061035
-0.016977 0.016768 1.164229 27.000000 31 355.061046
-0.147404 0.124054 1.225360 11.000000 28 355.061048
-0.294265 0.239092 1.258570 28.000000 25 355.061053
-3.262612 2.622243 9.920659 10.000000 23 355.061056
-3.070668 2.467097 7.282897 10.000000 21 355.061058
-3.990847 3.206414 7.591439 10.000000 19 355.061061
-5.517200 4.432759 8.547059 5.000000 17 355.061063
-0.061316 0.055986 1.272290 10.000000 30 355.061071
-0.110885 0.097510 1.332151 7.000000 29 355.061074
-2.850965 2.299588 10.014777 10.000000 24 355.061079
-3.434728 2.768485 9.181453 6.000000 22 355.061081
-3.356241 2.704262 7.120264 11.000000 20 355.061084
-3.200416 2.578713 4.533869 58.000000 16 355.061089
-4.361050 3.495100 5.571876 9.000000 15 355.061047
-4.018198 3.220329 4.232998 3.000000 13 355.061049
-4.112336 3.296953 3.540293 8.000000 11 355.061052
-4.159297 3.334607 2.875902 11.000000 9 355.061055
-0.470787 0.377573 0.332145 7.000000 7 355.061057
-0.550320 0.441517 0.297194 4.000000 5 355.061060
-6.101387 4.896877 0.793927 14.000000 1 355.061065
-4.764040 3.830377 5.523747 10.000000 14 355.061073
-4.090847 3.289119 3.905663 8.000000 12 355.061075
-4.110003 3.305701 3.183830 11.000000 10 355.061078
-0.508191 0.408885 0.316032 6.000000 6 355.061083
-6.136804 4.941171 1.189698 18.000000 2 355.061088
-6.069433 4.888673 0.408054 18.000000 0 355.061090
-0.016918 0.016827 1.164229 27.000000 31 355.061101
-0.147561 0.125071 1.230299 28.000000 28 355.061104
-0.293429 0.240118 1.258570 29.000000 25 355.061109
-3.037827 2.458209 7.225844 12.000000 21 355.061114
-5.439388 4.401574 8.451136 3.000000 17 355.061119
-0.061120 0.056200 1.272290 10.000000 30 355.061127
-0.110544 0.097897 1.332151 6.000000 29 355.061129
-2.841582 2.308438 10.010085 10.000000 24 355.061134
-3.397992 2.758497 9.109440 6.000000 22 355.061137
-3.348807 2.717605 7.124530 11.000000 20 355.061140
-5.363693 4.352728 9.218252 4.000000 18 355.061142
-3.191395 2.589869 4.533869 58.000000 16 355.061145
-4.351599 3.512542 5.575380 10.000000 15 355.061102
-4.003903 3.231890 4.229861 10.000000 13 355.061105
-4.074777 3.290272 3.518361 7.000000 11 355.061107
-4.123504 3.329623 2.859676 11.000000 9 355.061110
-0.469466 0.379214 0.332145 7.000000 7 355.061113
-0.552507 0.446451 0.298603 4.000000 5 355.061115
-6.088130 4.921276 0.794373 13.000000 1 355.061120
-4.750641 3.846983 5.523747 11.000000 14 355.061128
-4.022799 3.257591 3.852686 9.000000 12 355.061131
-4.078338 3.303746 3.168636 9.000000 10 355.061133
-0.506761 0.410656 0.316032 6.000000 6 355.061138
-6.138750 4.978158 1.193146 18.000000 2 355.061143
-6.052331 4.909829 0.408054 17.000000 0 355.061146
-0.016859 0.016886 1.164229 26.000000 31 355.061157
-0.147124 0.125586 1.230299 36.000000 28 355.061159
-1.852068 1.590249 11.759596 7.000000 27 355.061162
-0.292589 0.241141 1.258570 30.000000 25 355.061164
-2.597666 2.117824 7.955382 6.000000 23 355.061167
-3.012514 2.455176 7.186347 14.000000 21 355.061169
-3.050713 2.486314 4.786854 6.000000 17 355.061175
-0.060714 0.056213 1.267298 11.000000 30 355.061182
-0.110201 0.098282 1.332151 6.000000 29 355.061185
-2.833506 2.318342 10.010085 10.000000 24 355.061190
-3.334392 2.726230 8.965413 6.000000 22 355.061193
-3.343339 2.732579 7.133062 10.000000 20 355.061195
-5.299460 4.331370 9.134473 6.000000 18 355.061198
-4.339311 3.527710 5.575380 10.000000 15 355.061158
-3.974474 3.231113 4.211034 9.000000 13 355.061160
-4.027582 3.275455 3.488205 7.000000 11 355.061163
-4.094671 3.330020 2.848086 11.000000 9 355.061166
-0.468140 0.380851 0.332145 7.000000 7 355.061168
-0.550945 0.448377 0.298603 4.000000 5 355.061171
-6.141671 4.998321 1.594856 7.000000 3 355.061173
-6.082500 4.951930 0.795712 15.000000 1 355.061176
-4.740077 3.865903 5.527072 11.000000 14 355.061184
-3.867316 3.154099 3.717300 14.000000 12 355.061186
-4.056760 3.309785 3.161038 8.000000 10 355.061189
-0.505324 0.412423 0.316032 6.000000 6 355.061194
-6.117501 4.996424 1.192457 17.000000 2 355.061199
-6.039025 4.934087 0.408255 18.000000 0 355.061201
-0.016800 0.016944 1.164229 26.000000 31 355.061212
-0.146096 0.125591 1.225360 31.000000 28 355.061215
-1.848816 1.598703 11.774282 9.000000 27 355.061217
-0.292894 0.243115 1.263342 32.000000 25 355.061220
-2.599317 2.134317 7.982996 16.000000 23 355.061222
-2.985407 2.450476 7.142460 9.000000 21 355.061225
-3.502453 2.874884 6.727653 11.000000 19 355.061227
-3.024669 2.482710 4.759995 12.000000 17 355.061230
-0.060517 0.056425 1.267298 11.000000 30 355.061238
-0.109858 0.098666 1.332151 6.000000 29 355.061240
-2.825397 2.328219 10.010085 10.000000 24 355.061245
-3.313087 2.728163 8.933908 5.000000 22 355.061248
-3.331766 2.742575 7.128796 10.000000 20 355.061251
-5.223807 4.300039 9.030746 6.000000 18 355.061253
-4.326971 3.542836 5.575380 10.000000 15 355.061213
-3.905943 3.198109 4.151416 7.000000 13 355.061216
-3.987010 3.265648 3.463532 9.000000 11 355.061219
-4.062459 3.327449 2.834177 8.000000 9 355.061221
-0.463222 0.379544 0.330272 7.000000 7 355.061224
-0.553087 0.453338 0.300013 4.000000 5 355.061226
-6.082396 4.985475 1.584597 9.000000 3 355.061229
-6.065177 4.973131 0.795712 14.000000 1 355.061231
-4.729440 3.884796 5.530397 11.000000 14 355.061239
-3.684496 3.026472 3.555427 67.000000 12 355.061242
-4.008541 3.293818 3.133182 8.000000 10 355.061244
-0.503881 0.414184 0.316032 6.000000 6 355.061249
-6.054128 4.979996 1.184179 11.000000 2 355.061254
-6.021765 4.955137 0.408255 17.000000 0 355.061257
-0.016741 0.017003 1.164229 26.000000 31 355.061268
-0.144484 0.125081 1.215482 17.000000 28 355.061270
-1.836314 1.599127 11.730225 11.000000 27 355.061273
-0.292044 0.244136 1.263342 32.000000 25 355.061275
-2.563246 2.119721 7.895548 6.000000 23 355.061278
-2.976835 2.460882 7.142460 9.000000 21 355.061280
-3.483721 2.879920 6.711122 12.000000 19 355.061283
-3.006101 2.485083 4.744648 10.000000 17 355.061286
-0.060112 0.056435 1.262306 13.000000 30 355.061293
-0.109513 0.099049 1.332151 7.000000 29 355.061296
-2.817252 2.338067 10.010085 10.000000 24 355.061301
-3.258285 2.702176 8.812385 5.000000 22 355.061304
-3.308118 2.742537 7.098934 10.000000 20 355.061306
-5.173961 4.289393 8.970903 6.000000 18 355.061309
-4.314578 3.557918 5.575380 10.000000 15 355.061269
-3.891752 3.209247 4.148279 7.000000 13 355.061271
-3.940105 3.250276 3.433376 10.000000 11 355.061274
-4.037149 3.330333 2.824905 8.000000 9 355.061277
-0.461894 0.381159 0.330272 7.000000 7 355.061279
-0.551501 0.455266 0.300013 4.000000 5 355.061282
-5.996768 4.950386 1.567810 9.000000 3 355.061284
-6.043941 4.991102 0.795266 9.000000 1 355.061287
-4.715850 3.901281 5.530397 11.000000 14 355.061295
-3.673909 3.039315 3.555427 73.000000 12 355.061297
-3.957163 3.274806 3.102793 9.000000 10 355.061300
-0.502433 0.415941 0.316032 5.000000 6 355.061305
-6.036707 5.001098 1.184179 9.000000 2 355.061310
-6.012125 4.982502 0.408658 18.000000 0 355.061313
-0.016707 0.017097 1.169229 28.000000 31 355.061323
-1.829955 1.604856 11.725329 16.000000 27 355.061328
-0.291190 0.245154 1.263342 32.000000 25 355.061331
-2.557332 2.129906 7.900151 5.000000 23 355.061333
-2.968227 2.471259 7.142460 8.000000 21 355.061336
-3.475810 2.893864 6.715254 12.000000 19 355.061339
-2.967843 2.470946 4.698604 6.000000 17 355.061341
-0.059914 0.056644 1.262306 12.000000 30 355.061349
-0.109166 0.099431 1.332151 7.000000 29 355.061351
-2.809074 2.347887 10.010085 10.000000 24 355.061357
-3.205376 2.677236 8.695363 4.000000 22 355.061359
-3.330556 2.780812 7.167189 9.000000 20 355.061362
-5.112686 4.268795 8.891113 6.000000 18 355.061364
-4.302132 3.572957 5.575380 10.000000 15 355.061324
-3.847584 3.195454 4.113763 8.000000 13 355.061327
-3.899790 3.239961 3.408703 7.000000 11 355.061330
-3.970978 3.299108 2.787817 8.000000 9 355.061332
-0.460561 0.382769 0.330272 7.000000 7 355.061335
-0.549909 0.457189 0.300013 4.000000 5 355.061337
-5.941679 4.939885 1.558484 9.000000 3 355.061340
-6.026482 5.012169 0.795266 8.000000 1 355.061342
-4.705072 3.920108 5.533722 11.000000 14 355.061350
-3.635329 3.028835 3.528938 75.000000 12 355.061353
-3.892719 3.244435 3.062274 11.000000 10 355.061355
-0.500978 0.417692 0.316032 5.000000 6 355.061360
-5.954572 4.968206 1.172452 10.000000 2 355.061365
-5.983189 4.993854 0.408054 11.000000 0 355.061368
-0.016647 0.017155 1.169229 28.000000 31 355.061379
-1.824342 1.611234 11.725329 28.000000 27 355.061384
-0.290332 0.246169 1.263342 32.000000 25 355.061386
-2.527430 2.119987 7.831113 5.000000 23 355.061389
-2.959583 2.481605 7.142460 8.000000 21 355.061391
-3.459218 2.900554 6.702855 11.000000 19 355.061394
-2.946916 2.470991 4.679420 5.000000 17 355.061397
-0.059716 0.056853 1.262306 13.000000 30 355.061404
-0.108819 0.099811 1.332151 7.000000 29 355.061407
-2.800861 2.357678 10.010085 10.000000 24 355.061412
-3.466036 2.915556 7.478602 7.000000 20 355.061417
-5.050877 4.248702 8.811324 6.000000 18 355.061420
-3.907986 3.287324 5.614367 6.000000 16 355.061422
-4.289634 3.587953 5.575380 10.000000 15 355.061380
-3.806546 3.183889 4.082385 9.000000 13 355.061383
-3.856387 3.226721 3.381288 7.000000 11 355.061385
-3.922062 3.281677 2.762319 10.000000 9 355.061388
-0.459222 0.384374 0.330272 7.000000 7 355.061390
-0.548309 0.459105 0.300013 4.000000 5 355.061393
-5.855749 4.904852 1.541696 9.000000 3 355.061395
-5.939362 4.976651 0.787234 9.000000 1 355.061398
-4.690673 3.937327 5.533722 11.000000 14 355.061406
-3.593244 3.016152 3.499507 73.000000 12 355.061408
-3.870897 3.250364 3.054676 8.000000 10 355.061411
-0.499443 0.419525 0.316032 5.000000 6 355.061416
-5.879460 4.942199 1.162105 12.000000 2 355.061421
-5.969545 5.017924 0.408255 9.000000 0 355.061424
-0.016559 0.017180 1.164229 27.000000 31 355.061434
-1.817664 1.617233 11.720434 19.000000 27 355.061439
-0.289428 0.247231 1.263342 32.000000 25 355.061442
-2.500244 2.112844 7.771281 11.000000 23 355.061444
-2.950467 2.492435 7.142460 9.000000 21 355.061447
-3.450713 2.915030 6.706988 11.000000 19 355.061450
-2.925595 2.471431 4.660234 7.000000 17 355.061452
-0.059508 0.057071 1.262306 12.000000 30 355.061460
-0.108452 0.100209 1.332151 7.000000 29 355.061462
-0.231718 0.200685 1.216966 4.000000 26 355.061465
-2.793517 2.369044 10.014777 10.000000 24 355.061468
-2.755840 2.335446 7.529648 5.000000 22 355.061470
-3.499616 2.964725 7.572453 8.000000 20 355.061473
-5.006119 4.240980 8.759459 6.000000 18 355.061475
-3.899074 3.303137 5.618042 11.000000 16 355.061478
-4.276455 3.603651 5.575380 10.000000 15 355.061435
-3.815761 3.216578 3.356615 8.000000 11 355.061441
-3.865974 3.258910 2.732184 10.000000 9 355.061443
-0.457810 0.386055 0.330272 7.000000 7 355.061446
-0.542956 0.458019 0.298603 4.000000 5 355.061448
-5.782271 4.877752 1.527707 9.000000 3 355.061451
-5.872476 4.955600 0.781433 10.000000 1 355.061453
-4.674049 3.951266 5.530397 11.000000 14 355.061461
-3.554913 3.005191 3.473018 68.000000 12 355.061464
-3.829899 3.238801 3.031884 8.000000 10 355.061466
-0.497976 0.421266 0.316032 5.000000 6 355.061471
-5.801698 4.911497 1.151068 13.000000 2 355.061477
-5.893926 4.991339 0.405232 9.000000 0 355.061479
-0.016499 0.017238 1.164229 27.000000 31 355.061490
-0.288563 0.248240 1.263342 32.000000 25 355.061497
-2.486903 2.116493 7.752871 23.000000 23 355.061500
-2.943573 2.504272 7.146849 9.000000 21 355.061503
-3.446947 2.932527 6.719387 11.000000 19 355.061505
-2.877881 2.448390 4.598844 13.000000 17 355.061508
-0.059308 0.057279 1.262306 17.000000 30 355.061515
-0.108102 0.100587 1.332151 7.000000 29 355.061518
-0.233859 0.203974 1.231483 6.000000 26 355.061521
-2.785230 2.378781 10.014777 10.000000 24 355.061523
-2.732763 2.332327 7.489141 6.000000 22 355.061526
-3.520991 3.004007 7.640708 9.000000 20 355.061528
-4.933964 4.209524 8.659722 6.000000 18 355.061531
-3.895257 3.323328 5.629068 11.000000 16 355.061533
-4.261130 3.616249 5.571876 10.000000 15 355.061491
-3.483889 2.956638 3.765470 34.000000 13 355.061494
-3.772634 3.202817 3.329200 8.000000 11 355.061496
-3.844443 3.263783 2.725230 10.000000 9 355.061499
-0.459993 0.390652 0.332145 7.000000 7 355.061501
-0.552322 0.469229 0.302831 4.000000 5 355.061504
-5.705312 4.847019 1.512785 9.000000 3 355.061506
-5.805810 4.934144 0.775632 10.000000 1 355.061509
-4.657385 3.965137 5.527072 8.000000 14 355.061517
-3.513624 2.991379 3.443587 52.000000 12 355.061519
-3.805442 3.240969 3.021755 8.000000 10 355.061522
-0.496502 0.423002 0.316032 5.000000 6 355.061527
-5.720455 4.877100 1.139341 12.000000 2 355.061532
-5.827051 4.969738 0.402612 10.000000 0 355.061535
-0.016414 0.017259 1.159229 25.000000 31 355.061545
-0.141102 0.126568 1.205603 4.000000 28 355.061548
-0.287695 0.249246 1.263342 32.000000 25 355.061553
-2.470599 2.117533 7.725255 60.000000 23 355.061555
-2.934814 2.514531 7.146849 9.000000 21 355.061558
-3.436689 2.944542 6.719387 7.000000 19 355.061560
-2.847407 2.439647 4.564311 49.000000 17 355.061563
-0.059312 0.057690 1.267298 27.000000 30 355.061571
-0.107362 0.100597 1.327180 7.000000 29 355.061573
-0.235979 0.207281 1.246001 10.000000 26 355.061576
-2.776910 2.388489 10.014777 10.000000 24 355.061578
-2.708090 2.327657 7.444132 6.000000 22 355.061581
-3.510484 3.016279 7.640708 9.000000 20 355.061583
-4.846088 4.163867 8.532059 5.000000 18 355.061586
-3.873347 3.328067 5.614367 10.000000 16 355.061589
-4.245770 3.628784 5.568371 9.000000 15 355.061546
-3.458751 2.956135 3.749781 41.000000 13 355.061549
-3.726470 3.186076 3.299044 9.000000 11 355.061551
-3.826292 3.271425 2.720594 10.000000 9 355.061554
-0.458627 0.392255 0.332145 7.000000 7 355.061557
-0.536100 0.458679 0.297194 4.000000 5 355.061559
-5.624905 4.812615 1.496931 9.000000 3 355.061562
-5.739367 4.912283 0.769832 11.000000 1 355.061564
-3.469407 2.974685 3.411212 38.000000 12 355.061575
-3.754836 3.220551 2.991366 8.000000 10 355.061577
-0.495023 0.424732 0.316032 6.000000 6 355.061582
-5.654552 4.855099 1.130373 11.000000 2 355.061587
-5.756610 4.944475 0.399791 11.000000 0 355.061590
-0.016354 0.017316 1.159229 25.000000 31 355.061601
-0.138358 0.124972 1.185846 7.000000 28 355.061603
-0.287948 0.251231 1.268114 32.000000 25 355.061608
-2.469108 2.131250 7.743665 35.000000 23 355.061611
-2.926019 2.524760 7.146849 9.000000 21 355.061613
-2.838874 2.449572 4.564311 49.000000 17 355.061618
-0.058907 0.057691 1.262306 34.000000 30 355.061626
-0.107010 0.100971 1.327180 7.000000 29 355.061629
-0.242787 0.214775 1.284714 6.000000 26 355.061631
-2.768556 2.398168 10.014777 10.000000 24 355.061634
-2.671958 2.312866 7.367618 7.000000 22 355.061636
-3.495990 3.025101 7.632176 9.000000 20 355.061639
-3.866834 3.346004 5.621718 10.000000 16 355.061644
-4.230375 3.641256 5.564867 9.000000 15 355.061602
-3.410056 2.935175 3.708989 60.000000 13 355.061604
-3.680472 3.169053 3.268888 9.000000 11 355.061607
-3.814849 3.284761 2.720594 10.000000 9 355.061609
-0.457255 0.393853 0.332145 7.000000 7 355.061612
-0.523593 0.451153 0.292967 4.000000 5 355.061615
-5.541086 4.774502 1.480144 10.000000 3 355.061617
-5.669375 4.886766 0.763585 11.000000 1 355.061620
-3.434528 2.965644 3.387666 34.000000 12 355.061630
-3.701158 3.197002 2.958444 9.000000 10 355.061633
-0.493537 0.426458 0.316032 6.000000 6 355.061638
-4.556227 3.938380 1.543254 2.000000 4 355.061640
-5.596364 4.839178 1.122785 10.000000 2 355.061643
-5.690196 4.922050 0.397171 11.000000 0 355.061645
-0.016293 0.017373 1.159229 26.000000 31 355.061656
-0.140215 0.127550 1.205603 10.000000 28 355.061659
-0.287070 0.252234 1.268114 32.000000 25 355.061664
-2.917188 2.534959 7.146849 9.000000 21 355.061669
-0.058705 0.057897 1.262306 41.000000 30 355.061682
-0.106657 0.101344 1.327180 7.000000 29 355.061684
-0.241097 0.214784 1.279875 6.000000 26 355.061687
-2.761468 2.408951 10.019470 10.000000 24 355.061689
-2.644169 2.305007 7.313608 7.000000 22 355.061692
-2.719623 2.369958 4.849752 15.000000 18 355.061697
-3.855130 3.359481 5.621718 10.000000 16 355.061700
-4.214944 3.653665 5.561362 10.000000 15 355.061657
-3.379198 2.929212 3.687025 52.000000 13 355.061660
-3.628319 3.146268 3.233249 9.000000 11 355.061662
-3.810054 3.303863 2.725230 10.000000 9 355.061665
-0.459379 0.398485 0.334018 7.000000 7 355.061668
-5.461315 4.739084 1.464289 10.000000 3 355.061673
-5.603392 4.864088 0.757784 11.000000 1 355.061675
-3.372303 2.932525 3.337633 25.000000 12 355.061686
-3.637932 3.164629 2.917925 9.000000 10 355.061688
-0.495608 0.431278 0.317675 5.000000 6 355.061693
-4.560782 3.970218 1.549116 8.000000 4 355.061696
-5.530888 4.816404 1.113818 10.000000 2 355.061698
-5.624008 4.899222 0.394551 11.000000 0 355.061701
-0.016233 0.017430 1.159229 26.000000 31 355.061712
-0.142629 0.130669 1.230299 13.000000 28 355.061714
-0.286187 0.253235 1.268114 32.000000 25 355.061719
-2.908321 2.545126 7.146849 10.000000 21 355.061724
-4.693190 4.107113 9.232219 5.000000 19 355.061727
-0.058300 0.057894 1.257315 43.000000 30 355.061737
-0.106303 0.101716 1.327180 7.000000 29 355.061740
-0.243153 0.218146 1.294393 9.000000 26 355.061742
-2.751746 2.417437 10.014777 10.000000 24 355.061745
-2.608286 2.289798 7.237094 8.000000 22 355.061747
-2.702272 2.371485 4.833794 25.000000 18 355.061753
-3.843380 3.372918 5.621718 10.000000 16 355.061755
-4.199478 3.666010 5.557858 10.000000 15 355.061713
-3.345492 2.920509 3.661923 30.000000 13 355.061715
-3.598417 3.142411 3.216800 9.000000 11 355.061718
-3.801835 3.320056 2.727548 10.000000 9 355.061721
-0.457985 0.400086 0.334018 7.000000 7 355.061723
-5.367062 4.690238 1.444704 12.000000 3 355.061728
-5.537638 4.841007 0.751983 11.000000 1 355.061731
-3.458162 3.028448 4.173859 10.000000 14 355.061739
-3.340761 2.925638 3.317031 13.000000 12 355.061741
-3.610649 3.163104 2.905263 9.000000 10 355.061744
-0.497651 0.436118 0.319318 5.000000 6 355.061749
-4.565171 4.002135 1.554978 13.000000 4 355.061751
-5.465640 4.793234 1.104850 10.000000 2 355.061754
-5.558050 4.875992 0.391931 12.000000 0 355.061756
-0.016196 0.017523 1.164229 26.000000 31 355.061767
-0.140462 0.129582 1.215482 6.000000 28 355.061770
-0.286417 0.255226 1.272886 32.000000 25 355.061775
-2.899420 2.555263 7.146849 10.000000 21 355.061780
-4.645046 4.093701 9.166092 5.000000 19 355.061782
-0.058097 0.058098 1.257315 43.000000 30 355.061793
-0.105947 0.102086 1.327180 7.000000 29 355.061795
-0.243323 0.219837 1.299232 11.000000 26 355.061798
-2.745876 2.429315 10.024163 10.000000 24 355.061800
-2.598645 2.297446 7.232593 9.000000 22 355.061803
-3.088912 2.729940 6.813117 8.000000 20 355.061806
-2.678169 2.366931 4.805868 20.000000 18 355.061808
-3.831583 3.386313 5.621718 10.000000 16 355.061811
-4.200047 3.692420 5.575380 11.000000 15 355.061768
-3.291422 2.893614 3.614856 14.000000 13 355.061771
-3.562307 3.132862 3.194868 8.000000 11 355.061773
-3.793550 3.336232 2.729866 10.000000 9 355.061776
-0.456586 0.401682 0.334018 7.000000 7 355.061779
-5.328533 4.689472 1.439108 11.000000 3 355.061784
-5.472113 4.817527 0.746183 11.000000 1 355.061786
-3.427965 3.023210 4.150585 9.000000 14 355.061794
-3.348717 2.953323 3.334690 6.000000 12 355.061797
-3.573722 3.152870 2.885004 9.000000 10 355.061799
-0.496126 0.437852 0.319318 5.000000 6 355.061804
-4.551173 4.018046 1.554978 12.000000 4 355.061807
-5.396908 4.766388 1.095193 13.000000 2 355.061809
-5.492323 4.852363 0.389311 12.000000 0 355.061812
-0.016158 0.017616 1.169229 27.000000 31 355.061823
-0.140008 0.130071 1.215482 5.000000 28 355.061825
-0.285524 0.256224 1.272886 32.000000 25 355.061830
-2.890483 2.565368 7.146849 10.000000 21 355.061835
-4.578112 4.063192 9.062768 4.000000 19 355.061838
-0.057894 0.058300 1.257315 44.000000 30 355.061848
-0.105971 0.102829 1.332151 7.000000 29 355.061851
-0.243484 0.221532 1.304071 11.000000 26 355.061853
-2.736090 2.437737 10.019470 10.000000 24 355.061856
-2.579224 2.296367 7.201087 14.000000 22 355.061859
-3.057935 2.721632 6.766191 13.000000 20 355.061861
-2.660885 2.368250 4.789909 16.000000 18 355.061864
-3.819739 3.399667 5.621718 10.000000 16 355.061866
-4.200484 3.718878 5.592903 10.000000 15 355.061824
-3.295875 2.917989 3.630545 6.000000 13 355.061826
-3.526307 3.123099 3.172936 9.000000 11 355.061829
-3.781881 3.349454 2.729866 10.000000 9 355.061832
-0.455181 0.403274 0.334018 7.000000 7 355.061834
-5.275369 4.675462 1.429782 12.000000 3 355.061839
-5.410547 4.796954 0.740828 10.000000 1 355.061842
-3.403430 3.022759 4.133961 9.000000 14 355.061850
-3.338388 2.964995 3.334690 6.000000 12 355.061852
-3.540134 3.145282 2.867277 9.000000 10 355.061855
-0.498124 0.442719 0.320961 5.000000 6 355.061860
-4.540752 4.037138 1.556150 13.000000 4 355.061862
-5.309931 4.722668 1.082086 13.000000 2 355.061865
-5.430562 4.831654 0.386893 12.000000 0 355.061867
-0.016097 0.017673 1.169229 27.000000 31 355.061878
-0.139553 0.130559 1.215482 6.000000 28 355.061881
-0.284628 0.257219 1.272886 33.000000 25 355.061886
-2.881566 2.576389 9.165845 5.000000 23 355.061888
-2.881510 2.575442 7.146849 11.000000 21 355.061891
-4.524037 4.043518 8.984242 4.000000 19 355.061893
-3.486487 3.116171 5.673188 4.000000 17 355.061896
-0.057690 0.058502 1.257315 45.000000 30 355.061904
-0.105612 0.103198 1.332151 7.000000 29 355.061906
-0.243636 0.223231 1.308910 11.000000 26 355.061909
-2.724996 2.444968 10.010085 9.000000 24 355.061911
-2.556600 2.292272 7.160580 10.000000 22 355.061914
-3.044532 2.728809 6.757659 12.000000 20 355.061917
-3.810373 3.415242 5.625392 11.000000 16 355.061922
-4.184814 3.731144 5.589398 10.000000 15 355.061879
-3.294386 2.937248 3.639959 6.000000 13 355.061882
-3.487299 3.110340 3.148263 9.000000 11 355.061885
-3.773473 3.365584 2.732184 10.000000 9 355.061887
-0.453771 0.404860 0.334018 7.000000 7 355.061890
-5.211373 4.651325 1.417658 12.000000 3 355.061895
-5.349192 4.776011 0.735474 11.000000 1 355.061897
-3.362240 3.007236 4.097388 8.000000 14 355.061905
-3.328018 2.976630 3.334690 7.000000 12 355.061908
-3.503430 3.134623 2.847018 9.000000 10 355.061910
-0.496576 0.444455 0.320961 5.000000 6 355.061915
-4.526632 4.052963 1.556150 14.000000 4 355.061918
-5.263903 4.714741 1.076568 12.000000 2 355.061920
-5.369013 4.810575 0.384475 12.000000 0 355.061923
-0.016035 0.017729 1.169229 27.000000 31 355.061934
-0.139661 0.131579 1.220421 6.000000 28 355.061936
-0.284832 0.259217 1.277657 33.000000 25 355.061941
-2.865295 2.579896 9.142833 5.000000 23 355.061944
-2.877845 2.590293 7.160015 11.000000 21 355.061946
-4.486887 4.038577 8.938780 4.000000 19 355.061949
-3.487503 3.139045 5.692373 7.000000 17 355.061952
-0.057686 0.058912 1.262306 46.000000 30 355.061959
-0.104872 0.103190 1.327180 7.000000 29 355.061962
-0.243779 0.224934 1.313750 12.000000 26 355.061964
-2.546967 2.299722 7.156079 9.000000 22 355.061970
-3.033052 2.737672 6.753394 11.000000 20 355.061972
-3.798429 3.428522 5.625392 11.000000 16 355.061977
-4.179726 3.752877 5.599913 10.000000 15 355.061935
-3.284113 2.948729 3.639959 7.000000 13 355.061937
-3.451534 3.100141 3.126331 9.000000 11 355.061940
-3.751813 3.369854 2.725230 10.000000 9 355.061943
-0.452355 0.406441 0.334018 7.000000 7 355.061945
-5.162225 4.639934 1.409264 12.000000 3 355.061950
-5.284346 4.751367 0.729673 11.000000 1 355.061953
-3.351722 3.018954 4.097388 8.000000 14 355.061961
-3.320610 2.990933 3.337633 8.000000 12 355.061963
-3.470047 3.126631 2.829291 9.000000 10 355.061966
-0.368347 0.331890 0.316664 3.000000 8 355.061968
-0.498529 0.449347 0.322603 5.000000 6 355.061971
-4.508848 4.065485 1.554978 13.000000 4 355.061973
-5.214317 4.703235 1.070359 12.000000 2 355.061976
-5.303968 4.785778 0.381855 12.000000 0 355.061979
-0.015973 0.017784 1.169229 27.000000 31 355.061989
-0.139764 0.132602 1.225360 7.000000 28 355.061992
-2.327957 2.221756 15.494655 6.000000 27 355.061994
-0.283926 0.260210 1.277657 33.000000 25 355.061997
-2.822985 2.559699 9.036975 4.000000 23 355.061999
-2.888311 2.618021 7.208290 10.000000 21 355.062002
-4.439404 4.023976 8.872653 4.000000 19 355.062005
-3.459897 3.136129 5.665514 10.000000 17 355.062007
-0.057480 0.059113 1.262306 49.000000 30 355.062015
-0.104511 0.103555 1.327180 7.000000 29 355.062017
-0.243913 0.226640 1.318589 12.000000 26 355.062020
-2.162854 1.968015 8.006273 7.000000 24 355.062023
-2.545368 2.314459 7.174082 10.000000 22 355.062025
-3.025407 2.749997 6.757659 11.000000 20 355.062028
-3.383081 3.075116 6.126391 4.000000 18 355.062030
-3.786438 3.441760 5.625392 11.000000 16 355.062033
-4.161310 3.762661 5.592903 9.000000 15 355.061990
-3.276687 2.962785 3.643096 6.000000 13 355.061993
-3.415883 3.089731 3.104400 8.000000 11 355.061996
-3.756456 3.397789 2.736820 11.000000 9 355.061998
-0.450933 0.408018 0.334018 7.000000 7 355.062001
-5.109579 4.624960 1.399938 12.000000 3 355.062006
-5.219737 4.726330 0.723872 11.000000 1 355.062008
-3.307972 3.000528 4.057489 8.000000 14 355.062016
-3.310150 3.002506 3.337633 8.000000 12 355.062019
-3.433569 3.115548 2.809031 9.000000 10 355.062021
-0.377269 0.342324 0.322958 4.000000 8 355.062024
-0.489964 0.444736 0.319318 6.000000 6 355.062026
-4.494629 4.081198 1.554978 13.000000 4 355.062029
-5.164877 4.691441 1.064151 11.000000 2 355.062031
-5.242861 4.763946 0.379436 11.000000 0 355.062034
-0.015887 0.017803 1.164229 25.000000 31 355.062045
-0.140421 0.134165 1.235239 7.000000 28 355.062047
-2.319454 2.229162 15.489758 7.000000 27 355.062050
-0.283016 0.261199 1.277657 33.000000 25 355.062052
-2.805377 2.561633 9.009359 5.000000 23 355.062055
-4.398311 4.014785 8.818924 5.000000 19 355.062060
-3.446561 3.146026 5.661677 10.000000 17 355.062063
-0.057471 0.059525 1.267298 51.000000 30 355.062070
-0.104149 0.103920 1.327180 7.000000 29 355.062073
-0.244039 0.228350 1.323428 13.000000 26 355.062075
-2.149610 1.969723 7.982810 11.000000 24 355.062078
-2.537274 2.323330 7.174082 11.000000 22 355.062081
-3.015790 2.760541 6.757659 11.000000 20 355.062083
-3.354541 3.070627 6.094476 6.000000 18 355.062086
-3.776901 3.457246 5.629068 11.000000 16 355.062088
-3.269204 2.976826 3.646234 6.000000 13 355.062049
-3.380347 3.079109 3.082468 8.000000 11 355.062051
-3.921431 3.571979 2.861994 12.000000 9 355.062054
-0.452933 0.412712 0.335891 7.000000 7 355.062056
-5.060729 4.612986 1.391545 12.000000 3 355.062061
-5.155369 4.700900 0.718071 11.000000 1 355.062064
-3.264392 2.981834 4.017591 9.000000 14 355.062072
-3.305618 3.019495 3.343519 9.000000 12 355.062074
-3.400395 3.107157 2.791304 10.000000 10 355.062077
-0.396175 0.362007 0.335546 4.000000 8 355.062079
-0.491894 0.449630 0.320961 5.000000 6 355.062082
-4.476768 4.093583 1.553805 14.000000 4 355.062084
-5.111929 4.676016 1.057253 11.000000 2 355.062087
-5.181971 4.741747 0.377018 11.000000 0 355.062090
-0.015825 0.017859 1.164229 25.000000 31 355.062100
-0.141629 0.136274 1.250056 8.000000 28 355.062103
-2.318243 2.243619 15.533816 6.000000 27 355.062105
-0.282102 0.262185 1.277657 34.000000 25 355.062108
-3.056926 2.809982 7.673488 8.000000 21 355.062113
-4.357338 4.005357 8.765196 5.000000 19 355.062116
-3.440279 3.162377 5.669351 10.000000 17 355.062118
-0.057263 0.059725 1.267298 59.000000 30 355.062126
-0.103786 0.104282 1.327180 7.000000 29 355.062128
-0.244155 0.230064 1.328267 14.000000 26 355.062131
-2.138917 1.973704 7.968731 10.000000 24 355.062134
-2.530750 2.333649 7.178583 11.000000 22 355.062136
-3.008053 2.772819 6.761926 12.000000 20 355.062139
-3.312777 3.053719 6.038622 7.000000 18 355.062141
-3.764811 3.470409 5.629068 11.000000 16 355.062144
-3.167661 2.904651 4.303230 3.000000 15 355.062101
-3.267401 2.996113 3.655647 6.000000 13 355.062104
-3.344927 3.068277 3.060536 8.000000 11 355.062107
-3.941586 3.615593 2.885174 10.000000 9 355.062109
-0.451489 0.414290 0.335891 7.000000 7 355.062112
-5.015646 4.604048 1.384084 12.000000 3 355.062117
-5.076570 4.661605 0.710486 9.000000 1 355.062119
-3.220982 2.962872 3.977693 9.000000 14 355.062127
-3.303982 3.039225 3.352349 9.000000 12 355.062130
-3.367321 3.098573 2.773577 11.000000 10 355.062132
-0.384890 0.354169 0.329252 4.000000 8 355.062135
-0.479898 0.441750 0.316032 4.000000 6 355.062137
-4.455301 4.102599 1.551461 13.000000 4 355.062140
-5.055509 4.656924 1.049665 11.000000 2 355.062143
-5.124974 4.722566 0.374801 11.000000 0 355.062145
-0.015763 0.017914 1.164229 24.000000 31 355.062156
-0.142823 0.138393 1.264874 9.000000 28 355.062158
-2.303106 2.244590 15.484863 5.000000 27 355.062161
-0.281186 0.263168 1.277657 34.000000 25 355.062163
-3.068196 2.840165 7.726151 9.000000 21 355.062169
-4.314420 3.993780 8.707335 6.000000 19 355.062171
-3.431572 3.176544 5.673188 10.000000 17 355.062174
-0.056857 0.059712 1.262306 62.000000 30 355.062181
-0.103421 0.104644 1.327180 7.000000 29 355.062184
-0.243350 0.230914 1.328267 15.000000 26 355.062187
-2.118109 1.968237 7.917112 6.000000 24 355.062189
-2.522588 2.342469 7.178583 10.000000 22 355.062192
-3.011735 2.795722 6.791787 10.000000 20 355.062194
-3.284426 3.048860 6.006707 8.000000 18 355.062197
-3.752674 3.483529 5.629068 11.000000 16 355.062199
-3.152263 2.910852 4.296221 8.000000 15 355.062157
-3.236902 2.989013 3.633683 6.000000 13 355.062160
-3.309624 3.057237 3.038604 9.000000 11 355.062162
-3.915924 3.617305 2.875902 9.000000 9 355.062165
-0.453445 0.419010 0.337764 7.000000 7 355.062167
-2.804376 2.592335 1.211762 8.000000 5 355.062170
-4.963473 4.588183 1.374757 13.000000 3 355.062172
-5.038329 4.659011 0.707809 9.000000 1 355.062175
-3.180485 2.946182 3.941119 9.000000 14 355.062183
-3.254805 3.015030 3.314087 8.000000 12 355.062185
-3.346997 3.101517 2.765980 12.000000 10 355.062188
-0.390309 0.361680 0.333448 5.000000 8 355.062190
-4.440953 4.118127 1.551461 12.000000 4 355.062195
