# .PCD v.7 - Point Cloud Data file format
VERSION .7
FIELDS x y z intensity ring timestamp
SIZE 4 4 4 4 2 8
TYPE F F F F U D
COUNT 1 1 1 1 1 1
WIDTH 928
HEIGHT 1
VIEWPOINT 0 0 0 1 0 0 0
POINTS 928
DATA ascii
-0.257615 0.378633 0.384865 13.000000 11 355.566022
-2.173892 3.195181 2.108635 11.000000 9 355.566024
-2.185224 3.213042 1.658252 10.000000 7 355.566027
-2.174119 3.197914 1.225854 10.000000 5 355.566030
-2.181824 3.209247 0.828242 12.000000 3 355.566032
-1.872551 2.755370 0.391446 12.000000 1 355.566035
-1.894964 2.793582 3.086633 10.000000 14 355.566042
-2.188807 3.226776 2.922647 11.000000 12 355.566045
-2.135093 3.148777 1.846144 11.000000 8 355.566050
-2.167723 3.198101 1.433058 11.000000 6 355.566053
-2.173074 3.207201 1.025090 12.000000 4 355.566055
-2.171627 3.206270 0.631637 12.000000 2 355.566058
-1.868069 2.759122 0.228087 11.000000 0 355.566060
-0.011702 0.022412 1.329223 6.000000 31 355.566071
-1.276627 1.999323 15.079979 48.000000 28 355.566074
-1.741481 2.733880 15.607244 8.000000 27 355.566076
-1.406520 2.113589 8.158482 8.000000 25 355.566079
-1.872253 2.779877 7.955382 9.000000 23 355.566081
-1.498161 2.223598 4.978850 6.000000 21 355.566084
-2.244138 3.330810 5.971323 9.000000 19 355.566086
-1.833604 2.721484 4.004117 8.000000 17 355.566089
-0.048100 0.082480 1.486929 7.000000 30 355.566097
-1.167610 1.931110 20.969225 19.000000 29 355.566099
-1.462616 2.232217 10.304993 9.000000 26 355.566102
-1.521604 2.267762 7.480684 9.000000 24 355.566104
-2.358502 3.512437 8.807884 6.000000 22 355.566107
-1.997620 2.973869 5.930068 8.000000 20 355.566110
-1.819887 2.709281 4.394949 9.000000 18 355.566112
-1.830519 2.725114 3.637128 9.000000 16 355.566115
-1.846832 2.733908 3.321957 8.000000 15 355.566072
-2.148137 3.179944 3.175567 9.000000 13 355.566075
-0.256292 0.379530 0.384865 7.000000 11 355.566077
-2.162726 3.202750 2.108635 11.000000 9 355.566080
-2.163620 3.205280 1.650760 11.000000 7 355.566083
-2.152210 3.189577 1.220217 10.000000 5 355.566085
-2.159618 3.200555 0.824512 12.000000 3 355.566088
-1.854567 2.749504 0.390107 12.000000 1 355.566090
-1.887287 2.803277 3.089958 10.000000 14 355.566098
-2.182045 3.241102 2.928534 11.000000 12 355.566101
-2.139293 3.178803 1.858732 13.000000 8 355.566106
-2.146002 3.189975 1.426487 12.000000 6 355.566108
-2.153728 3.202666 1.021573 12.000000 4 355.566111
-2.152133 3.201501 0.629567 12.000000 2 355.566113
-1.850067 2.753186 0.227482 11.000000 0 355.566116
-0.011624 0.022453 1.329223 6.000000 31 355.566127
-1.264235 1.995233 15.015768 53.000000 28 355.566129
-1.396664 2.114747 8.144166 7.000000 25 355.566134
-1.862538 2.786395 7.955382 9.000000 23 355.566137
-1.491722 2.230806 4.983238 5.000000 21 355.566139
-2.232498 3.338623 5.971323 9.000000 19 355.566142
-1.816965 2.717208 3.988769 8.000000 17 355.566144
-0.047812 0.082648 1.486929 7.000000 30 355.566152
-1.159764 1.933343 20.949341 20.000000 29 355.566155
-1.451387 2.232036 10.280796 11.000000 26 355.566157
-1.509852 2.267314 7.461913 10.000000 24 355.566160
-2.337773 3.507963 8.776379 6.000000 22 355.566162
-1.981440 2.972144 5.913004 8.000000 20 355.566165
-1.803732 2.705586 4.378991 9.000000 18 355.566168
-1.811594 2.717383 3.618753 9.000000 16 355.566170
-1.829334 2.728489 3.307939 8.000000 15 355.566128
-2.128353 3.174490 3.163016 9.000000 13 355.566130
-0.252638 0.376949 0.382124 7.000000 11 355.566133
-2.158932 3.221320 2.115589 11.000000 9 355.566136
-2.136937 3.189704 1.639522 12.000000 7 355.566138
-2.133055 3.185112 1.215990 10.000000 5 355.566141
-2.140232 3.195830 0.821714 11.000000 3 355.566143
-1.836647 2.743546 0.388768 12.000000 1 355.566146
-1.877490 2.809848 3.089958 10.000000 14 355.566154
-2.175209 3.255421 2.934420 12.000000 12 355.566156
-2.145829 3.212669 1.873418 15.000000 8 355.566161
-2.129610 3.189591 1.423202 12.000000 6 355.566164
-2.134441 3.198036 1.018056 12.000000 4 355.566166
-2.132700 3.196635 0.627498 12.000000 2 355.566169
-1.832130 2.747158 0.226877 11.000000 0 355.566171
-0.011545 0.022493 1.329223 6.000000 31 355.566182
-1.255195 1.996345 14.991072 58.000000 28 355.566185
-1.174397 1.872115 10.648379 4.000000 27 355.566187
-1.378631 2.103370 8.082134 6.000000 25 355.566190
-1.857120 2.799392 7.973792 9.000000 23 355.566192
-1.469354 2.214042 4.934963 6.000000 21 355.566195
-2.222386 3.348740 5.975456 9.000000 19 355.566197
-1.800378 2.712849 3.973421 8.000000 17 355.566200
-0.047523 0.082814 1.486929 7.000000 30 355.566208
-1.151643 1.935085 20.924480 22.000000 29 355.566210
-1.444269 2.238145 10.285636 11.000000 26 355.566213
-1.498123 2.266812 7.443142 14.000000 24 355.566215
-2.306293 3.487039 8.704365 6.000000 22 355.566218
-1.966736 2.972517 5.900207 7.000000 20 355.566221
-1.785961 2.699298 4.359044 9.000000 18 355.566223
-1.794614 2.712381 3.604052 9.000000 16 355.566226
-1.811896 2.722982 3.293921 9.000000 15 355.566183
-2.110790 3.172177 3.153603 9.000000 13 355.566186
-0.253636 0.381310 0.384865 9.000000 11 355.566188
-2.155035 3.239903 2.122543 11.000000 9 355.566191
-2.125790 3.197144 1.639522 14.000000 7 355.566194
-2.111302 3.176557 1.210353 11.000000 5 355.566196
-2.120906 3.191008 0.818916 11.000000 3 355.566199
-1.818791 2.737496 0.387430 13.000000 1 355.566201
-1.869734 2.819497 3.093283 10.000000 14 355.566209
-2.168300 3.269732 2.940306 11.000000 12 355.566212
-1.477864 2.229416 1.656777 1.000000 10 355.566214
-2.139617 3.227706 1.877615 14.000000 8 355.566217
-2.121072 3.200942 1.424845 15.000000 6 355.566219
-2.112528 3.189258 1.013367 13.000000 4 355.566222
-2.116061 3.195802 0.626118 12.000000 2 355.566224
-1.814257 2.741038 0.226273 11.000000 0 355.566227
-0.011466 0.022533 1.329223 7.000000 31 355.566238
-1.249864 2.003351 15.010829 57.000000 28 355.566240
-1.166779 1.874474 10.638589 7.000000 27 355.566243
-1.362323 2.094397 8.029645 10.000000 25 355.566245
-1.851635 2.812384 7.992202 10.000000 23 355.566248
-1.452392 2.205152 4.904243 10.000000 21 355.566250
-2.207588 3.351777 5.967191 10.000000 19 355.566253
-1.783844 2.708408 3.958073 9.000000 17 355.566256
-0.047234 0.082979 1.486929 7.000000 30 355.566263
-1.144882 1.939093 20.924480 24.000000 29 355.566266
-1.435769 2.242114 10.280796 11.000000 26 355.566268
-1.492094 2.274913 7.452528 9.000000 24 355.566271
-2.337126 3.560610 8.866395 5.000000 22 355.566274
-1.942033 2.957564 5.857547 8.000000 20 355.566276
-1.769911 2.695438 4.343086 9.000000 18 355.566279
-1.777692 2.707293 3.589352 9.000000 16 355.566281
-1.794519 2.717387 3.279903 9.000000 15 355.566239
-2.093268 3.169780 3.144189 10.000000 13 355.566241
-0.252303 0.382193 0.384865 9.000000 11 355.566244
-2.148594 3.254800 2.127179 10.000000 9 355.566247
-2.122277 3.216153 1.645141 14.000000 7 355.566249
-2.102842 3.187912 1.211762 15.000000 5 355.566252
-2.101640 3.186090 0.816118 12.000000 3 355.566254
-1.801000 2.731356 0.386091 13.000000 1 355.566257
-1.859881 2.826006 3.093283 10.000000 14 355.566265
-2.161317 3.284033 2.946193 11.000000 12 355.566267
-1.455856 2.212951 1.641582 5.000000 10 355.566270
-2.133326 3.242738 1.881811 13.000000 8 355.566272
-2.115075 3.216218 1.428130 15.000000 6 355.566275
-2.098713 3.192551 1.012195 16.000000 4 355.566277
-2.096734 3.190753 0.624049 12.000000 2 355.566280
-1.796449 2.734828 0.225668 11.000000 0 355.566282
-0.011388 0.022573 1.329223 6.000000 31 355.566293
-1.241637 2.005720 14.996012 53.000000 28 355.566296
-1.159694 1.877669 10.633694 10.000000 27 355.566298
-1.349334 2.090356 7.996243 15.000000 25 355.566301
-1.841806 2.818830 7.992202 11.000000 23 355.566303
-1.432889 2.192160 4.864745 17.000000 21 355.566306
-2.195875 3.359462 5.967191 10.000000 19 355.566308
-1.767363 2.703884 3.942726 8.000000 17 355.566311
-0.047083 0.083398 1.491920 7.000000 30 355.566319
-1.137297 1.941695 20.909567 26.000000 29 355.566321
-1.427934 2.247112 10.280796 12.000000 26 355.566324
-1.483203 2.278662 7.447835 9.000000 24 355.566326
-2.328249 3.574220 8.879898 5.000000 22 355.566329
-1.947360 2.988360 5.904473 11.000000 20 355.566332
-1.753909 2.691499 4.327128 9.000000 18 355.566334
-1.758977 2.699281 3.570976 9.000000 16 355.566337
-1.777203 2.711704 3.265884 9.000000 15 355.566294
-2.075789 3.167300 3.134776 11.000000 13 355.566297
-0.248676 0.379574 0.382124 8.000000 11 355.566300
-2.142076 3.269692 2.131815 10.000000 9 355.566302
-2.118656 3.235176 1.650760 14.000000 7 355.566305
-2.096957 3.203260 1.214581 14.000000 5 355.566307
-2.082435 3.181077 0.813320 14.000000 3 355.566310
-1.783274 2.725124 0.384753 13.000000 1 355.566312
-1.850005 2.832481 3.093283 10.000000 14 355.566320
-2.154262 3.298326 2.952079 11.000000 12 355.566323
-1.436338 2.199970 1.628920 13.000000 10 355.566325
-2.126956 3.257766 1.886007 13.000000 8 355.566328
-2.108997 3.231491 1.431415 15.000000 6 355.566330
-2.092867 3.207999 1.014539 15.000000 4 355.566333
-2.077467 3.185608 0.621979 14.000000 2 355.566335
-1.778707 2.728526 0.225064 11.000000 0 355.566338
-0.011309 0.022613 1.329223 7.000000 31 355.566349
-1.237067 2.014015 15.025647 48.000000 28 355.566351
-1.152069 1.879969 10.623903 15.000000 27 355.566354
-1.341224 2.093795 7.991472 22.000000 25 355.566356
-1.831955 2.825243 7.992202 11.000000 23 355.566359
-1.417405 2.185088 4.838413 28.000000 21 355.566361
-2.184134 3.367107 5.967191 9.000000 19 355.566364
-1.750935 2.699278 3.927378 8.000000 17 355.566367
-0.046792 0.083561 1.491920 7.000000 30 355.566374
-1.130512 1.945653 20.909567 27.000000 29 355.566377
-1.420082 2.252083 10.280796 12.000000 26 355.566379
-1.474303 2.282375 7.443142 9.000000 24 355.566382
-2.331127 3.606101 8.938409 6.000000 22 355.566385
-1.941165 3.001710 5.917270 12.000000 20 355.566387
-1.737957 2.687482 4.311170 9.000000 18 355.566390
-1.742180 2.694017 3.556275 9.000000 16 355.566392
-1.759949 2.705932 3.251866 9.000000 15 355.566350
-2.062598 3.171263 3.131638 11.000000 13 355.566352
-2.135478 3.284577 2.136451 11.000000 9 355.566358
-2.112403 3.250327 1.654506 13.000000 7 355.566360
-2.090989 3.218606 1.217399 13.000000 5 355.566363
-2.076670 3.196565 0.815185 15.000000 3 355.566365
-1.765614 2.718803 0.383414 13.000000 1 355.566368
-1.840106 2.838922 3.093283 10.000000 14 355.566376
-2.149330 3.316001 2.960908 10.000000 12 355.566378
-1.428650 2.204970 1.628920 13.000000 10 355.566381
-2.120507 3.272788 1.890203 13.000000 8 355.566383
-2.102839 3.246760 1.434701 14.000000 6 355.566386
-2.086940 3.223446 1.016884 15.000000 4 355.566388
-2.071716 3.201156 0.623359 14.000000 2 355.566391
-1.761031 2.722135 0.224459 11.000000 0 355.566394
-0.011217 0.022610 1.324223 7.000000 31 355.566404
-1.231242 2.020311 15.040464 40.000000 28 355.566407
-1.146557 1.885719 10.633694 23.000000 27 355.566409
-1.336310 2.102246 8.005787 35.000000 25 355.566412
-1.815739 2.821763 7.964587 10.000000 23 355.566414
-1.396802 2.169878 4.794526 36.000000 21 355.566417
-1.734561 2.694591 3.912030 8.000000 17 355.566422
-0.046500 0.083724 1.491920 7.000000 30 355.566430
-1.121848 1.946349 20.874767 27.000000 29 355.566432
-1.412212 2.257026 10.280796 12.000000 26 355.566435
-1.465396 2.286055 7.438449 9.000000 24 355.566438
-2.340867 3.649043 9.023925 6.000000 22 355.566440
-1.940536 3.023832 5.947132 12.000000 20 355.566443
-1.722054 2.683386 4.295212 9.000000 18 355.566445
-1.723611 2.685816 3.537899 9.000000 16 355.566448
-1.742757 2.700074 3.237848 9.000000 15 355.566405
-2.053627 3.181715 3.134776 11.000000 13 355.566408
-2.191068 3.395957 2.734302 2.000000 11 355.566411
-2.131206 3.303180 2.143406 10.000000 9 355.566413
-2.108583 3.269368 1.660125 13.000000 7 355.566416
-2.084940 3.233949 1.220217 12.000000 5 355.566418
-2.073484 3.216180 0.817983 13.000000 3 355.566421
-1.748020 2.712391 0.382075 13.000000 1 355.566423
-1.830185 2.845328 3.093283 10.000000 14 355.566431
-2.142116 3.330282 2.966795 10.000000 12 355.566434
-1.413949 2.199064 1.621323 19.000000 10 355.566436
-2.113979 3.287805 1.894399 13.000000 8 355.566439
-2.096599 3.262026 1.437986 14.000000 6 355.566441
-2.080930 3.238889 1.019228 14.000000 4 355.566444
-2.068558 3.220868 0.625428 13.000000 2 355.566446
-1.740722 2.711448 0.223653 11.000000 0 355.566449
-0.011138 0.022649 1.324223 7.000000 31 355.566460
-1.226192 2.027922 15.065161 34.000000 28 355.566462
-1.139968 1.889710 10.633694 26.000000 27 355.566465
-1.323387 2.098055 7.972385 64.000000 25 355.566467
-1.776439 2.781979 7.835716 8.000000 23 355.566470
-1.382770 2.164646 4.772583 42.000000 21 355.566472
-1.716516 2.687120 3.892845 8.000000 17 355.566478
-0.046071 0.083631 1.486929 7.000000 30 355.566485
-1.116637 1.953035 20.904596 25.000000 29 355.566488
-1.404325 2.261942 10.280796 11.000000 26 355.566490
-1.456481 2.289700 7.433756 9.000000 24 355.566493
-2.333962 3.666377 9.046429 6.000000 22 355.566496
-1.929969 3.030587 5.947132 12.000000 20 355.566498
-1.706201 2.679211 4.279254 9.000000 18 355.566501
-1.706941 2.680378 3.523199 9.000000 16 355.566503
-1.725627 2.694128 3.223830 9.000000 15 355.566461
-2.042508 3.188864 3.134776 10.000000 13 355.566464
-2.172436 3.393019 2.726077 3.000000 11 355.566466
-2.124440 3.318061 2.148041 10.000000 9 355.566469
-2.102156 3.284518 1.663872 13.000000 7 355.566471
-2.076225 3.245249 1.221627 12.000000 5 355.566474
-2.067540 3.231674 0.819848 13.000000 3 355.566476
-1.730492 2.705890 0.380737 13.000000 1 355.566479
-1.820242 2.851699 3.093283 10.000000 14 355.566487
-2.137002 3.347961 2.975624 10.000000 12 355.566489
-1.401627 2.196718 1.616258 20.000000 10 355.566492
-2.109813 3.306643 1.900693 13.000000 8 355.566494
-2.090279 3.277288 1.441272 14.000000 6 355.566497
-2.074837 3.254330 1.021573 14.000000 4 355.566499
-2.062625 3.236422 0.626808 13.000000 2 355.566502
-1.723194 2.704868 0.223048 11.000000 0 355.566505
-0.011059 0.022688 1.324223 7.000000 31 355.566515
-1.224301 2.040852 15.129371 28.000000 28 355.566518
-1.133364 1.893678 10.633694 22.000000 27 355.566520
-1.316055 2.102661 7.972385 70.000000 25 355.566523
-1.733256 2.735354 7.688436 5.000000 23 355.566525
-1.375206 2.169459 4.772583 36.000000 21 355.566528
-1.669661 2.633988 4.652913 4.000000 19 355.566531
-1.700260 2.682265 3.877498 8.000000 17 355.566533
-0.045793 0.083783 1.486929 7.000000 30 355.566541
-1.110154 1.956727 20.904596 23.000000 29 355.566543
-1.397476 2.267657 10.285636 11.000000 26 355.566546
-1.447959 2.293058 7.429064 9.000000 24 355.566549
-2.322313 3.676343 9.050929 6.000000 22 355.566551
-1.915199 3.030691 5.934334 14.000000 20 355.566554
-1.687178 2.669864 4.255317 9.000000 18 355.566556
-1.690797 2.674561 3.508498 9.000000 16 355.566559
-1.708560 2.688096 3.209811 9.000000 15 355.566516
-2.033452 3.199260 3.137914 10.000000 13 355.566519
-2.147125 3.379406 2.709629 6.000000 11 355.566522
-2.117597 3.332935 2.152678 10.000000 9 355.566524
-2.096225 3.299297 1.667618 13.000000 7 355.566527
-2.070595 3.260215 1.224445 13.000000 5 355.566529
-2.061512 3.247166 0.821714 13.000000 3 355.566532
-1.713031 2.699300 0.379398 13.000000 1 355.566534
-1.810277 2.858035 3.093283 10.000000 14 355.566542
-2.131791 3.365644 2.984453 10.000000 12 355.566545
-1.389720 2.194069 1.611193 28.000000 10 355.566547
-2.103694 3.321289 1.904889 13.000000 8 355.566550
-2.084452 3.292182 1.444557 13.000000 6 355.566552
-2.069233 3.269407 1.023918 14.000000 4 355.566555
-2.057177 3.251614 0.628187 12.000000 2 355.566558
-1.706204 2.697900 0.222444 11.000000 0 355.566560
-0.010983 0.022725 1.324223 7.000000 31 355.566571
-1.225077 2.057587 15.223217 21.000000 28 355.566573
-1.124479 1.893048 10.609218 21.000000 27 355.566576
-1.314592 2.115895 8.005787 68.000000 25 355.566578
-1.605594 2.552564 7.163747 5.000000 23 355.566581
-1.370556 2.178063 4.781360 11.000000 21 355.566584
-1.657920 2.634747 4.644647 11.000000 19 355.566586
-1.682819 2.674321 3.858313 8.000000 17 355.566589
-0.045366 0.083686 1.481937 7.000000 30 355.566596
-1.103317 1.960590 20.904596 22.000000 29 355.566599
-1.389552 2.272522 10.285636 11.000000 26 355.566602
-1.439946 2.298099 7.429064 9.000000 24 355.566604
-2.310109 3.684024 9.050929 6.000000 22 355.566607
-1.903752 3.034816 5.930068 12.000000 20 355.566609
-1.671908 2.665231 4.239359 10.000000 18 355.566612
-1.676046 2.671831 3.497473 9.000000 16 355.566614
-1.693928 2.684699 3.199298 9.000000 15 355.566572
-2.022832 3.205985 3.137914 10.000000 13 355.566575
-2.124754 3.368824 2.695921 8.000000 11 355.566577
-2.113623 3.351180 2.159632 10.000000 9 355.566580
-2.089640 3.314437 1.671364 12.000000 7 355.566582
-2.064318 3.275540 1.227263 12.000000 5 355.566585
-2.055971 3.262296 0.823579 12.000000 3 355.566587
-1.696106 2.692324 0.378059 13.000000 1 355.566590
-1.800789 2.864022 3.093283 10.000000 14 355.566598
-2.127073 3.382960 2.993283 10.000000 12 355.566600
-1.375171 2.187957 1.603596 32.000000 10 355.566603
-2.099333 3.340140 1.911183 13.000000 8 355.566605
-2.077972 3.307435 1.447842 13.000000 6 355.566608
-2.062978 3.284842 1.026262 14.000000 4 355.566610
-2.048447 3.262969 0.628877 12.000000 2 355.566613
-1.688809 2.691144 0.221839 11.000000 0 355.566616
-0.010913 0.022807 1.329223 7.000000 31 355.566627
-1.225821 2.076115 15.326941 18.000000 28 355.566630
-1.115467 1.893647 10.589636 18.000000 27 355.566632
-1.306045 2.119427 8.001015 36.000000 25 355.566635
-1.574511 2.523623 7.067094 9.000000 23 355.566637
-1.358758 2.176975 4.768194 6.000000 21 355.566640
-1.651232 2.645580 4.652913 9.000000 19 355.566642
-1.662821 2.664153 3.835291 9.000000 17 355.566645
-0.044925 0.083595 1.476946 7.000000 30 355.566653
-1.096644 1.965553 20.914537 18.000000 29 355.566655
-1.381213 2.277599 10.285636 11.000000 26 355.566658
-1.431513 2.303361 7.429064 9.000000 24 355.566660
-2.289690 3.681371 9.023925 5.000000 22 355.566663
-1.888483 3.035131 5.917270 12.000000 20 355.566665
-1.647799 2.648310 4.203454 9.000000 18 355.566668
-1.659078 2.666443 3.482772 9.000000 16 355.566671
-1.678401 2.681821 3.188784 9.000000 15 355.566628
-2.013133 3.216678 3.141052 10.000000 13 355.566631
-2.114610 3.380134 2.698663 10.000000 11 355.566633
-2.106025 3.366416 2.164268 10.000000 9 355.566636
-2.082394 3.329935 1.675110 13.000000 7 355.566639
-2.059927 3.295288 1.231491 12.000000 5 355.566641
-2.049208 3.278140 0.825444 12.000000 3 355.566644
-1.678310 2.685853 0.376721 13.000000 1 355.566646
-1.790280 2.870604 3.093283 10.000000 14 355.566654
-2.121076 3.401022 3.002113 10.000000 12 355.566657
-1.360300 2.182006 1.595999 26.000000 10 355.566659
-2.091878 3.355514 1.915379 12.000000 8 355.566662
-2.070831 3.323045 1.451128 13.000000 6 355.566664
-2.056065 3.300633 1.028607 14.000000 4 355.566667
-2.041709 3.278863 0.630257 12.000000 2 355.566669
-1.671014 2.684592 0.221234 10.000000 0 355.566672
-0.010833 0.022844 1.329223 7.000000 31 355.566683
-1.223278 2.088428 15.386212 17.000000 28 355.566685
-1.107309 1.894892 10.574951 15.000000 27 355.566688
-1.562607 2.524121 7.053287 11.000000 23 355.566693
-1.639024 2.646543 4.644647 8.000000 19 355.566698
-1.646759 2.659039 3.819944 9.000000 17 355.566700
-0.044632 0.083752 1.476946 7.000000 30 355.566708
-1.092876 1.974976 20.974197 17.000000 29 355.566711
-1.372606 2.281329 10.280796 12.000000 26 355.566713
-1.423464 2.308344 7.429064 10.000000 24 355.566716
-1.876506 3.039485 5.913004 11.000000 20 355.566721
-1.640127 2.656610 4.207443 9.000000 18 355.566724
-1.642636 2.660679 3.468071 10.000000 16 355.566726
-1.661504 2.675545 3.174766 9.000000 15 355.566684
-2.001893 3.223685 3.141052 10.000000 13 355.566686
-2.109414 3.398152 2.706887 10.000000 11 355.566689
-2.096598 3.377511 2.166586 10.000000 9 355.566691
-2.078091 3.349001 1.680729 12.000000 7 355.566694
-2.053470 3.310612 1.234309 12.000000 5 355.566697
-2.040342 3.289448 0.826377 12.000000 3 355.566699
-1.661052 2.678997 0.375382 11.000000 1 355.566702
-1.778284 2.873660 3.089958 10.000000 14 355.566709
-2.113445 3.415280 3.007999 10.000000 12 355.566712
-1.343603 2.172076 1.585869 12.000000 10 355.566715
-2.084928 3.370516 1.919576 12.000000 8 355.566717
-2.066670 3.342303 1.456056 13.000000 6 355.566720
-2.049642 3.316059 1.030952 14.000000 4 355.566722
-2.035458 3.294396 0.631637 12.000000 2 355.566725
-1.656382 2.681907 0.220831 10.000000 0 355.566727
-0.010753 0.022882 1.329223 8.000000 31 355.566738
-1.214809 2.090669 15.371394 15.000000 28 355.566741
-1.099157 1.896103 10.560266 16.000000 27 355.566743
-1.549696 2.522901 7.034877 11.000000 23 355.566748
-1.619463 2.635465 4.615716 7.000000 19 355.566753
-1.629075 2.651114 3.800759 8.000000 17 355.566756
-0.044340 0.083907 1.476946 7.000000 30 355.566764
-1.084949 1.976907 20.954311 15.000000 29 355.566766
-1.364634 2.286106 10.280796 11.000000 26 355.566769
-1.416298 2.314771 7.433756 10.000000 24 355.566771
-1.663486 2.716657 6.647484 4.000000 22 355.566774
-1.875421 3.061584 5.942866 14.000000 20 355.566777
-1.626121 2.654609 4.195475 9.000000 18 355.566779
-1.624485 2.651942 3.449695 10.000000 16 355.566782
-1.646542 2.672220 3.164253 10.000000 15 355.566739
-1.990628 3.230654 3.141052 10.000000 13 355.566742
-2.101925 3.412616 2.712370 10.000000 11 355.566744
-2.091766 3.396126 2.173540 10.000000 9 355.566747
-2.071249 3.364130 1.684475 12.000000 7 355.566750
-2.046929 3.325931 1.237128 12.000000 5 355.566752
-2.033997 3.304917 0.828242 11.000000 3 355.566755
-1.643862 2.672055 0.374044 11.000000 1 355.566757
-1.770196 2.883032 3.093283 10.000000 14 355.566765
-2.105741 3.429525 3.013885 10.000000 12 355.566768
-1.329247 2.165729 1.578272 3.000000 10 355.566770
-2.080272 3.389377 1.925870 12.000000 8 355.566773
-2.059930 3.357547 1.459341 12.000000 6 355.566775
-2.043137 3.331481 1.033296 14.000000 4 355.566778
-2.029122 3.309925 0.633016 12.000000 2 355.566780
-1.641790 2.679153 0.220428 10.000000 0 355.566783
-0.010673 0.022920 1.329223 8.000000 31 355.566794
-1.205177 2.090858 15.341759 15.000000 28 355.566796
-1.090502 1.896397 10.540685 17.000000 27 355.566799
-1.541897 2.529963 7.039479 11.000000 23 355.566804
-1.675110 2.747474 5.961910 5.000000 21 355.566806
-1.605859 2.633894 4.603317 7.000000 19 355.566809
-1.614805 2.648573 3.789248 8.000000 17 355.566811
-0.044047 0.084061 1.476946 7.000000 30 355.566819
-1.356646 2.290856 10.280796 11.000000 26 355.566824
-1.408210 2.319700 7.433756 10.000000 24 355.566827
-1.648340 2.713141 6.624980 9.000000 22 355.566829
-1.868787 3.074798 5.955664 12.000000 20 355.566832
-1.613714 2.655118 4.187496 8.000000 18 355.566835
-1.606414 2.643111 3.431319 10.000000 16 355.566837
-1.629764 2.665780 3.150234 10.000000 15 355.566795
-1.979338 3.237582 3.141052 10.000000 13 355.566797
-2.096541 3.430636 2.720595 10.000000 11 355.566800
-2.086828 3.414747 2.180494 9.000000 9 355.566803
-2.066743 3.383208 1.690094 12.000000 7 355.566805
-2.042808 3.345338 1.241355 11.000000 5 355.566808
-2.027568 3.320381 0.830107 11.000000 3 355.566810
-1.629335 2.669275 0.373151 12.000000 1 355.566813
-1.765950 2.898761 3.103258 10.000000 14 355.566821
-2.100065 3.447211 3.022715 10.000000 12 355.566823
-1.301498 2.137216 1.555480 2.000000 10 355.566826
-2.073149 3.404370 1.930066 12.000000 8 355.566828
-2.053108 3.372785 1.462627 12.000000 6 355.566831
-2.036549 3.346896 1.035641 14.000000 4 355.566833
-2.022703 3.325449 0.634396 12.000000 2 355.566836
-1.627237 2.676330 0.220025 10.000000 0 355.566838
-0.010581 0.022915 1.324223 8.000000 31 355.566849
-1.082362 1.897538 10.525999 23.000000 27 355.566854
-1.531035 2.531987 7.030274 11.000000 23 355.566859
-1.660549 2.745106 5.944355 7.000000 21 355.566862
-1.593742 2.634668 4.595051 8.000000 19 355.566864
-1.600572 2.645964 3.777737 8.000000 17 355.566867
-0.043753 0.084214 1.476946 7.000000 30 355.566875
-1.348641 2.295578 10.280796 11.000000 26 355.566880
-1.400994 2.326080 7.438449 11.000000 24 355.566882
-1.634362 2.711418 6.606977 5.000000 22 355.566885
-1.866123 3.094703 5.981259 10.000000 20 355.566888
-1.602880 2.658153 4.183506 8.000000 18 355.566890
-1.590176 2.637090 3.416619 9.000000 16 355.566893
-1.611201 2.656207 3.132712 10.000000 15 355.566850
-1.968025 3.244472 3.141052 10.000000 13 355.566853
-2.088889 3.445084 2.726077 10.000000 11 355.566855
-2.045036 3.372763 2.150360 6.000000 9 355.566858
-2.059727 3.398330 1.693840 12.000000 7 355.566861
-2.036090 3.360655 1.244174 11.000000 5 355.566863
-2.021056 3.335841 0.831973 12.000000 3 355.566866
-1.612268 2.662167 0.371813 12.000000 1 355.566868
-1.790591 2.962434 3.163105 10.000000 14 355.566876
-2.092201 3.461439 3.028601 10.000000 12 355.566879
-1.302948 2.156507 1.565610 2.000000 10 355.566881
-2.068294 3.423240 1.936360 11.000000 8 355.566884
-2.048646 3.392058 1.467555 13.000000 6 355.566886
-2.029877 3.362308 1.037986 14.000000 4 355.566889
-2.016200 3.340969 0.635775 11.000000 2 355.566891
-1.612724 2.673438 0.219622 10.000000 0 355.566894
-0.010501 0.022952 1.324223 8.000000 31 355.566905
-1.072725 1.895987 10.496628 25.000000 27 355.566910
-1.468283 2.478573 9.251205 3.000000 25 355.566912
-1.521182 2.535640 7.025671 11.000000 23 355.566915
-1.655888 2.759102 5.961910 8.000000 21 355.566917
-1.568607 2.613674 4.549589 8.000000 19 355.566920
-1.586377 2.643288 3.766226 8.000000 17 355.566923
-0.043459 0.084367 1.476946 7.000000 30 355.566930
-1.340620 2.300271 10.280796 11.000000 26 355.566935
-1.393751 2.332438 7.443142 11.000000 24 355.566938
-2.153560 3.601153 8.735870 3.000000 22 355.566941
-1.855309 3.101198 5.981259 9.000000 20 355.566943
-1.581213 2.643041 4.151590 8.000000 18 355.566946
-1.579220 2.639715 3.412944 9.000000 16 355.566948
-1.594564 2.649593 3.118694 10.000000 15 355.566906
-1.956688 3.251322 3.141052 9.000000 13 355.566908
-2.083317 3.463104 2.734302 10.000000 11 355.566911
-2.010413 3.341919 2.127179 5.000000 9 355.566914
-2.052630 3.413445 1.697586 11.000000 7 355.566916
-2.029289 3.375965 1.246992 11.000000 5 355.566919
-2.014461 3.351296 0.833838 12.000000 3 355.566921
-1.595271 2.654972 0.370474 12.000000 1 355.566924
-1.816730 3.029517 3.226277 10.000000 14 355.566932
-2.086342 3.479120 3.037431 10.000000 12 355.566934
-1.302062 2.172135 1.573207 2.000000 10 355.566937
-2.060999 3.438224 1.940556 11.000000 8 355.566939
-2.041648 3.407291 1.470840 12.000000 6 355.566942
-2.023124 3.377712 1.040330 14.000000 4 355.566944
-2.009613 3.356485 0.637155 11.000000 2 355.566947
-1.595685 2.666191 0.219018 11.000000 0 355.566949
-0.010421 0.022988 1.324223 8.000000 31 355.566960
-1.063609 1.895280 10.472151 25.000000 27 355.566965
-1.456596 2.478533 9.232120 5.000000 25 355.566968
-1.512322 2.540935 7.025671 11.000000 23 355.566970
-1.643796 2.760748 5.953133 9.000000 21 355.566973
-1.550836 2.604626 4.524791 8.000000 19 355.566975
-1.573860 2.643301 3.758553 8.000000 17 355.566978
-0.043164 0.084518 1.476946 7.000000 30 355.566986
-1.333212 2.306026 10.285636 11.000000 26 355.566991
-1.385601 2.337289 7.443142 11.000000 24 355.566993
-2.159866 3.640488 8.812385 4.000000 22 355.566996
-1.843141 3.105413 5.976994 9.000000 20 355.566999
-1.559671 2.627810 4.119674 9.000000 18 355.567001
-1.566536 2.639381 3.405593 9.000000 16 355.567004
-1.570679 2.630647 3.090657 8.000000 15 355.566961
-1.945327 3.258132 3.141052 8.000000 13 355.566964
-2.075502 3.477536 2.739785 10.000000 11 355.566967
-1.483343 2.485367 1.600987 3.000000 9 355.566969
-2.045453 3.428552 1.701332 11.000000 7 355.566972
-2.022407 3.391268 1.249810 11.000000 5 355.566974
-2.010299 3.370965 0.836636 12.000000 3 355.566977
-1.580894 2.651969 0.369581 12.000000 1 355.566979
-1.804235 3.032631 3.222952 10.000000 14 355.566987
-2.078318 3.493329 3.043317 10.000000 12 355.566990
-1.285657 2.161844 1.563077 3.000000 10 355.566992
-2.055944 3.457100 1.946850 12.000000 8 355.566995
-2.034568 3.422515 1.474125 12.000000 6 355.566997
-2.018770 3.397289 1.043847 14.000000 4 355.567000
-2.002943 3.371994 0.638535 12.000000 2 355.567002
-1.581267 2.663153 0.218615 11.000000 0 355.567005
-0.010329 0.022982 1.319223 8.000000 31 355.567016
-1.071407 1.920189 13.978523 17.000000 28 355.567018
-1.054017 1.893642 10.442780 26.000000 27 355.567021
-1.438909 2.468118 9.174858 5.000000 25 355.567023
-1.502450 2.544516 7.021069 11.000000 23 355.567026
-1.636586 2.770595 5.961910 9.000000 21 355.567028
-1.530285 2.590640 4.491727 8.000000 19 355.567031
-1.556471 2.634977 3.739368 8.000000 17 355.567034
-0.042741 0.084408 1.471954 7.000000 30 355.567041
-1.325154 2.310665 10.285636 11.000000 26 355.567046
-1.378309 2.343599 7.447835 10.000000 24 355.567049
-1.832290 3.111827 5.976994 10.000000 20 355.567054
-1.538255 2.612460 4.087758 8.000000 18 355.567057
-1.559033 2.647754 3.409268 8.000000 16 355.567059
-1.559669 2.633045 3.087152 8.000000 15 355.567017
-1.933942 3.264903 3.141052 10.000000 13 355.567019
-2.071872 3.499151 2.750751 9.000000 11 355.567022
-1.472401 2.486717 1.598669 5.000000 9 355.567025
-2.040556 3.447640 1.706951 11.000000 7 355.567027
-2.015443 3.406565 1.252629 11.000000 5 355.567030
-2.006023 3.390644 0.839433 12.000000 3 355.567032
-1.564022 2.644612 0.368243 12.000000 1 355.567035
-1.797434 3.045342 3.229602 10.000000 14 355.567043
-2.074330 3.514486 3.055089 10.000000 12 355.567045
-1.278103 2.166319 1.563077 4.000000 10 355.567048
-2.050783 3.475982 1.953144 13.000000 8 355.567050
-2.029806 3.441799 1.479053 12.000000 6 355.567053
-2.011836 3.412690 1.046192 14.000000 4 355.567055
-1.998703 3.391765 0.640604 12.000000 2 355.567058
-1.564355 2.655742 0.218010 11.000000 0 355.567061
-0.010249 0.023018 1.319223 8.000000 31 355.567071
-1.066954 1.927997 14.008160 20.000000 28 355.567074
-1.044449 1.891961 10.413409 32.000000 27 355.567076
-1.423556 2.461490 9.131913 5.000000 25 355.567079
-1.494546 2.551431 7.025671 11.000000 23 355.567081
-1.626905 2.776291 5.961910 9.000000 21 355.567084
-1.511274 2.578971 4.462797 8.000000 19 355.567087
-1.537539 2.623797 3.716346 8.000000 17 355.567089
-0.042446 0.084557 1.471954 7.000000 30 355.567097
-1.317702 2.316370 10.290475 12.000000 26 355.567102
-1.370120 2.348395 7.447835 10.000000 24 355.567105
-1.820101 3.115953 5.972727 10.000000 20 355.567110
-1.515445 2.594392 4.051853 8.000000 18 355.567112
-1.537812 2.632689 3.383542 9.000000 16 355.567115
-1.550469 2.638473 3.087152 9.000000 15 355.567072
-1.924505 3.274989 3.144189 10.000000 13 355.567075
-2.059645 3.506362 2.750751 9.000000 11 355.567078
-1.461468 2.488022 1.596351 6.000000 9 355.567080
-2.033204 3.462737 1.710697 11.000000 7 355.567083
-2.010824 3.425992 1.256856 11.000000 5 355.567085
-1.999149 3.406099 0.841299 12.000000 3 355.567088
-1.549741 2.641464 0.367350 12.000000 1 355.567090
-1.779245 3.038707 3.216302 10.000000 14 355.567098
-2.068177 3.532170 3.063919 10.000000 12 355.567101
-1.279245 2.185651 1.573207 4.000000 10 355.567103
-2.045515 3.494870 1.959439 13.000000 8 355.567106
-2.022549 3.457016 1.482339 12.000000 6 355.567108
-2.004819 3.428083 1.048536 14.000000 4 355.567111
-1.986851 3.398721 0.640604 12.000000 2 355.567113
-1.547513 2.648246 0.217405 10.000000 0 355.567116
-0.010168 0.023054 1.319223 8.000000 31 355.567127
-1.062834 1.936478 14.042734 25.000000 28 355.567129
-1.034906 1.890236 10.384038 35.000000 27 355.567132
-1.411239 2.459966 9.108054 5.000000 25 355.567134
-1.485631 2.556632 7.025671 12.000000 23 355.567137
-1.618408 2.784024 5.966299 9.000000 21 355.567139
-1.492363 2.567201 4.433867 8.000000 19 355.567142
-1.517092 2.609747 3.689487 8.000000 17 355.567145
-0.042151 0.084704 1.471954 7.000000 30 355.567152
-1.309609 2.320956 10.290475 12.000000 26 355.567157
-1.361914 2.353164 7.447835 11.000000 24 355.567160
-1.809213 3.122287 5.972727 10.000000 20 355.567165
-1.494291 2.578804 4.019937 8.000000 18 355.567168
-1.525213 2.632174 3.376192 9.000000 16 355.567170
-1.543046 2.646950 3.090657 10.000000 15 355.567128
-1.913062 3.281687 3.144189 10.000000 13 355.567131
-2.055814 3.527982 2.761716 8.000000 11 355.567133
-1.459466 2.504591 1.603305 9.000000 9 355.567136
-2.028105 3.481831 1.716316 11.000000 7 355.567138
-2.003680 3.441281 1.259675 11.000000 5 355.567141
-1.992190 3.421547 0.843164 12.000000 3 355.567143
-1.535501 2.638250 0.366458 12.000000 1 355.567146
-1.761125 3.031983 3.203003 10.000000 14 355.567154
-2.061925 3.549853 3.072748 10.000000 12 355.567156
-2.040139 3.513764 1.965733 13.000000 8 355.567161
-2.017581 3.476308 1.487267 12.000000 6 355.567164
-2.000158 3.447674 1.052053 13.000000 4 355.567166
-1.977460 3.409920 0.641294 12.000000 2 355.567169
-1.530743 2.640665 0.216801 10.000000 0 355.567172
-0.010088 0.023089 1.319223 8.000000 31 355.567182
-1.056068 1.940177 14.042734 33.000000 28 355.567185
-1.024901 1.887573 10.349771 45.000000 27 355.567187
-1.397473 2.455791 9.074653 5.000000 25 355.567190
-1.478649 2.565187 7.034877 11.000000 23 355.567192
-1.608680 2.789657 5.966299 9.000000 21 355.567195
-1.474958 2.557768 4.409069 9.000000 19 355.567198
-1.496763 2.595586 3.662629 7.000000 17 355.567200
-0.041855 0.084851 1.471954 7.000000 30 355.567208
-1.301499 2.325513 10.290475 12.000000 26 355.567213
-1.354551 2.359400 7.452528 11.000000 24 355.567216
-1.199671 2.087942 5.040687 15.000000 22 355.567218
-1.797004 3.126322 5.968462 11.000000 20 355.567221
-1.470260 2.557873 3.980041 8.000000 18 355.567223
-1.504190 2.616908 3.350466 10.000000 16 355.567226
-1.535582 2.655407 3.094162 12.000000 15 355.567183
-1.903544 3.291715 3.147327 10.000000 13 355.567186
-2.022896 3.500931 1.721936 11.000000 7 355.567194
-1.998854 3.460717 1.263902 11.000000 5 355.567196
-1.987605 3.441241 0.845962 12.000000 3 355.567199
-1.521302 2.634968 0.365566 12.000000 1 355.567201
-1.744937 3.028405 3.193029 10.000000 14 355.567209
-2.057592 3.571038 3.084521 11.000000 12 355.567212
-2.040722 3.543188 2.487413 10.000000 10 355.567214
-2.034657 3.532663 1.972027 13.000000 8 355.567217
-2.012503 3.495608 1.492195 12.000000 6 355.567219
-1.992959 3.463060 1.054398 13.000000 4 355.567222
-1.918627 3.335242 0.628187 9.000000 2 355.567225
-1.514045 2.632999 0.216196 10.000000 0 355.567227
-0.010018 0.023166 1.324223 9.000000 31 355.567238
-1.050027 1.945219 14.052613 44.000000 28 355.567240
-1.015893 1.886656 10.325294 62.000000 27 355.567243
-1.383754 2.451549 9.041250 5.000000 25 355.567245
-1.469685 2.570333 7.034877 11.000000 23 355.567248
-1.600122 2.797334 5.970687 9.000000 21 355.567251
-1.456240 2.545803 4.380138 10.000000 19 355.567253
-1.474959 2.578533 3.631933 7.000000 17 355.567256
-0.041558 0.084997 1.471954 7.000000 30 355.567263
-1.293373 2.330042 10.290475 11.000000 26 355.567269
-1.346307 2.364114 7.452528 11.000000 24 355.567271
-1.192376 2.092117 5.040687 15.000000 22 355.567274
-1.786080 3.132576 5.968462 11.000000 20 355.567276
-1.453858 2.549898 3.960094 10.000000 18 355.567279
-1.483292 2.601526 3.324740 9.000000 16 355.567281
-1.526303 2.660751 3.094162 11.000000 15 355.567239
-1.892042 3.298340 3.147327 10.000000 13 355.567242
-2.025929 3.533175 2.217582 15.000000 9 355.567247
-2.015274 3.516015 1.725682 11.000000 7 355.567249
-1.991532 3.475998 1.266721 11.000000 5 355.567252
-1.980465 3.456683 0.847827 12.000000 3 355.567254
-1.504670 2.627297 0.364227 13.000000 1 355.567257
-1.726943 3.021509 3.179729 10.000000 14 355.567265
-2.051132 3.588726 3.093350 11.000000 12 355.567267
-2.030481 3.554034 2.489945 9.000000 10 355.567270
-2.026816 3.547625 1.976223 13.000000 8 355.567272
-2.007314 3.514914 1.497123 12.000000 6 355.567275
-1.985679 3.478438 1.056743 13.000000 4 355.567277
-1.892247 3.316112 0.624049 9.000000 2 355.567280
-1.497419 2.625250 0.215592 11.000000 0 355.567283
-0.009937 0.023201 1.324223 9.000000 31 355.567293
-1.046896 1.955723 14.102005 64.000000 28 355.567296
-1.008343 1.888394 10.315504 74.000000 27 355.567298
-1.369352 2.445939 9.003077 5.000000 25 355.567301
-1.462632 2.578846 7.044082 9.000000 23 355.567303
-1.591530 2.804986 5.975076 9.000000 21 355.567306
-1.440401 2.538633 4.359473 10.000000 19 355.567308
-1.454875 2.564147 3.605074 8.000000 17 355.567311
-0.041261 0.085141 1.471954 7.000000 30 355.567319
-1.285232 2.334543 10.290475 11.000000 26 355.567324
-1.338895 2.370301 7.457221 10.000000 24 355.567326
-1.180779 2.088683 5.022684 16.000000 22 355.567329
-1.775134 3.138791 5.968462 11.000000 20 355.567331
-1.437530 2.541840 3.940146 10.000000 18 355.567334
-1.462520 2.586032 3.299014 9.000000 16 355.567337
-1.518770 2.669162 3.097666 10.000000 15 355.567294
-1.880517 3.304924 3.147327 10.000000 13 355.567297
-2.020154 3.551778 2.224536 13.000000 9 355.567302
-2.009863 3.535119 1.731301 11.000000 7 355.567305
-1.986497 3.495441 1.270948 11.000000 5 355.567307
-1.973241 3.472116 0.849692 12.000000 3 355.567310
-1.490570 2.623873 0.363335 13.000000 1 355.567312
-1.710861 3.017773 3.169755 9.000000 14 355.567320
-2.042579 3.602896 3.099237 11.000000 12 355.567323
-2.022313 3.568601 2.495010 10.000000 10 355.567325
-2.018896 3.562575 1.980419 12.000000 8 355.567328
-1.999688 3.530117 1.500408 12.000000 6 355.567330
-1.978314 3.493807 1.059087 13.000000 4 355.567333
-1.483326 2.621764 0.215189 11.000000 0 355.567338
-0.009856 0.023236 1.324223 9.000000 31 355.567349
-1.037514 1.954561 14.067430 82.000000 28 355.567351
-1.001268 1.891002 10.310609 91.000000 27 355.567354
-1.349930 2.431117 8.931501 5.000000 25 355.567356
-1.453621 2.583936 7.044082 6.000000 23 355.567359
-1.582904 2.812613 5.979465 9.000000 21 355.567361
-1.426011 2.533836 4.342941 9.000000 19 355.567364
-1.433337 2.546859 3.574379 9.000000 17 355.567366
-0.040964 0.085285 1.471954 7.000000 30 355.567374
-1.277075 2.339015 10.290475 12.000000 26 355.567379
-1.331456 2.376466 7.461913 10.000000 24 355.567382
-1.172415 2.090893 5.018182 11.000000 22 355.567384
-1.764167 3.144968 5.968462 11.000000 20 355.567387
-1.419802 2.531071 3.916209 10.000000 18 355.567390
-1.441874 2.570424 3.273287 11.000000 16 355.567392
-1.509444 2.674448 3.097666 9.000000 15 355.567350
-1.868969 3.311468 3.147327 10.000000 13 355.567352
-1.184521 2.099604 1.665130 23.000000 11 355.567355
-2.020805 3.581959 2.238445 12.000000 9 355.567357
-2.002065 3.550189 1.735047 10.000000 7 355.567360
-1.978995 3.510712 1.273767 10.000000 5 355.567363
-1.965934 3.487542 0.851558 12.000000 3 355.567365
-1.474068 2.616045 0.361996 13.000000 1 355.567368
-1.694825 3.013962 3.159780 9.000000 14 355.567375
-2.035934 3.620574 3.108066 11.000000 12 355.567378
-2.009844 3.575639 2.495010 9.000000 10 355.567381
-2.010895 3.577514 1.984615 11.000000 8 355.567383
-1.994293 3.549428 1.505336 12.000000 6 355.567386
-1.973247 3.513406 1.062604 14.000000 4 355.567388
-1.493289 2.659916 0.517127 10.000000 2 355.567391
-1.466830 2.613856 0.214584 11.000000 0 355.567393
-0.009775 0.023270 1.324223 9.000000 31 355.567404
-1.031047 1.958858 14.072370 66.000000 28 355.567407
-0.994661 1.894486 10.310609 98.000000 27 355.567409
-1.331350 2.417498 8.864697 5.000000 25 355.567412
-1.575412 2.822305 5.988242 9.000000 21 355.567417
-1.413043 2.531427 4.330543 9.000000 19 355.567419
-1.413500 2.532252 3.547520 9.000000 17 355.567422
-0.040545 0.085164 1.466962 7.000000 30 355.567430
-1.268903 2.343458 10.290475 11.000000 26 355.567435
-1.323153 2.381099 7.461913 11.000000 24 355.567437
-1.157701 2.081650 4.986677 7.000000 22 355.567440
-1.751910 3.148828 5.964195 10.000000 20 355.567443
-1.408027 2.530744 3.908230 10.000000 18 355.567445
-1.421355 2.554704 3.247561 12.000000 16 355.567448
-1.501841 2.682812 3.101171 9.000000 15 355.567405
-1.857399 3.317972 3.147327 10.000000 13 355.567408
-1.173101 2.096428 1.659647 29.000000 11 355.567410
-2.014779 3.600589 2.245399 11.000000 9 355.567413
-1.994186 3.565248 1.738793 10.000000 7 355.567416
-1.973752 3.530160 1.277994 10.000000 5 355.567418
-1.958542 3.502957 0.853423 12.000000 3 355.567421
-1.460069 2.612480 0.361104 13.000000 1 355.567423
-1.678837 3.010075 3.149806 10.000000 14 355.567431
-2.027221 3.634719 3.113953 11.000000 12 355.567434
-2.005748 3.597694 2.505140 10.000000 10 355.567436
-2.002815 3.592439 1.988811 11.000000 8 355.567439
-1.986489 3.564617 1.508622 12.000000 6 355.567441
-1.965702 3.528765 1.064949 14.000000 4 355.567444
-1.462312 2.626173 0.510919 12.000000 2 355.567446
-1.452838 2.610229 0.214181 11.000000 0 355.567449
-0.009683 0.023262 1.319223 9.000000 31 355.567460
-1.023843 1.961756 14.067430 78.000000 28 355.567462
-0.987572 1.897043 10.305713 105.000000 27 355.567465
-1.565550 2.827787 5.988242 9.000000 21 355.567472
-1.401472 2.531420 4.322277 9.000000 19 355.567475
-1.396888 2.523147 3.528336 9.000000 17 355.567477
-0.040247 0.085305 1.466962 7.000000 30 355.567485
-1.260715 2.347873 10.290475 11.000000 26 355.567490
-1.315666 2.387215 7.466606 11.000000 24 355.567493
-1.145168 2.076144 4.964172 6.000000 22 355.567495
-1.394817 2.527727 3.896262 10.000000 18 355.567501
-1.399325 2.535904 3.218160 11.000000 16 355.567503
-1.492467 2.688038 3.101171 9.000000 15 355.567461
-1.845806 3.324435 3.147327 10.000000 13 355.567463
-1.161717 2.093198 1.654164 31.000000 11 355.567466
-2.008648 3.619221 2.252353 11.000000 9 355.567469
-1.986227 3.580295 1.742539 10.000000 7 355.567471
-1.966070 3.545420 1.280813 11.000000 5 355.567474
-1.951067 3.518365 0.855288 11.000000 3 355.567476
-1.443697 2.604494 0.359765 16.000000 1 355.567479
-1.662897 3.006114 3.139831 10.000000 14 355.567487
-2.018434 3.648847 3.119839 11.000000 12 355.567489
-1.997350 3.612220 2.510205 10.000000 10 355.567492
-1.994655 3.607352 1.993008 11.000000 8 355.567494
-1.978603 3.579796 1.511907 11.000000 6 355.567497
-1.960424 3.548368 1.068466 13.000000 4 355.567499
-1.431590 2.592246 0.504710 16.000000 2 355.567502
-1.438889 2.606537 0.213778 12.000000 0 355.567504
-0.009602 0.023295 1.319223 9.000000 31 355.567515
-1.017346 1.966009 14.072370 85.000000 28 355.567518
-0.980944 1.900479 10.305713 107.000000 27 355.567520
-1.192811 2.202161 8.048733 5.000000 25 355.567523
-1.556823 2.835334 5.992630 9.000000 21 355.567528
-1.388564 2.528897 4.309878 8.000000 19 355.567530
-1.384986 2.522387 3.520662 9.000000 17 355.567533
-0.039949 0.085445 1.466962 7.000000 30 355.567541
-1.252512 2.352260 10.290475 11.000000 26 355.567546
-1.308153 2.393307 7.471299 11.000000 24 355.567548
-1.132689 2.070576 4.941669 5.000000 22 355.567551
-1.383091 2.527293 3.888283 10.000000 18 355.567556
-1.388838 2.537799 3.214485 11.000000 16 355.567559
-1.483075 2.693232 3.101171 9.000000 15 355.567516
-1.834190 3.330858 3.147327 10.000000 13 355.567519
-1.152387 2.093577 1.651423 31.000000 11 355.567521
-2.004548 3.641735 2.261625 10.000000 9 355.567524
-1.978187 3.595330 1.746285 10.000000 7 355.567527
-1.960618 3.564872 1.285040 11.000000 5 355.567529
-1.943508 3.533762 0.857153 11.000000 3 355.567532
-1.427400 2.596425 0.358426 14.000000 1 355.567534
-1.645209 2.998804 3.126532 11.000000 14 355.567542
-1.999853 3.645239 3.111010 10.000000 12 355.567545
-1.993021 3.634291 2.520334 9.000000 10 355.567547
-1.986416 3.622251 1.997204 10.000000 8 355.567550
-1.970635 3.594963 1.515192 11.000000 6 355.567552
-1.952697 3.563715 1.070810 13.000000 4 355.567555
-1.417774 2.588540 0.503331 15.000000 2 355.567557
-1.424983 2.602780 0.213375 11.000000 0 355.567560
-0.009521 0.023329 1.319223 9.000000 31 355.567571
-1.010478 1.969548 14.072370 90.000000 28 355.567573
-0.974304 1.903891 10.305713 105.000000 27 355.567576
-1.202785 2.239205 8.168025 7.000000 25 355.567578
-1.540042 2.828127 5.966299 8.000000 21 355.567583
-1.377036 2.528785 4.301612 8.000000 19 355.567586
-1.374640 2.524390 3.516825 8.000000 17 355.567589
-0.039651 0.085584 1.466962 7.000000 30 355.567596
-1.244293 2.356617 10.290475 11.000000 26 355.567601
-1.299791 2.397859 7.471299 11.000000 24 355.567604
-1.121300 2.066860 4.923665 6.000000 22 355.567607
-1.371385 2.526808 3.880304 10.000000 18 355.567612
-1.376736 2.536673 3.207134 11.000000 16 355.567614
-1.471955 2.695262 3.097666 10.000000 15 355.567572
-1.822552 3.337240 3.147327 10.000000 13 355.567574
-1.141065 2.090246 1.645940 32.000000 11 355.567577
-1.985455 3.637044 2.254671 10.000000 9 355.567580
-1.967846 3.606283 1.748158 10.000000 7 355.567582
-1.952757 3.580117 1.287859 11.000000 5 355.567585
-1.938218 3.553463 0.859951 11.000000 3 355.567587
-1.411176 2.588274 0.357088 12.000000 1 355.567590
-1.627592 2.991408 3.113232 10.000000 14 355.567598
-1.983252 3.645097 3.105123 9.000000 12 355.567600
-1.980323 3.641226 2.520334 8.000000 10 355.567603
-1.980265 3.641124 2.003498 11.000000 8 355.567605
-1.960330 3.605969 1.516835 12.000000 6 355.567608
-1.947208 3.583322 1.074327 13.000000 4 355.567610
-1.408730 2.593473 0.503331 12.000000 2 355.567613
-1.411121 2.598957 0.212972 11.000000 0 355.567615
-0.009439 0.023362 1.319223 9.000000 31 355.567626
-1.003948 1.973756 14.077310 85.000000 28 355.567629
-0.967653 1.907281 10.305713 105.000000 27 355.567631
-1.170388 2.197252 8.001015 6.000000 25 355.567634
-1.906643 3.532111 9.515636 5.000000 23 355.567636
-1.360178 2.518720 4.276814 8.000000 19 355.567641
-1.362773 2.523531 3.509151 8.000000 17 355.567644
-0.039352 0.085722 1.466962 7.000000 30 355.567652
-1.236643 2.362061 10.295314 12.000000 26 355.567657
-1.301217 2.420621 7.527612 10.000000 24 355.567659
-1.108920 2.061173 4.901161 8.000000 22 355.567662
-1.320897 2.454170 4.628958 9.000000 20 355.567665
-1.359700 2.526271 3.872325 9.000000 18 355.567667
-1.366266 2.538477 3.203459 11.000000 16 355.567670
-1.462538 2.700384 3.097666 9.000000 15 355.567627
-1.810892 3.343582 3.147327 10.000000 13 355.567630
-1.131771 2.090539 1.643198 32.000000 11 355.567633
-1.970638 3.640057 2.252353 9.000000 9 355.567635
-1.964071 3.629439 1.755650 11.000000 7 355.567638
-1.944812 3.595350 1.290677 11.000000 5 355.567640
-1.930477 3.568848 0.861816 11.000000 3 355.567643
-1.395027 2.580042 0.355749 12.000000 1 355.567645
-1.617140 2.997071 3.113232 10.000000 14 355.567653
-1.964758 3.641326 3.096294 9.000000 12 355.567656
-1.967600 3.648116 2.520334 8.000000 10 355.567658
-1.963234 3.640026 1.999302 10.000000 8 355.567661
-1.952213 3.621103 1.520120 12.000000 6 355.567663
-1.939300 3.598655 1.076672 12.000000 4 355.567666
-1.394972 2.589655 0.501951 10.000000 2 355.567668
-1.399672 2.599468 0.212770 10.000000 0 355.567671
-0.009358 0.023395 1.319223 9.000000 31 355.567682
-0.997053 1.977248 14.077310 72.000000 28 355.567684
-0.960989 1.910647 10.305713 106.000000 27 355.567687
-1.141088 2.160383 7.853092 6.000000 25 355.567689
-1.892458 3.535300 9.506432 5.000000 23 355.567692
-1.340750 2.503608 4.243751 8.000000 19 355.567697
-1.352442 2.525447 3.505314 9.000000 17 355.567700
-0.038935 0.085594 1.461971 7.000000 30 355.567707
-1.228390 2.366363 10.295314 11.000000 26 355.567712
-1.323606 2.483016 7.705937 10.000000 24 355.567715
-1.097618 2.057346 4.883157 13.000000 22 355.567718
-1.311094 2.456465 4.624692 9.000000 20 355.567720
-1.348035 2.525684 3.864346 9.000000 18 355.567723
-1.352608 2.534258 3.192434 11.000000 16 355.567725
-1.451416 2.702331 3.094162 9.000000 15 355.567683
-1.799209 3.349883 3.147327 10.000000 13 355.567685
-1.120511 2.087109 1.637715 33.000000 11 355.567688
-1.957920 3.646913 2.252353 9.000000 9 355.567691
-1.947005 3.628103 1.751904 10.000000 7 355.567693
-1.936786 3.610572 1.293496 11.000000 5 355.567696
-1.922651 3.584222 0.863682 11.000000 3 355.567698
-1.378952 2.571729 0.354410 10.000000 1 355.567701
-1.608431 3.005990 3.116557 10.000000 14 355.567709
-1.944408 3.633906 3.084521 10.000000 12 355.567711
-1.944687 3.635954 2.507672 8.000000 10 355.567714
-1.950516 3.646857 1.999302 10.000000 8 355.567716
-1.941787 3.632061 1.521763 12.000000 6 355.567719
-1.931308 3.613976 1.079017 12.000000 4 355.567721
-1.383590 2.590141 0.501261 10.000000 2 355.567724
-1.385883 2.595524 0.212367 8.000000 0 355.567727
-0.009266 0.023384 1.314224 9.000000 31 355.567737
-0.989797 1.980021 14.072370 51.000000 28 355.567740
-0.954314 1.913990 10.305713 106.000000 27 355.567742
-1.124533 2.147153 7.791059 6.000000 25 355.567745
-1.869114 3.521177 9.451201 5.000000 23 355.567747
-1.277750 2.406104 5.057846 6.000000 21 355.567750
-1.321444 2.488390 4.210687 8.000000 19 355.567753
