# .PCD v.7 - Point Cloud Data file format
VERSION .7
FIELDS x y z intensity ring timestamp
SIZE 4 4 4 4 2 8
TYPE F F F F U D
COUNT 1 1 1 1 1 1
WIDTH 926
HEIGHT 1
VIEWPOINT 0 0 0 1 0 0 0
POINTS 926
DATA ascii
0.768284 -1.496198 0.496375 58.000000 4 355.317569
0.766535 -1.493432 0.326048 36.000000 2 355.317571
0.761582 -1.484420 0.160977 36.000000 0 355.317574
0.029727 -0.123929 13.063775 4.000000 31 355.317585
0.077582 -0.160950 1.136453 22.000000 28 355.317587
0.416444 -0.870199 4.661517 93.000000 27 355.317590
0.160389 -0.318663 1.186995 9.000000 25 355.317592
0.783315 -1.535972 4.121479 51.000000 23 355.317595
0.816752 -1.600859 3.359434 17.000000 21 355.317597
0.798316 -1.564728 2.652565 25.000000 19 355.317600
0.791998 -1.552351 2.162383 29.000000 17 355.317602
0.171929 -0.409479 7.496825 69.000000 30 355.317610
0.054626 -0.119775 1.183009 8.000000 29 355.317613
0.135383 -0.273623 1.212126 10.000000 26 355.317615
0.741103 -1.459480 4.505470 84.000000 24 355.317618
0.816717 -1.607015 3.789455 14.000000 22 355.317620
0.805713 -1.584690 2.978041 22.000000 20 355.317623
0.792113 -1.557946 2.388232 30.000000 18 355.317626
0.787206 -1.548300 1.961254 34.000000 16 355.317628
0.789768 -1.543326 1.783461 34.000000 15 355.317586
0.786999 -1.537919 1.474892 38.000000 13 355.317588
0.777905 -1.520803 1.204564 38.000000 11 355.317591
0.775367 -1.515846 0.977438 42.000000 9 355.317594
0.772794 -1.511466 0.774181 49.000000 7 355.317596
0.764260 -1.495419 0.583261 47.000000 5 355.317599
0.762291 -1.491568 0.409496 46.000000 3 355.317601
0.756597 -1.481064 0.241965 34.000000 1 355.317604
0.781741 -1.533575 1.613726 37.000000 14 355.317612
0.775836 -1.521996 1.327454 38.000000 12 355.317614
0.771982 -1.515088 1.084449 42.000000 10 355.317617
0.773175 -1.517436 0.874746 52.000000 8 355.317619
0.767529 -1.507005 0.677423 56.000000 6 355.317622
0.760852 -1.494539 0.495203 59.000000 4 355.317624
0.759071 -1.491685 0.325358 36.000000 2 355.317627
0.754130 -1.482616 0.160775 36.000000 0 355.317629
0.029268 -0.123904 13.048777 4.000000 31 355.317640
0.077353 -0.161921 1.141393 25.000000 28 355.317643
0.413403 -0.871648 4.661517 93.000000 27 355.317645
0.159275 -0.319221 1.186995 9.000000 25 355.317648
0.777949 -1.538697 4.121479 56.000000 23 355.317650
0.807915 -1.597287 3.346268 17.000000 21 355.317653
0.790309 -1.562483 2.644300 25.000000 19 355.317655
0.783681 -1.549385 2.154709 29.000000 17 355.317658
0.170388 -0.409809 7.491834 67.000000 30 355.317666
0.054425 -0.120452 1.187980 8.000000 29 355.317668
0.133874 -0.272964 1.207287 9.000000 26 355.317671
0.736780 -1.463600 4.510163 83.000000 24 355.317673
0.809142 -1.605967 3.780453 15.000000 22 355.317676
0.796655 -1.580506 2.965244 22.000000 20 355.317679
0.783957 -1.555318 2.380253 30.000000 18 355.317681
0.778744 -1.544984 1.953903 34.000000 16 355.317684
0.781150 -1.539713 1.776452 34.000000 15 355.317641
0.778103 -1.533713 1.468617 38.000000 13 355.317644
0.770701 -1.519780 1.201822 39.000000 11 355.317646
0.768067 -1.514592 0.975120 43.000000 9 355.317649
0.763321 -1.505884 0.770435 50.000000 7 355.317652
0.756867 -1.493798 0.581852 48.000000 5 355.317654
0.754860 -1.489838 0.408563 48.000000 3 355.317657
0.746923 -1.474810 0.241073 33.000000 1 355.317659
0.773015 -1.529629 1.607076 37.000000 14 355.317667
0.768695 -1.521087 1.324511 39.000000 12 355.317670
0.762801 -1.510077 1.079384 42.000000 10 355.317672
0.763781 -1.512024 0.870549 52.000000 8 355.317675
0.758007 -1.501243 0.674138 55.000000 6 355.317677
0.753440 -1.492847 0.494030 58.000000 4 355.317680
0.751629 -1.489905 0.324668 37.000000 2 355.317682
0.744451 -1.476318 0.160372 36.000000 0 355.317685
0.077118 -0.162893 1.146332 28.000000 28 355.317698
0.410358 -0.873085 4.661517 94.000000 27 355.317701
0.158822 -0.321114 1.191766 9.000000 25 355.317703
0.774324 -1.544896 4.130684 55.000000 23 355.317706
0.799113 -1.593672 3.333102 17.000000 21 355.317708
0.781066 -1.557686 2.631901 25.000000 19 355.317711
0.775394 -1.546379 2.147036 29.000000 17 355.317714
0.168956 -0.410402 7.491834 55.000000 30 355.317721
0.054435 -0.121619 1.197923 8.000000 29 355.317724
0.132920 -0.273430 1.207287 9.000000 26 355.317726
0.731667 -1.466163 4.510163 69.000000 24 355.317729
0.801586 -1.604885 3.771451 14.000000 22 355.317732
0.787636 -1.576278 2.952446 23.000000 20 355.317734
0.774481 -1.549957 2.368284 30.000000 18 355.317737
0.768801 -1.538594 1.942878 34.000000 16 355.317739
0.772565 -1.536058 1.769443 35.000000 15 355.317697
0.769246 -1.529464 1.462341 38.000000 13 355.317699
0.761635 -1.514989 1.196339 39.000000 11 355.317702
0.760785 -1.513306 0.972802 45.000000 9 355.317705
0.753896 -1.500255 0.766689 48.000000 7 355.317707
0.747341 -1.487857 0.579033 48.000000 5 355.317710
0.747450 -1.488074 0.407630 48.000000 3 355.317712
0.739536 -1.472958 0.240627 33.000000 1 355.317715
0.764325 -1.525640 1.600426 37.000000 14 355.317723
0.759760 -1.516533 1.318625 39.000000 12 355.317725
0.755595 -1.508876 1.076851 43.000000 10 355.317728
0.756466 -1.510623 0.868451 53.000000 8 355.317730
0.750648 -1.499657 0.672495 55.000000 6 355.317733
0.746050 -1.491121 0.492858 56.000000 4 355.317735
0.744209 -1.488090 0.323979 37.000000 2 355.317738
0.737060 -1.474439 0.160171 36.000000 0 355.317740
0.076878 -0.163866 1.151271 32.000000 28 355.317754
0.407308 -0.874512 4.661517 94.000000 27 355.317756
0.157700 -0.321666 1.191766 9.000000 25 355.317759
0.767188 -1.544090 4.121479 50.000000 23 355.317761
0.791412 -1.592161 3.324324 19.000000 21 355.317764
0.773119 -1.555363 2.623635 25.000000 19 355.317766
0.765710 -1.540464 2.135525 30.000000 17 355.317769
0.167631 -0.411257 7.496825 51.000000 30 355.317777
0.054224 -0.122297 1.202895 8.000000 29 355.317779
0.131965 -0.273892 1.207287 9.000000 26 355.317782
0.726544 -1.468708 4.510163 38.000000 24 355.317784
0.793080 -1.601818 3.757949 14.000000 22 355.317787
0.777499 -1.569670 2.935382 23.000000 20 355.317790
0.766391 -1.547249 2.360305 31.000000 18 355.317792
0.760416 -1.535193 1.935527 34.000000 16 355.317795
0.765608 -1.535554 1.765939 35.000000 15 355.317752
0.762166 -1.528656 1.459203 37.000000 13 355.317755
0.754477 -1.513896 1.193598 39.000000 11 355.317758
0.751546 -1.508022 0.968166 45.000000 9 355.317760
0.746588 -1.498728 0.764816 49.000000 7 355.317763
0.740005 -1.486163 0.577624 48.000000 5 355.317765
0.740062 -1.486277 0.406698 48.000000 3 355.317768
0.732170 -1.471072 0.240181 33.000000 1 355.317770
0.757334 -1.524954 1.597101 37.000000 14 355.317778
0.750866 -1.511936 1.312738 38.000000 12 355.317781
0.748406 -1.507643 1.074319 43.000000 10 355.317783
0.749171 -1.509189 0.866353 53.000000 8 355.317786
0.743309 -1.498038 0.670852 56.000000 6 355.317788
0.736521 -1.485007 0.490513 56.000000 4 355.317791
0.734610 -1.481805 0.322599 37.000000 2 355.317793
0.729690 -1.472526 0.159969 36.000000 0 355.317796
0.076631 -0.164838 1.156210 32.000000 28 355.317809
0.404679 -0.876853 4.666412 94.000000 27 355.317812
0.160490 -0.330276 1.220397 11.000000 25 355.317814
0.759204 -1.541501 4.107672 38.000000 23 355.317817
0.783732 -1.590616 3.315547 20.000000 21 355.317819
0.763954 -1.550480 2.611236 26.000000 19 355.317822
0.757494 -1.537376 2.127851 30.000000 17 355.317825
0.166195 -0.411840 7.496825 43.000000 30 355.317832
0.054433 -0.123956 1.217809 9.000000 29 355.317835
0.131549 -0.275487 1.212126 9.000000 26 355.317837
0.717614 -1.463488 4.486700 15.000000 24 355.317840
0.784605 -1.598712 3.744446 14.000000 22 355.317843
0.768567 -1.565351 2.922584 23.000000 20 355.317845
0.758328 -1.544504 2.352326 31.000000 18 355.317848
0.752064 -1.531752 1.928177 34.000000 16 355.317850
0.757083 -1.531823 1.758929 35.000000 15 355.317808
0.753375 -1.524328 1.452928 37.000000 13 355.317810
0.745484 -1.509023 1.188115 39.000000 11 355.317813
0.744315 -1.506664 0.965848 45.000000 9 355.317816
0.737247 -1.493011 0.761070 49.000000 7 355.317818
0.732689 -1.484435 0.576215 47.000000 5 355.317821
0.732695 -1.484446 0.405765 48.000000 3 355.317823
0.722624 -1.464687 0.239288 33.000000 1 355.317826
0.748708 -1.520888 1.590452 37.000000 14 355.317834
0.743799 -1.510921 1.309795 39.000000 12 355.317836
0.739332 -1.502509 1.069254 45.000000 10 355.317839
0.741894 -1.507722 0.864255 53.000000 8 355.317841
0.733907 -1.492148 0.667567 53.000000 6 355.317844
0.729188 -1.483207 0.489341 56.000000 4 355.317846
0.727249 -1.479915 0.321909 37.000000 2 355.317849
0.722343 -1.470580 0.159768 36.000000 0 355.317852
0.076379 -0.165811 1.161150 32.000000 28 355.317865
0.401616 -0.878261 4.666412 94.000000 27 355.317867
0.752104 -1.540630 4.098466 32.000000 23 355.317872
0.776072 -1.589037 3.306770 20.000000 21 355.317875
0.756067 -1.548080 2.602970 26.000000 19 355.317878
0.749309 -1.534249 2.120177 30.000000 17 355.317880
0.164863 -0.412687 7.501816 38.000000 30 355.317888
0.054420 -0.125126 1.227752 8.000000 29 355.317890
0.130587 -0.275944 1.212126 8.000000 26 355.317893
0.653665 -1.344921 4.120664 5.000000 24 355.317896
0.776162 -1.595566 3.730944 15.000000 22 355.317898
0.759674 -1.560989 2.909786 23.000000 20 355.317901
0.750295 -1.541722 2.344347 31.000000 18 355.317903
0.743746 -1.528271 1.920827 34.000000 16 355.317906
0.748593 -1.528051 1.751920 35.000000 15 355.317863
0.744625 -1.519956 1.446652 38.000000 13 355.317866
0.738373 -1.507861 1.185374 39.000000 11 355.317869
0.737103 -1.505274 0.963530 43.000000 9 355.317871
0.729993 -1.491412 0.759197 49.000000 7 355.317874
0.725395 -1.482674 0.574806 49.000000 5 355.317876
0.723191 -1.478170 0.403900 45.000000 3 355.317879
0.715319 -1.462727 0.238842 33.000000 1 355.317881
0.741757 -1.520136 1.587127 37.000000 14 355.317889
0.734975 -1.506243 1.303909 39.000000 12 355.317892
0.732193 -1.501206 1.066722 43.000000 10 355.317894
0.732648 -1.502145 0.860059 53.000000 8 355.317897
0.726625 -1.490456 0.665924 53.000000 6 355.317899
0.721877 -1.481374 0.488169 55.000000 4 355.317902
0.719910 -1.477993 0.321219 37.000000 2 355.317904
0.715019 -1.468601 0.159566 36.000000 0 355.317907
0.076442 -0.167492 1.171028 33.000000 28 355.317920
0.398548 -0.879657 4.666412 94.000000 27 355.317923
0.196760 -0.412271 1.506700 30.000000 25 355.317925
0.768433 -1.587423 3.297992 21.000000 21 355.317930
0.746980 -1.543111 2.590571 27.000000 19 355.317933
0.741156 -1.531084 2.112503 30.000000 17 355.317936
0.163421 -0.413260 7.501816 33.000000 30 355.317943
0.054192 -0.125807 1.232723 8.000000 29 355.317946
0.129623 -0.276398 1.212126 8.000000 26 355.317948
0.611521 -1.269460 3.886025 5.000000 24 355.317951
0.767751 -1.592381 3.717442 16.000000 22 355.317954
0.750821 -1.556584 2.896989 23.000000 20 355.317956
0.742290 -1.538902 2.336368 31.000000 18 355.317959
0.735461 -1.524751 1.913476 34.000000 16 355.317961
0.741697 -1.527447 1.748416 36.000000 15 355.317919
0.735914 -1.515543 1.440377 37.000000 13 355.317922
0.729453 -1.502905 1.179891 39.000000 11 355.317924
0.727976 -1.499867 0.958894 43.000000 9 355.317927
0.720735 -1.485609 0.755451 49.000000 7 355.317929
0.718122 -1.480881 0.573397 49.000000 5 355.317932
0.715884 -1.476265 0.402967 45.000000 3 355.317934
0.705865 -1.456252 0.237950 31.000000 1 355.317937
0.733194 -1.515992 1.580477 37.000000 14 355.317945
0.726193 -1.501522 1.298023 39.000000 12 355.317947
0.723195 -1.495990 1.061657 43.000000 10 355.317950
0.725424 -1.500607 0.857961 55.000000 8 355.317952
0.717309 -1.484479 0.662639 53.000000 6 355.317955
0.712474 -1.475131 0.485824 56.000000 4 355.317957
0.712594 -1.476037 0.320530 37.000000 2 355.317960
0.707717 -1.466588 0.159364 35.000000 0 355.317963
0.076176 -0.168467 1.175968 33.000000 28 355.317976
0.395475 -0.881043 4.666412 94.000000 27 355.317978
0.198511 -0.419707 1.530559 35.000000 25 355.317981
0.682197 -1.422533 3.776289 4.000000 23 355.317983
0.759778 -1.583616 3.284827 21.000000 21 355.317986
0.739155 -1.540635 2.582305 27.000000 19 355.317989
0.733033 -1.527881 2.104829 30.000000 17 355.317991
0.162050 -0.413799 7.501816 30.000000 30 355.317999
0.053981 -0.126478 1.237695 7.000000 29 355.318001
0.128706 -0.276827 1.212126 7.000000 26 355.318004
0.581277 -1.216980 3.721778 8.000000 24 355.318007
0.759371 -1.589156 3.703939 16.000000 22 355.318009
0.742009 -1.552137 2.884191 24.000000 20 355.318012
0.734314 -1.536045 2.328389 31.000000 18 355.318014
0.727475 -1.521064 1.906126 35.000000 16 355.318017
0.733267 -1.523600 1.741407 36.000000 15 355.317974
0.727243 -1.511087 1.434101 37.000000 13 355.317977
0.722390 -1.501674 1.177149 39.000000 11 355.317980
0.720815 -1.498407 0.956576 43.000000 9 355.317982
0.713795 -1.483813 0.753578 49.000000 7 355.317985
0.711128 -1.478930 0.571987 49.000000 5 355.317987
0.708598 -1.474328 0.402035 45.000000 3 355.317990
0.698621 -1.454218 0.237503 31.000000 1 355.317992
0.726284 -1.515175 1.577152 37.000000 14 355.318000
0.717453 -1.496758 1.292136 39.000000 12 355.318003
0.716367 -1.494492 1.059124 43.000000 10 355.318005
0.718482 -1.498911 0.855863 53.000000 8 355.318008
0.710341 -1.482591 0.660996 53.000000 6 355.318010
0.705479 -1.473101 0.484652 56.000000 4 355.318013
0.705557 -1.473925 0.319840 37.000000 2 355.318016
0.700693 -1.464421 0.159163 35.000000 0 355.318018
0.075933 -0.169428 1.180907 35.000000 28 355.318031
0.392551 -0.882350 4.666412 94.000000 27 355.318034
0.197752 -0.421715 1.535330 38.000000 25 355.318036
0.675798 -1.421259 3.767084 4.000000 23 355.318039
0.752464 -1.581800 3.276049 21.000000 21 355.318042
0.730415 -1.535454 2.569906 27.000000 19 355.318044
0.725208 -1.524513 2.097155 30.000000 17 355.318047
0.160604 -0.414363 7.501816 24.000000 30 355.318054
0.053745 -0.127159 1.242666 7.000000 29 355.318057
0.127738 -0.277274 1.212126 7.000000 26 355.318060
0.578502 -1.222121 3.731164 15.000000 24 355.318062
0.751300 -1.585761 3.690436 15.000000 22 355.318065
0.733507 -1.547519 2.871393 24.000000 20 355.318067
0.726634 -1.533025 2.320410 31.000000 18 355.318070
0.720709 -1.520531 1.902451 35.000000 16 355.318072
0.725139 -1.519585 1.734398 35.000000 15 355.318030
0.718875 -1.506463 1.427825 37.000000 13 355.318033
0.713806 -1.496513 1.171666 39.000000 11 355.318035
0.713935 -1.496790 0.954258 45.000000 9 355.318038
0.704621 -1.477926 0.749831 48.000000 7 355.318040
0.703898 -1.477073 0.570578 50.000000 5 355.318043
0.699479 -1.467801 0.400169 44.000000 3 355.318045
0.691653 -1.452031 0.237057 33.000000 1 355.318048
0.718049 -1.510829 1.570503 37.000000 14 355.318056
0.709016 -1.491827 1.286250 39.000000 12 355.318058
0.707446 -1.489195 1.054060 43.000000 10 355.318061
0.709351 -1.493211 0.851667 53.000000 8 355.318063
0.703136 -1.480795 0.659354 53.000000 6 355.318066
0.696164 -1.466773 0.482307 56.000000 4 355.318068
0.698285 -1.471905 0.319150 37.000000 2 355.318071
0.691296 -1.457829 0.158760 36.000000 0 355.318074
0.075311 -0.169705 1.180907 30.000000 28 355.318087
0.389315 -0.883783 4.666412 94.000000 27 355.318089
0.197463 -0.425146 1.544874 39.000000 25 355.318092
0.665590 -1.413122 3.739469 4.000000 23 355.318094
0.743598 -1.578045 3.262883 22.000000 21 355.318097
0.722384 -1.533029 2.561640 27.000000 19 355.318099
0.716883 -1.521361 2.089481 30.000000 17 355.318102
0.159085 -0.414948 7.501816 22.000000 30 355.318110
0.053482 -0.127849 1.247637 7.000000 29 355.318112
0.126721 -0.277741 1.212126 8.000000 26 355.318115
0.565228 -1.205483 3.674850 20.000000 24 355.318117
0.742707 -1.582590 3.676934 15.000000 22 355.318120
0.724505 -1.543114 2.858595 24.000000 20 355.318122
0.717168 -1.527493 2.308441 32.000000 18 355.318125
0.712250 -1.517025 1.895101 35.000000 16 355.318128
0.718041 -1.519009 1.730893 35.000000 15 355.318085
0.710021 -1.502049 1.421550 38.000000 13 355.318088
0.706530 -1.495339 1.168925 39.000000 11 355.318090
0.704659 -1.491385 0.949622 45.000000 9 355.318093
0.697220 -1.476307 0.747958 44.000000 7 355.318096
0.694383 -1.470966 0.567760 52.000000 5 355.318098
0.691998 -1.465912 0.399237 44.000000 3 355.318101
0.684201 -1.450052 0.236611 33.000000 1 355.318103
0.709326 -1.506694 1.563853 37.000000 14 355.318111
0.701821 -1.490759 1.283307 39.000000 12 355.318114
0.700148 -1.487877 1.051527 43.000000 10 355.318116
0.701941 -1.491695 0.849569 53.000000 8 355.318119
0.693684 -1.474816 0.656068 53.000000 6 355.318121
0.688715 -1.464916 0.481135 57.000000 4 355.318124
0.688673 -1.465491 0.317770 37.000000 2 355.318126
0.683824 -1.455831 0.158558 36.000000 0 355.318129
0.074718 -0.169967 1.180907 30.000000 28 355.318142
0.386227 -0.885136 4.666412 94.000000 27 355.318145
0.195977 -0.425833 1.544874 39.000000 25 355.318147
0.658174 -1.410125 3.725662 5.000000 23 355.318150
0.735044 -1.574119 3.249717 22.000000 21 355.318152
0.714647 -1.530442 2.553375 28.000000 19 355.318155
0.710212 -1.520949 2.085644 31.000000 17 355.318157
0.157708 -0.415474 7.501816 14.000000 30 355.318165
0.053058 -0.128025 1.247637 7.000000 29 355.318168
0.125800 -0.278159 1.212126 7.000000 26 355.318170
0.571411 -1.229259 3.740550 13.000000 24 355.318173
0.733505 -1.577274 3.658930 15.000000 22 355.318175
0.715813 -1.538540 2.845798 24.000000 20 355.318178
0.709289 -1.524522 2.300462 32.000000 18 355.318181
0.704354 -1.513231 1.887750 35.000000 16 355.318183
0.709708 -1.515047 1.723884 36.000000 15 355.318141
0.703122 -1.500993 1.418412 37.000000 13 355.318143
0.697760 -1.490222 1.163442 39.000000 11 355.318146
0.697570 -1.489824 0.947304 47.000000 9 355.318148
0.690354 -1.474413 0.746085 46.000000 7 355.318151
0.687468 -1.468916 0.566351 52.000000 5 355.318154
0.682713 -1.459420 0.397372 44.000000 3 355.318156
0.674917 -1.443409 0.235719 33.000000 1 355.318159
0.700905 -1.502392 1.557203 37.000000 14 355.318166
0.693196 -1.485874 1.277421 38.000000 12 355.318169
0.691564 -1.482377 1.046462 43.000000 10 355.318172
0.693153 -1.485788 0.845373 53.000000 8 355.318174
0.686794 -1.472828 0.654426 53.000000 6 355.318177
0.679747 -1.458380 0.478790 55.000000 4 355.318179
0.681719 -1.463277 0.317080 37.000000 2 355.318182
0.676883 -1.453562 0.158357 36.000000 0 355.318184
0.074154 -0.170214 1.180907 34.000000 28 355.318198
0.383694 -0.887347 4.671308 91.000000 27 355.318200
0.195184 -0.427840 1.549646 39.000000 25 355.318203
0.651854 -1.408754 3.716457 5.000000 23 355.318205
0.726801 -1.570025 3.236551 22.000000 21 355.318208
0.706021 -1.525142 2.540976 27.000000 19 355.318210
0.702470 -1.517478 2.077971 31.000000 17 355.318213
0.156358 -0.416293 7.506808 9.000000 30 355.318221
0.052611 -0.128210 1.247637 7.000000 29 355.318223
0.124314 -0.277449 1.207287 7.000000 26 355.318226
0.174391 -0.378576 1.187685 10.000000 24 355.318228
0.724624 -1.571787 3.640927 15.000000 22 355.318231
0.708523 -1.536169 2.837266 24.000000 20 355.318234
0.701705 -1.521392 2.292484 32.000000 18 355.318236
0.696228 -1.509524 1.880400 36.000000 16 355.318239
0.701676 -1.510923 1.716875 36.000000 15 355.318196
0.694862 -1.496255 1.412136 37.000000 13 355.318199
0.691053 -1.488735 1.160700 39.000000 11 355.318201
0.688895 -1.484092 0.942668 47.000000 9 355.318204
0.683252 -1.472608 0.744212 46.000000 7 355.318207
0.680318 -1.466955 0.564941 50.000000 5 355.318209
0.675803 -1.457219 0.396439 42.000000 3 355.318212
0.668032 -1.441121 0.235272 33.000000 1 355.318214
0.692784 -1.497929 1.550554 37.000000 14 355.318222
0.686568 -1.484496 1.274477 38.000000 12 355.318225
0.684577 -1.480868 1.043930 45.000000 10 355.318227
0.686058 -1.484079 0.843275 53.000000 8 355.318230
0.677687 -1.466643 0.651140 55.000000 6 355.318232
0.672614 -1.456331 0.477618 57.000000 4 355.318235
0.672455 -1.456656 0.315701 36.000000 2 355.318237
0.669712 -1.451379 0.158155 35.000000 0 355.318240
0.073560 -0.170472 1.180907 35.000000 28 355.318253
0.380594 -0.888681 4.671308 91.000000 27 355.318256
0.193689 -0.428518 1.549646 39.000000 25 355.318258
0.650189 -1.418125 3.734867 6.000000 23 355.318261
0.718320 -1.566020 3.223385 22.000000 21 355.318263
0.698347 -1.522482 2.532710 28.000000 19 355.318266
0.694496 -1.514092 2.070297 31.000000 17 355.318268
0.155104 -0.417380 7.516792 7.000000 30 355.318276
0.052361 -0.128888 1.252609 7.000000 29 355.318279
0.123345 -0.277881 1.207287 7.000000 26 355.318281
0.174501 -0.382322 1.197070 13.000000 24 355.318284
0.715240 -1.566509 3.622924 16.000000 22 355.318286
0.699637 -1.531639 2.824468 24.000000 20 355.318289
0.693619 -1.518471 2.284504 32.000000 18 355.318292
0.687873 -1.505898 1.873049 35.000000 16 355.318294
0.693416 -1.506884 1.709866 36.000000 15 355.318252
0.688007 -1.495135 1.408999 38.000000 13 355.318254
0.682358 -1.483541 1.155217 39.000000 11 355.318257
0.681859 -1.482463 0.940350 45.000000 9 355.318260
0.674235 -1.466560 0.740466 46.000000 7 355.318262
0.673190 -1.464961 0.563532 49.000000 5 355.318265
0.668407 -1.455223 0.395506 42.000000 3 355.318267
0.660668 -1.439034 0.234826 33.000000 1 355.318270
0.684179 -1.493668 1.543904 38.000000 14 355.318278
0.677756 -1.479652 1.268591 39.000000 12 355.318280
0.675555 -1.475528 1.038865 42.000000 10 355.318283
0.678725 -1.482457 0.841177 53.000000 8 355.318285
0.670342 -1.464822 0.649497 56.000000 6 355.318288
0.665250 -1.454367 0.476445 57.000000 4 355.318290
0.665053 -1.454607 0.315011 36.000000 2 355.318293
0.662565 -1.449165 0.157954 35.000000 0 355.318295
0.072935 -0.170740 1.180907 36.000000 28 355.318309
0.377334 -0.890070 4.671308 93.000000 27 355.318311
0.192117 -0.429225 1.549646 39.000000 25 355.318314
0.647410 -1.425835 3.748674 7.000000 23 355.318316
0.708612 -1.559917 3.205831 22.000000 21 355.318319
0.690434 -1.519907 2.524444 28.000000 19 355.318321
0.686290 -1.510790 2.062623 31.000000 17 355.318324
0.153944 -0.418735 7.531766 5.000000 30 355.318332
0.051911 -0.129070 1.252609 8.000000 29 355.318334
0.122374 -0.278310 1.207287 7.000000 26 355.318337
0.175299 -0.387646 1.211148 15.000000 24 355.318339
0.705280 -1.559075 3.600420 16.000000 22 355.318342
0.692136 -1.529319 2.815936 24.000000 20 355.318345
0.684587 -1.512645 2.272536 32.000000 18 355.318347
0.680079 -1.501994 1.865699 35.000000 16 355.318350
0.686410 -1.506170 1.706361 36.000000 15 355.318307
0.679294 -1.490562 1.402723 38.000000 13 355.318310
0.675183 -1.482226 1.152476 39.000000 11 355.318312
0.672749 -1.476889 0.935714 44.000000 9 355.318315
0.667190 -1.464686 0.738593 46.000000 7 355.318318
0.666085 -1.462936 0.562123 50.000000 5 355.318320
0.661289 -1.453076 0.394574 42.000000 3 355.318323
0.653578 -1.436798 0.234380 32.000000 1 355.318325
0.677417 -1.492647 1.540579 37.000000 14 355.318333
0.670916 -1.478328 1.265648 39.000000 12 355.318336
0.668877 -1.473834 1.036333 42.000000 10 355.318338
0.671929 -1.480567 0.839079 53.000000 8 355.318341
0.663530 -1.462737 0.647855 53.000000 6 355.318343
0.658416 -1.452138 0.475273 57.000000 4 355.318346
0.656137 -1.447783 0.313631 36.000000 2 355.318348
0.655441 -1.446918 0.157752 35.000000 0 355.318351
0.072368 -0.170981 1.180907 35.000000 28 355.318364
0.374380 -0.891316 4.671308 92.000000 27 355.318367
0.190693 -0.429860 1.549646 39.000000 25 355.318369
0.649093 -1.442226 3.785494 8.000000 23 355.318372
0.700484 -1.555705 3.192665 22.000000 21 355.318374
0.683080 -1.517057 2.516178 29.000000 19 355.318377
0.678644 -1.507211 2.054949 32.000000 17 355.318380
0.152874 -0.420359 7.551733 5.000000 30 355.318387
0.051460 -0.129251 1.252609 7.000000 29 355.318390
0.121402 -0.278735 1.207287 7.000000 26 355.318392
0.172534 -0.385106 1.201763 17.000000 24 355.318395
0.696542 -1.553457 3.582416 16.000000 22 355.318398
0.684925 -1.526847 2.807404 24.000000 20 355.318400
0.677100 -1.509407 2.264557 33.000000 18 355.318403
0.673445 -1.501266 1.862024 35.000000 16 355.318405
0.678475 -1.501938 1.699352 37.000000 15 355.318363
0.672745 -1.489259 1.399585 38.000000 13 355.318365
0.668543 -1.480646 1.149734 40.000000 11 355.318368
0.666024 -1.475074 0.933396 42.000000 9 355.318371
0.660166 -1.462780 0.736720 48.000000 7 355.318373
0.659001 -1.460880 0.560714 50.000000 5 355.318376
0.654447 -1.450783 0.393641 40.000000 3 355.318378
0.646763 -1.434418 0.233934 33.000000 1 355.318381
0.669400 -1.488074 1.533929 38.000000 14 355.318389
0.662694 -1.473173 1.259761 38.000000 12 355.318391
0.661960 -1.472228 1.033800 43.000000 10 355.318394
0.663035 -1.474625 0.834882 53.000000 8 355.318396
0.656484 -1.460737 0.646212 55.000000 6 355.318399
0.651352 -1.449994 0.474101 57.000000 4 355.318401
0.649051 -1.445547 0.312942 36.000000 2 355.318404
0.648340 -1.444639 0.157551 35.000000 0 355.318406
0.023163 -0.124923 13.018777 4.000000 31 355.318417
0.071771 -0.171233 1.180907 35.000000 28 355.318420
0.371267 -0.892617 4.671308 90.000000 27 355.318422
0.189191 -0.430523 1.549646 39.000000 25 355.318425
0.667921 -1.498013 3.923570 9.000000 23 355.318427
0.692122 -1.551577 3.179499 22.000000 21 355.318430
0.675487 -1.514292 2.507912 29.000000 19 355.318432
0.670767 -1.503715 2.047275 31.000000 17 355.318435
0.151795 -0.421981 7.571699 4.000000 30 355.318443
0.051008 -0.129429 1.252609 7.000000 29 355.318445
0.120428 -0.279157 1.207287 7.000000 26 355.318448
0.170488 -0.384128 1.197070 17.000000 24 355.318450
0.687579 -1.547918 3.564413 15.000000 22 355.318453
0.677473 -1.524462 2.798872 25.000000 20 355.318456
0.669379 -1.506253 2.256578 33.000000 18 355.318458
0.665447 -1.497411 1.854674 35.000000 16 355.318461
0.670315 -1.497787 1.692343 37.000000 15 355.318418
0.664362 -1.484491 1.393310 38.000000 13 355.318421
0.661663 -1.479154 1.146993 40.000000 11 355.318424
0.657253 -1.469302 0.928760 42.000000 9 355.318426
0.653164 -1.460843 0.734847 46.000000 7 355.318429
0.651941 -1.458791 0.559305 50.000000 5 355.318431
0.647375 -1.448574 0.392708 40.000000 3 355.318434
0.639721 -1.432119 0.233487 32.000000 1 355.318436
0.662681 -1.486990 1.530604 38.000000 14 355.318444
0.655902 -1.471785 1.256818 39.000000 12 355.318447
0.653308 -1.466653 1.028735 42.000000 10 355.318449
0.656037 -1.472784 0.832784 53.000000 8 355.318452
0.649460 -1.458705 0.644569 55.000000 6 355.318454
0.644310 -1.447818 0.472929 57.000000 4 355.318457
0.641988 -1.443279 0.312252 36.000000 2 355.318459
0.639234 -1.437763 0.157148 35.000000 0 355.318462
0.071172 -0.171482 1.180907 37.000000 28 355.318475
0.367761 -0.892966 4.666412 86.000000 27 355.318478
0.188283 -0.432550 1.554417 39.000000 25 355.318480
0.675317 -1.528929 3.997211 9.000000 23 355.318483
0.683796 -1.547409 3.166333 23.000000 21 355.318485
0.666785 -1.508919 2.495513 29.000000 19 355.318488
0.664218 -1.503115 2.043438 32.000000 17 355.318491
0.150900 -0.424147 7.601649 4.000000 30 355.318498
0.050556 -0.129607 1.252609 7.000000 29 355.318501
0.119947 -0.280733 1.212126 7.000000 26 355.318503
0.168452 -0.383141 1.192377 18.000000 24 355.318506
0.678663 -1.542335 3.546410 15.000000 22 355.318509
0.671097 -1.524431 2.794606 25.000000 20 355.318511
0.661688 -1.503063 2.248599 33.000000 18 355.318514
0.657484 -1.493519 1.847324 36.000000 16 355.318516
0.662192 -1.493597 1.685334 37.000000 15 355.318474
0.657598 -1.483243 1.390172 38.000000 13 355.318476
0.653108 -1.473809 1.141510 40.000000 11 355.318479
0.650325 -1.467537 0.926442 45.000000 9 355.318482
0.646183 -1.458876 0.732974 46.000000 7 355.318484
0.642960 -1.452285 0.556486 50.000000 5 355.318487
0.640326 -1.446333 0.391776 40.000000 3 355.318489
0.632703 -1.429790 0.233041 32.000000 1 355.318492
0.655978 -1.485878 1.527280 38.000000 14 355.318500
0.649128 -1.470368 1.253875 38.000000 12 355.318502
0.646444 -1.464980 1.026203 42.000000 10 355.318505
0.647227 -1.466761 0.828588 53.000000 8 355.318507
0.642459 -1.456642 0.642927 55.000000 6 355.318510
0.637292 -1.445610 0.471756 57.000000 4 355.318512
0.636946 -1.445511 0.312252 36.000000 2 355.318515
0.632198 -1.435414 0.156946 35.000000 0 355.318518
0.022353 -0.125513 13.068775 5.000000 31 355.318528
0.070573 -0.171729 1.180907 37.000000 28 355.318531
0.364642 -0.894245 4.666412 81.000000 27 355.318533
0.186772 -0.433205 1.554417 39.000000 25 355.318536
0.667627 -1.525908 3.983403 9.000000 23 355.318538
0.675509 -1.543203 3.153167 20.000000 21 355.318541
0.659257 -1.506081 2.487247 29.000000 19 355.318544
0.656396 -1.499550 2.035764 32.000000 17 355.318546
0.149227 -0.424124 7.591666 4.000000 30 355.318554
0.050104 -0.129782 1.252609 7.000000 29 355.318556
0.118966 -0.281150 1.212126 7.000000 26 355.318559
0.166425 -0.382145 1.187685 18.000000 24 355.318562
0.670665 -1.538705 3.532907 15.000000 22 355.318564
0.663687 -1.521983 2.786074 27.000000 20 355.318567
0.654028 -1.499839 2.240620 33.000000 18 355.318569
0.649556 -1.489590 1.839973 36.000000 16 355.318572
0.655540 -1.492634 1.681829 37.000000 15 355.318529
0.649286 -1.478401 1.383897 38.000000 13 355.318532
0.646279 -1.472251 1.138769 40.000000 11 355.318535
0.643418 -1.465741 0.924124 45.000000 9 355.318537
0.637361 -1.452632 0.729228 46.000000 7 355.318540
0.635960 -1.450127 0.555077 50.000000 5 355.318542
0.633300 -1.444061 0.390843 42.000000 3 355.318545
0.625709 -1.427428 0.232595 32.000000 1 355.318547
0.647795 -1.481316 1.520630 38.000000 14 355.318555
0.640753 -1.465218 1.247989 38.000000 12 355.318558
0.637873 -1.459327 1.021138 43.000000 10 355.318560
0.640286 -1.464852 0.826490 53.000000 8 355.318563
0.635479 -1.454548 0.641284 55.000000 6 355.318565
0.630296 -1.443372 0.470584 55.000000 4 355.318568
0.629916 -1.443187 0.311562 35.000000 2 355.318570
0.625186 -1.433033 0.156745 35.000000 0 355.318573
0.021946 -0.125806 13.093775 6.000000 31 355.318584
0.069974 -0.171975 1.180907 36.000000 28 355.318586
0.361518 -0.895512 4.666412 73.000000 27 355.318589
0.185259 -0.433854 1.554417 39.000000 25 355.318591
0.660743 -1.524644 3.974198 9.000000 23 355.318594
0.667259 -1.538957 3.140001 20.000000 21 355.318596
0.651757 -1.503210 2.478981 29.000000 19 355.318599
0.649882 -1.498891 2.031927 33.000000 17 355.318602
0.147463 -0.423821 7.576691 4.000000 30 355.318609
0.049650 -0.129956 1.252609 8.000000 29 355.318612
0.117984 -0.281563 1.212126 7.000000 26 355.318614
0.165090 -0.382724 1.187685 17.000000 24 355.318617
0.662701 -1.535039 3.519405 15.000000 22 355.318620
0.656302 -1.519502 2.777543 27.000000 20 355.318622
0.646398 -1.496578 2.232641 33.000000 18 355.318625
0.641664 -1.485624 1.832623 36.000000 16 355.318627
0.647480 -1.488373 1.674820 37.000000 15 355.318585
0.642568 -1.477088 1.380759 38.000000 13 355.318588
0.639468 -1.470663 1.136027 40.000000 11 355.318590
0.634765 -1.459853 0.919487 44.000000 9 355.318593
0.630439 -1.450596 0.727355 46.000000 7 355.318595
0.628983 -1.447938 0.553668 45.000000 5 355.318598
0.626298 -1.441757 0.389911 42.000000 3 355.318600
0.618739 -1.425036 0.232149 32.000000 1 355.318603
0.641136 -1.480141 1.517305 38.000000 14 355.318611
0.634028 -1.463737 1.245046 38.000000 12 355.318613
0.631062 -1.457588 1.018606 43.000000 10 355.318616
0.631562 -1.458749 0.822294 53.000000 8 355.318618
0.628523 -1.452424 0.639641 57.000000 6 355.318621
0.623325 -1.441102 0.469412 55.000000 4 355.318623
0.622909 -1.440831 0.310872 35.000000 2 355.318626
0.618198 -1.430620 0.156543 35.000000 0 355.318629
0.021410 -0.125191 13.013778 6.000000 31 355.318639
0.069662 -0.172939 1.185846 36.000000 28 355.318642
0.358768 -0.897714 4.671308 64.000000 27 355.318644
0.183743 -0.434498 1.554417 39.000000 25 355.318647
0.654646 -1.525146 3.969595 10.000000 23 355.318649
0.659047 -1.534673 3.126835 23.000000 21 355.318652
0.644285 -1.500304 2.470716 29.000000 19 355.318655
0.642116 -1.495259 2.024253 33.000000 17 355.318657
0.145795 -0.423785 7.566708 5.000000 30 355.318665
0.049196 -0.130129 1.252609 8.000000 29 355.318667
0.117000 -0.281973 1.212126 7.000000 26 355.318670
0.163075 -0.381710 1.182992 17.000000 24 355.318673
0.654770 -1.531336 3.505902 15.000000 22 355.318675
0.648942 -1.516987 2.769011 28.000000 20 355.318678
0.639985 -1.496055 2.228652 34.000000 18 355.318680
0.635141 -1.484738 1.828948 35.000000 16 355.318683
0.639459 -1.484074 1.667811 37.000000 15 355.318640
0.635868 -1.475747 1.377621 38.000000 13 355.318643
0.631023 -1.465205 1.130544 40.000000 11 355.318646
0.627913 -1.457991 0.917169 45.000000 9 355.318648
0.623539 -1.448530 0.725482 46.000000 7 355.318651
0.622029 -1.445718 0.552259 47.000000 5 355.318653
0.619320 -1.439422 0.388978 40.000000 3 355.318656
0.611794 -1.422612 0.231703 32.000000 1 355.318658
0.633021 -1.475507 1.510655 38.000000 14 355.318666
0.625727 -1.458512 1.239159 38.000000 12 355.318669
0.624272 -1.455820 1.016073 40.000000 10 355.318671
0.624678 -1.456773 0.820196 53.000000 8 355.318674
0.621589 -1.450268 0.637999 57.000000 6 355.318676
0.616376 -1.438801 0.468239 55.000000 4 355.318679
0.613977 -1.433892 0.309493 35.000000 2 355.318682
0.611235 -1.428176 0.156342 34.000000 0 355.318684
0.021038 -0.125740 13.068775 6.000000 31 355.318695
0.069058 -0.173181 1.185846 36.000000 28 355.318697
0.356006 -0.899908 4.676203 43.000000 27 355.318700
0.182225 -0.435137 1.554417 40.000000 25 355.318702
0.647025 -1.522028 3.955788 11.000000 23 355.318705
0.650873 -1.530350 3.113669 23.000000 21 355.318708
0.636842 -1.497365 2.462450 29.000000 19 355.318710
0.634383 -1.491591 2.016579 33.000000 17 355.318713
0.144130 -0.423743 7.556725 5.000000 30 355.318720
0.048742 -0.130300 1.252609 8.000000 29 355.318723
0.115538 -0.281216 1.207287 8.000000 26 355.318726
0.161741 -0.382277 1.182992 17.000000 24 355.318728
0.646873 -1.527596 3.492399 16.000000 22 355.318731
0.640591 -1.512039 2.756213 28.000000 20 355.318733
0.632408 -1.492729 2.220673 34.000000 18 355.318736
0.627310 -1.480703 1.821597 36.000000 16 355.318738
0.631475 -1.479737 1.660802 37.000000 15 355.318696
0.627657 -1.470797 1.371345 38.000000 13 355.318699
0.624264 -1.463553 1.127803 40.000000 11 355.318701
0.621081 -1.456099 0.914851 44.000000 9 355.318704
0.616660 -1.446433 0.723609 48.000000 7 355.318706
0.613218 -1.439054 0.549440 52.000000 5 355.318709
0.612366 -1.437056 0.388045 40.000000 3 355.318711
0.604872 -1.420157 0.231256 32.000000 1 355.318714
0.624946 -1.470833 1.504006 38.000000 14 355.318722
0.619052 -1.456967 1.236216 39.000000 12 355.318724
0.615816 -1.450054 1.011008 42.000000 10 355.318727
0.617815 -1.454767 0.818098 50.000000 8 355.318729
0.614677 -1.448082 0.636356 54.000000 6 355.318732
0.609452 -1.436469 0.467067 55.000000 4 355.318734
0.607035 -1.431467 0.308803 35.000000 2 355.318737
0.602347 -1.421101 0.155938 34.000000 0 355.318740
0.020541 -0.125380 13.018777 7.000000 31 355.318750
0.068453 -0.173421 1.185846 36.000000 28 355.318753
0.352863 -0.901145 4.676203 35.000000 27 355.318755
0.180705 -0.435771 1.554417 40.000000 25 355.318758
0.640193 -1.520676 3.946583 12.000000 23 355.318760
0.642737 -1.525989 3.100503 24.000000 21 355.318763
0.629427 -1.494392 2.454184 30.000000 19 355.318765
0.626684 -1.487887 2.008905 33.000000 17 355.318768
0.142467 -0.423694 7.546741 6.000000 30 355.318776
0.048104 -0.129968 1.247637 8.000000 29 355.318778
0.114556 -0.281618 1.207287 8.000000 26 355.318781
0.160406 -0.382840 1.182992 17.000000 24 355.318783
0.639010 -1.523820 3.478897 15.000000 22 355.318786
0.633291 -1.509456 2.747681 28.000000 20 355.318788
0.624861 -1.489369 2.212694 34.000000 18 355.318791
0.619514 -1.476631 1.814247 35.000000 16 355.318794
0.624918 -1.478647 1.657298 37.000000 15 355.318751
0.621004 -1.469393 1.368208 38.000000 13 355.318754
0.617524 -1.461871 1.125061 40.000000 11 355.318756
0.614271 -1.454177 0.912533 44.000000 9 355.318759
0.609804 -1.444306 0.721736 50.000000 7 355.318762
0.606325 -1.436766 0.548031 49.000000 5 355.318764
0.605437 -1.434659 0.387113 40.000000 3 355.318767
0.597976 -1.417671 0.230810 31.000000 1 355.318769
0.618360 -1.469564 1.500681 38.000000 14 355.318777
0.612394 -1.455393 1.233273 39.000000 12 355.318780
0.609079 -1.448220 1.008476 42.000000 10 355.318782
0.609214 -1.448548 0.813902 51.000000 8 355.318785
0.607789 -1.445866 0.634713 56.000000 6 355.318787
0.602551 -1.434107 0.465895 57.000000 4 355.318790
0.600117 -1.429012 0.308113 35.000000 2 355.318792
0.595449 -1.418589 0.155737 34.000000 0 355.318795
0.020132 -0.125668 13.043777 7.000000 31 355.318806
0.067847 -0.173659 1.185846 38.000000 28 355.318808
0.350818 -0.905220 4.690888 21.000000 27 355.318811
0.179183 -0.436399 1.554417 40.000000 25 355.318813
0.633377 -1.519295 3.937377 11.000000 23 355.318816
0.635562 -1.523801 3.091726 24.000000 21 355.318818
0.622040 -1.491386 2.445918 30.000000 19 355.318821
0.620252 -1.487107 2.005069 33.000000 17 355.318823
0.140806 -0.423638 7.536758 8.000000 30 355.318831
0.047650 -0.130135 1.247637 8.000000 29 355.318834
0.113572 -0.282016 1.207287 7.000000 26 355.318836
0.159069 -0.383397 1.182992 17.000000 24 355.318839
0.631182 -1.520008 3.465394 15.000000 22 355.318841
0.625017 -1.504432 2.734883 28.000000 20 355.318844
0.617346 -1.485975 2.204715 34.000000 18 355.318847
0.611755 -1.472523 1.806897 36.000000 16 355.318849
0.616999 -1.474240 1.650289 37.000000 15 355.318807
0.612865 -1.464370 1.361932 38.000000 13 355.318809
0.610804 -1.460160 1.122320 40.000000 11 355.318812
0.607482 -1.452225 0.910215 42.000000 9 355.318814
0.602971 -1.442149 0.719863 48.000000 7 355.318817
0.599457 -1.434447 0.546622 49.000000 5 355.318820
0.598531 -1.432231 0.386180 40.000000 3 355.318822
0.591104 -1.415155 0.230364 29.000000 1 355.318825
0.610354 -1.464819 1.494031 38.000000 14 355.318832
0.604201 -1.450060 1.227387 39.000000 12 355.318835
0.602362 -1.446358 1.005944 43.000000 10 355.318838
0.602409 -1.446476 0.811804 51.000000 8 355.318840
0.600923 -1.443618 0.633071 56.000000 6 355.318843
0.595674 -1.431713 0.464722 55.000000 4 355.318845
0.593224 -1.426525 0.307423 35.000000 2 355.318848
0.588576 -1.416045 0.155535 34.000000 0 355.318850
0.019698 -0.125780 13.048777 8.000000 31 355.318861
0.066962 -0.173170 1.180907 38.000000 28 355.318864
0.347656 -0.906439 4.690888 11.000000 27 355.318866
0.177659 -0.437021 1.554417 40.000000 25 355.318869
0.625834 -1.516079 3.923570 11.000000 23 355.318871
0.627496 -1.519367 3.078559 24.000000 21 355.318874
0.614682 -1.488346 2.437652 30.000000 19 355.318876
0.612610 -1.483337 1.997395 33.000000 17 355.318879
0.139236 -0.423852 7.531766 9.000000 30 355.318887
0.047196 -0.130300 1.247637 8.000000 29 355.318889
0.113517 -0.284748 1.216966 7.000000 26 355.318892
0.157074 -0.382354 1.178299 17.000000 24 355.318894
0.623388 -1.516159 3.451892 15.000000 22 355.318897
0.617777 -1.501781 2.726351 29.000000 20 355.318900
0.609862 -1.482546 2.196736 34.000000 18 355.318902
0.605321 -1.471514 1.803222 35.000000 16 355.318905
0.610483 -1.473090 1.646784 37.000000 15 355.318862
0.606259 -1.462904 1.358794 38.000000 13 355.318865
0.602503 -1.454557 1.116837 40.000000 11 355.318867
0.599018 -1.446151 0.905579 44.000000 9 355.318870
0.596160 -1.439961 0.717990 48.000000 7 355.318873
0.592612 -1.432098 0.545213 47.000000 5 355.318875
0.591649 -1.429773 0.385247 40.000000 3 355.318878
0.584258 -1.412608 0.229918 29.000000 1 355.318880
0.603813 -1.463489 1.490706 38.000000 14 355.318888
0.597594 -1.448424 1.224444 39.000000 12 355.318891
0.595666 -1.444466 1.003411 43.000000 10 355.318893
0.595626 -1.444374 0.809706 53.000000 8 355.318896
0.594081 -1.441341 0.631428 56.000000 6 355.318898
0.588822 -1.429290 0.463550 55.000000 4 355.318901
0.586355 -1.424008 0.306733 35.000000 2 355.318903
0.581728 -1.413471 0.155334 34.000000 0 355.318906
0.019275 -0.125978 13.063775 9.000000 31 355.318917
0.066357 -0.173402 1.180907 41.000000 28 355.318919
0.344850 -0.908599 4.695784 6.000000 27 355.318922
0.176132 -0.437639 1.554417 40.000000 25 355.318924
0.618320 -1.512829 3.909763 11.000000 23 355.318927
0.619468 -1.514895 3.065393 24.000000 21 355.318929
0.607353 -1.485273 2.429386 30.000000 19 355.318932
0.605002 -1.479531 1.989721 33.000000 17 355.318934
0.137667 -0.424060 7.526774 12.000000 30 355.318942
0.046740 -0.130464 1.247637 8.000000 29 355.318945
0.112061 -0.283972 1.212126 5.000000 26 355.318947
0.155738 -0.382900 1.178299 17.000000 24 355.318950
0.616450 -1.514292 3.442891 15.000000 22 355.318952
0.610564 -1.499097 2.717820 29.000000 20 355.318955
0.603546 -1.481874 2.192746 34.000000 18 355.318958
0.597623 -1.467339 1.795871 35.000000 16 355.318960
0.602630 -1.468614 1.639775 37.000000 15 355.318918
0.598193 -1.457808 1.352519 38.000000 13 355.318920
0.595835 -1.452783 1.114095 40.000000 11 355.318923
0.592285 -1.444134 0.903261 44.000000 9 355.318926
0.589371 -1.437744 0.716117 48.000000 7 355.318928
0.585790 -1.429719 0.543803 49.000000 5 355.318931
0.582930 -1.422739 0.383382 39.000000 3 355.318933
0.577436 -1.410030 0.229472 31.000000 1 355.318936
0.597288 -1.462130 1.487381 38.000000 14 355.318944
0.591006 -1.446759 1.221500 39.000000 12 355.318946
0.588991 -1.442545 1.000879 43.000000 10 355.318949
0.588865 -1.442243 0.807608 53.000000 8 355.318951
0.587262 -1.439034 0.629785 56.000000 6 355.318954
0.581993 -1.426836 0.462378 54.000000 4 355.318956
0.579511 -1.421460 0.306043 34.000000 2 355.318959
0.574905 -1.410867 0.155132 35.000000 0 355.318961
0.018850 -0.126175 13.078774 10.000000 31 355.318972
0.065751 -0.173633 1.180907 37.000000 28 355.318975
0.174603 -0.438251 1.554417 40.000000 25 355.318980
0.610838 -1.509545 3.895955 11.000000 23 355.318982
0.612378 -1.512607 3.056616 25.000000 21 355.318985
0.600052 -1.482167 2.421120 30.000000 19 355.318987
0.598631 -1.478662 1.985884 34.000000 17 355.318990
0.136098 -0.424262 7.521783 15.000000 30 355.318998
0.046285 -0.130627 1.247637 8.000000 29 355.319000
0.153756 -0.381840 1.173606 17.000000 24 355.319005
0.608718 -1.510375 3.429388 15.000000 22 355.319008
0.603377 -1.496382 2.709287 29.000000 20 355.319011
0.596116 -1.478381 2.184767 34.000000 18 355.319013
0.591230 -1.466272 1.792196 36.000000 16 355.319016
0.596158 -1.467404 1.636270 37.000000 15 355.318973
0.591636 -1.456281 1.349381 38.000000 13 355.318976
0.589187 -1.450980 1.111354 40.000000 11 355.318978
0.585574 -1.442088 0.900943 44.000000 9 355.318981
0.582606 -1.435497 0.714244 50.000000 7 355.318984
0.578993 -1.427309 0.542394 49.000000 5 355.318986
0.576114 -1.420213 0.382450 38.000000 3 355.318989
0.570639 -1.407422 0.229025 31.000000 1 355.318991
0.589381 -1.457282 1.480732 38.000000 14 355.318999
0.584437 -1.445066 1.218557 38.000000 12 355.319002
0.582336 -1.440595 0.998346 43.000000 10 355.319004
0.582126 -1.440082 0.805510 55.000000 8 355.319007
0.580466 -1.436696 0.628143 55.000000 6 355.319009
0.575189 -1.424352 0.461205 54.000000 4 355.319012
0.572692 -1.418882 0.305354 34.000000 2 355.319014
0.568108 -1.408232 0.154931 34.000000 0 355.319017
0.018420 -0.126327 13.088775 11.000000 31 355.319028
0.065145 -0.173861 1.180907 37.000000 28 355.319030
0.173073 -0.438858 1.554417 40.000000 25 355.319035
0.604111 -1.508041 3.886750 10.000000 23 355.319038
0.604421 -1.508064 3.043450 25.000000 21 355.319040
0.592781 -1.479029 2.412854 30.000000 19 355.319043
0.591080 -1.474791 1.978210 34.000000 17 355.319046
0.134617 -0.424734 7.521783 19.000000 30 355.319053
0.045828 -0.130787 1.247637 8.000000 29 355.319056
0.155617 -0.390390 1.197070 16.000000 24 355.319061
0.601828 -1.508445 3.420386 15.000000 22 355.319064
0.597183 -1.496057 2.705022 29.000000 20 355.319066
0.588717 -1.474855 2.176788 34.000000 18 355.319069
0.583595 -1.462029 1.784846 36.000000 16 355.319071
0.588370 -1.462859 1.629261 37.000000 15 355.319029
0.585096 -1.454725 1.346243 38.000000 13 355.319031
0.581000 -1.445268 1.105871 40.000000 11 355.319034
0.578884 -1.440013 0.898625 44.000000 9 355.319037
0.574135 -1.428918 0.710498 48.000000 7 355.319039
0.570431 -1.420418 0.539576 47.000000 5 355.319042
0.569322 -1.417657 0.381517 38.000000 3 355.319044
0.563868 -1.404783 0.228579 31.000000 1 355.319047
0.582902 -1.455864 1.477407 38.000000 14 355.319055
0.577887 -1.443345 1.215614 39.000000 12 355.319057
0.575702 -1.438617 0.995814 45.000000 10 355.319060
0.575409 -1.437891 0.803412 55.000000 8 355.319062
0.573694 -1.434329 0.626500 57.000000 6 355.319065
0.568409 -1.421837 0.460033 52.000000 4 355.319067
0.565899 -1.416274 0.304664 33.000000 2 355.319070
0.561336 -1.405567 0.154729 34.000000 0 355.319072
0.017959 -0.126217 13.068775 12.000000 31 355.319083
0.064537 -0.174088 1.180907 41.000000 28 355.319086
0.171540 -0.439459 1.554417 40.000000 25 355.319091
0.598124 -1.508324 3.882147 10.000000 23 355.319093
0.597386 -1.505711 3.034673 25.000000 21 355.319096
0.585539 -1.475858 2.404588 30.000000 19 355.319098
0.583564 -1.470886 1.970536 34.000000 17 355.319101
0.133047 -0.424925 7.516792 21.000000 30 355.319109
0.045372 -0.130947 1.247637 8.000000 29 355.319111
0.425422 -1.113544 4.623766 72.000000 26 355.319114
0.152986 -0.387720 1.187685 11.000000 24 355.319116
0.594959 -1.506486 3.411385 16.000000 22 355.319119
0.590040 -1.493281 2.696490 30.000000 20 355.319122
0.582458 -1.474098 2.172799 35.000000 18 355.319124
0.575996 -1.457752 1.777495 36.000000 16 355.319127
0.581941 -1.461591 1.625757 37.000000 15 355.319084
0.577135 -1.449526 1.339968 38.000000 13 355.319087
0.574405 -1.443402 1.103130 40.000000 11 355.319090
0.572216 -1.437908 0.896307 44.000000 9 355.319092
0.567430 -1.426606 0.708625 48.000000 7 355.319095
0.563697 -1.417943 0.538167 45.000000 5 355.319097
0.562556 -1.415071 0.380584 39.000000 3 355.319100
0.557122 -1.402115 0.228133 31.000000 1 355.319102
0.576441 -1.454418 1.474082 38.000000 14 355.319110
0.569867 -1.437838 1.209728 39.000000 12 355.319113
0.569089 -1.436609 0.993281 43.000000 10 355.319115
0.568715 -1.435671 0.801314 53.000000 8 355.319118
0.566945 -1.431932 0.624857 55.000000 6 355.319120
0.559866 -1.414774 0.457688 52.000000 4 355.319123
0.559130 -1.413636 0.303974 33.000000 2 355.319125
0.554589 -1.402872 0.154528 34.000000 0 355.319128
0.017509 -0.126192 13.058776 13.000000 31 355.319139
0.063929 -0.174312 1.180907 39.000000 28 355.319141
0.101338 -0.277847 1.445353 4.000000 27 355.319144
0.170542 -0.441449 1.559189 40.000000 25 355.319146
0.592141 -1.508584 3.877545 11.000000 23 355.319149
0.589499 -1.501097 3.021507 25.000000 21 355.319151
0.578327 -1.472654 2.396322 30.000000 19 355.319154
0.577254 -1.469930 1.966699 34.000000 17 355.319157
0.131638 -0.425364 7.516792 17.000000 30 355.319164
0.044767 -0.130590 1.242666 8.000000 29 355.319167
0.423506 -1.119655 4.643123 87.000000 26 355.319169
0.561139 -1.436221 4.247368 3.000000 24 355.319172
0.588111 -1.504497 3.402383 16.000000 22 355.319175
0.581974 -1.488045 2.683692 30.000000 20 355.319177
0.575113 -1.470508 2.164820 35.000000 18 355.319180
0.569923 -1.456497 1.773820 36.000000 16 355.319182
0.574221 -1.456977 1.618748 37.000000 15 355.319140
0.570644 -1.447909 1.336830 39.000000 13 355.319142
0.567831 -1.441508 1.100388 40.000000 11 355.319145
0.565569 -1.435775 0.893989 45.000000 9 355.319148
0.560997 -1.424166 0.706752 48.000000 7 355.319150
0.557235 -1.415340 0.536757 45.000000 5 355.319153
0.555814 -1.412455 0.379652 39.000000 3 355.319155
0.550401 -1.399417 0.227687 30.000000 1 355.319158
0.568633 -1.449469 1.467432 38.000000 14 355.319166
0.563368 -1.436056 1.206785 39.000000 12 355.319168
0.562748 -1.434475 0.990749 43.000000 10 355.319171
0.562294 -1.433325 0.799216 55.000000 8 355.319173
0.560469 -1.429408 0.623215 55.000000 6 355.319176
0.553398 -1.412097 0.456516 51.000000 4 355.319178
0.552633 -1.410871 0.303284 33.000000 2 355.319181
0.549934 -1.404703 0.154528 34.000000 0 355.319184
0.017086 -0.126206 13.053776 14.000000 31 355.319194
0.063351 -0.174523 1.180907 39.000000 28 355.319197
0.099038 -0.274349 1.425772 9.000000 27 355.319199
0.169078 -0.442012 1.559189 38.000000 25 355.319202
0.586428 -1.508719 3.872942 12.000000 23 355.319204
0.582782 -1.498578 3.012729 25.000000 21 355.319207
0.572420 -1.471941 2.392190 30.000000 19 355.319210
0.570053 -1.465860 1.959025 34.000000 17 355.319212
0.130068 -0.425544 7.511800 22.000000 30 355.319220
0.044311 -0.130746 1.242666 9.000000 29 355.319222
0.419595 -1.121126 4.643123 97.000000 26 355.319225
0.582333 -1.504408 3.397882 16.000000 22 355.319230
0.575153 -1.485103 2.675160 30.000000 20 355.319233
0.568056 -1.466786 2.156841 35.000000 18 355.319235
0.562387 -1.452154 1.766470 36.000000 16 355.319238
0.566793 -1.452229 1.611739 37.000000 15 355.319195
