# .PCD v.7 - Point Cloud Data file format
VERSION .7
FIELDS x y z intensity ring timestamp
SIZE 4 4 4 4 2 8
TYPE F F F F U D
COUNT 1 1 1 1 1 1
WIDTH 946
HEIGHT 1
VIEWPOINT 0 0 0 1 0 0 0
POINTS 946
DATA ascii
3.929934 0.499256 0.253479 11.000000 0 356.297800
0.026404 0.000152 1.459218 8.000000 31 356.297811
0.742941 0.074417 4.747051 104.000000 28 356.297813
0.967113 0.095743 4.695784 93.000000 27 356.297816
1.319737 0.157008 4.293386 93.000000 25 356.297818
1.730342 0.215546 4.167504 90.000000 23 356.297821
2.330139 0.290663 4.368826 87.000000 21 356.297823
2.829340 0.352927 4.260283 91.000000 19 356.297826
3.367660 0.420072 4.138410 9.000000 17 356.297829
0.092422 0.005509 1.437013 5.000000 30 356.297836
0.168490 0.013339 1.531008 8.000000 29 356.297839
1.192162 0.133279 4.652802 96.000000 26 356.297841
1.523602 0.187098 4.228597 94.000000 24 356.297844
2.096047 0.258123 4.428574 95.000000 22 356.297847
2.574565 0.317498 4.313279 88.000000 20 356.297849
3.095650 0.381754 4.203454 11.000000 18 356.297852
3.655192 0.450752 4.070798 10.000000 16 356.297854
3.156613 0.397661 3.206307 9.000000 15 356.297812
3.204901 0.403742 2.686074 9.000000 13 356.297814
3.640606 0.457984 2.490311 11.000000 11 356.297817
5.069515 0.637735 2.760001 11.000000 9 356.297820
5.525137 0.694071 2.338163 9.000000 7 356.297822
5.560019 0.697467 1.735983 10.000000 5 356.297825
4.216049 0.528876 0.898189 12.000000 3 356.297827
3.913405 0.490218 0.446330 12.000000 1 356.297830
3.201602 0.398221 2.953640 8.000000 14 356.297838
3.363883 0.418403 2.551809 14.000000 12 356.297840
4.784999 0.594312 2.917925 9.000000 10 356.297843
5.356261 0.665262 2.582560 12.000000 8 356.297845
5.568178 0.690595 2.040852 10.000000 6 356.297848
5.605369 0.694215 1.452986 10.000000 4 356.297850
3.970989 0.491097 0.649572 9.000000 2 356.297853
3.946528 0.487372 0.254084 13.000000 0 356.297855
0.026404 0.000060 1.459218 8.000000 31 356.297866
0.743197 0.071823 4.747051 104.000000 28 356.297869
0.967441 0.092367 4.695784 93.000000 27 356.297871
1.320277 0.152400 4.293386 93.000000 25 356.297874
1.731083 0.209505 4.167504 90.000000 23 356.297876
2.331140 0.282527 4.368826 87.000000 21 356.297879
2.830555 0.343049 4.260283 91.000000 19 356.297881
3.369106 0.408314 4.138410 9.000000 17 356.297884
0.092151 0.005173 1.432021 5.000000 30 356.297892
0.168003 0.012713 1.526036 7.000000 29 356.297894
1.192620 0.129117 4.652802 96.000000 26 356.297897
1.524246 0.181779 4.228597 92.000000 24 356.297899
2.094773 0.250546 4.424073 95.000000 22 356.297902
2.575658 0.308509 4.313279 89.000000 20 356.297905
3.093971 0.370587 4.199464 11.000000 18 356.297907
3.656743 0.437990 4.070798 10.000000 16 356.297910
3.165061 0.387507 3.213316 9.000000 15 356.297867
3.221747 0.394444 2.698625 10.000000 13 356.297870
3.638032 0.444766 2.487570 11.000000 11 356.297873
5.062915 0.618960 2.755365 11.000000 9 356.297875
5.555137 0.678151 2.349401 9.000000 7 356.297878
5.600515 0.682699 1.747256 10.000000 5 356.297880
4.227621 0.515345 0.900054 10.000000 3 356.297883
3.944753 0.480165 0.449007 12.000000 1 356.297885
3.221509 0.389283 2.970264 7.000000 14 356.297893
3.365323 0.406658 2.551809 14.000000 12 356.297896
4.774204 0.576056 2.910328 7.000000 10 356.297898
5.354044 0.646017 2.580462 12.000000 8 356.297901
5.608062 0.675674 2.053993 11.000000 6 356.297903
5.646364 0.679289 1.462365 10.000000 4 356.297906
3.977595 0.477823 0.650262 8.000000 2 356.297908
3.963086 0.475378 0.254689 13.000000 0 356.297911
0.026361 -0.000026 1.454218 8.000000 31 356.297922
0.743443 0.069229 4.747051 104.000000 28 356.297924
0.967758 0.088989 4.695784 94.000000 27 356.297927
1.320801 0.147791 4.293386 92.000000 25 356.297929
1.729864 0.203233 4.162902 90.000000 23 356.297932
2.332111 0.274388 4.368826 87.000000 21 356.297934
2.828940 0.332838 4.256150 91.000000 19 356.297937
3.367327 0.396176 4.134573 10.000000 17 356.297940
0.091879 0.004840 1.427029 5.000000 30 356.297947
0.167514 0.012090 1.521065 7.000000 29 356.297950
1.191812 0.124822 4.647962 96.000000 26 356.297952
1.524871 0.176457 4.228597 90.000000 24 356.297955
2.095635 0.243233 4.424073 95.000000 22 356.297958
2.576719 0.299517 4.313279 89.000000 20 356.297960
3.095246 0.359785 4.199464 10.000000 18 356.297963
3.654882 0.424831 4.067123 10.000000 16 356.297965
3.194725 0.379825 3.241352 9.000000 15 356.297923
3.246297 0.385953 2.717452 10.000000 13 356.297925
3.635411 0.431571 2.484828 12.000000 11 356.297928
5.060646 0.600761 2.753047 11.000000 9 356.297931
5.594300 0.663122 2.364386 9.000000 7 356.297933
5.640977 0.667656 1.758530 10.000000 5 356.297936
4.273298 0.505781 0.908447 9.000000 3 356.297938
3.971134 0.469314 0.451238 12.000000 1 356.297941
3.241393 0.380210 2.986888 7.000000 14 356.297949
3.362708 0.394438 2.548866 14.000000 12 356.297951
4.763340 0.557883 2.902731 7.000000 10 356.297954
5.347251 0.626268 2.576266 12.000000 8 356.297956
5.647910 0.660482 2.067135 11.000000 6 356.297959
5.687324 0.664085 1.471743 10.000000 4 356.297961
3.964482 0.462215 0.648192 13.000000 2 356.297964
3.979609 0.463275 0.255293 18.000000 0 356.297967
0.026361 -0.000118 1.454218 8.000000 31 356.297977
0.743680 0.066633 4.747051 99.000000 28 356.297980
0.968063 0.085610 4.695784 93.000000 27 356.297982
1.321309 0.143179 4.293386 93.000000 25 356.297985
1.730563 0.197193 4.162902 90.000000 23 356.297987
2.333055 0.266246 4.368826 87.000000 21 356.297990
2.830085 0.322961 4.256150 91.000000 19 356.297993
3.368689 0.384420 4.134573 10.000000 17 356.297995
0.091606 0.004508 1.422038 5.000000 30 356.298003
0.167022 0.011471 1.516093 6.000000 29 356.298005
1.192241 0.120661 4.647962 96.000000 26 356.298008
1.525478 0.171133 4.228597 92.000000 24 356.298011
2.096471 0.235916 4.424073 96.000000 22 356.298013
2.575157 0.290228 4.309013 88.000000 20 356.298016
3.093488 0.348641 4.195475 10.000000 18 356.298018
3.656343 0.412071 4.067123 10.000000 16 356.298021
3.220831 0.371531 3.265884 8.000000 15 356.297978
3.266961 0.376850 2.733141 9.000000 13 356.297981
3.636895 0.418879 2.484828 12.000000 11 356.297984
5.053910 0.582078 2.748410 11.000000 9 356.297986
5.610397 0.645179 2.370005 10.000000 7 356.297989
5.676636 0.651792 1.768394 10.000000 5 356.297991
3.992539 0.457719 0.453023 13.000000 1 356.297996
3.261253 0.371004 3.003512 7.000000 14 356.298004
3.360049 0.382240 2.545923 14.000000 12 356.298007
5.344895 0.607087 2.574168 12.000000 8 356.298012
5.692413 0.645552 2.081919 11.000000 6 356.298014
5.723415 0.648056 1.479949 10.000000 4 356.298017
3.980834 0.450043 0.650262 7.000000 2 356.298019
3.986166 0.449941 0.255495 14.000000 0 356.298022
0.026360 -0.000210 1.454218 8.000000 31 356.298033
0.743908 0.064037 4.747051 99.000000 28 356.298035
0.968356 0.082231 4.695784 93.000000 27 356.298038
1.321800 0.138566 4.293386 93.000000 25 356.298040
1.731241 0.191151 4.162902 90.000000 23 356.298043
2.331589 0.257837 4.364437 87.000000 21 356.298045
2.831195 0.313080 4.256150 91.000000 19 356.298048
3.370010 0.372658 4.134573 9.000000 17 356.298051
0.091332 0.004179 1.417046 5.000000 30 356.298058
0.165462 0.010791 1.501179 6.000000 29 356.298061
1.192655 0.116499 4.647962 95.000000 26 356.298063
1.526066 0.165807 4.228597 94.000000 24 356.298066
2.097322 0.228231 4.424073 95.000000 22 356.298069
2.576204 0.280788 4.309013 89.000000 20 356.298071
3.094745 0.337300 4.195475 10.000000 18 356.298074
3.654458 0.398300 4.063448 10.000000 16 356.298076
3.291470 0.368039 2.751968 8.000000 13 356.298037
3.634179 0.405717 2.482087 12.000000 11 356.298039
5.051508 0.563942 2.746093 11.000000 9 356.298042
5.644866 0.629186 2.383116 11.000000 7 356.298044
5.717019 0.636218 1.779668 10.000000 5 356.298047
5.751236 0.639009 1.190099 6.000000 3 356.298049
4.009038 0.444729 0.454361 14.000000 1 356.298052
3.281150 0.361091 3.020137 8.000000 14 356.298060
3.357409 0.369480 2.542979 13.000000 12 356.298062
3.944403 0.433381 2.416505 11.000000 10 356.298065
5.338062 0.586501 2.569972 11.000000 8 356.298067
5.732295 0.628804 2.095060 11.000000 6 356.298070
5.672604 0.621254 1.467054 8.000000 4 356.298072
4.007577 0.438196 0.256301 13.000000 0 356.298078
0.026316 -0.000300 1.449218 8.000000 31 356.298088
0.744138 0.061310 4.747051 104.000000 28 356.298091
0.968651 0.078681 4.695784 92.000000 27 356.298093
1.320813 0.133571 4.288615 93.000000 25 356.298096
1.731930 0.184805 4.162902 90.000000 23 356.298098
2.332518 0.249290 4.364437 85.000000 21 356.298101
2.829525 0.302402 4.252017 91.000000 19 356.298104
3.371354 0.360304 4.134573 10.000000 17 356.298106
0.091057 0.003836 1.412055 5.000000 30 356.298114
0.164435 0.010123 1.491236 6.000000 29 356.298116
1.193074 0.112127 4.647962 96.000000 26 356.298119
1.526663 0.160213 4.228597 92.000000 24 356.298122
2.098106 0.220908 4.424073 95.000000 22 356.298124
2.574574 0.271520 4.304747 88.000000 20 356.298127
3.092906 0.326179 4.191485 12.000000 18 356.298129
3.655826 0.385541 4.063448 10.000000 16 356.298132
3.741064 0.404435 3.777548 5.000000 15 356.298089
3.316018 0.358483 2.770794 8.000000 13 356.298092
3.635642 0.392394 2.482087 12.000000 11 356.298095
5.044732 0.544473 2.741457 11.000000 9 356.298097
5.651744 0.608989 2.384989 11.000000 7 356.298100
5.757471 0.619364 1.790942 10.000000 5 356.298102
5.792504 0.623133 1.197560 6.000000 3 356.298105
4.025421 0.432328 0.455700 14.000000 1 356.298107
3.300957 0.351613 3.036761 10.000000 14 356.298115
3.358678 0.357759 2.542979 9.000000 12 356.298118
3.937317 0.418698 2.411440 12.000000 10 356.298120
5.331050 0.566904 2.565776 11.000000 8 356.298123
5.776720 0.613277 2.109844 10.000000 6 356.298125
4.029030 0.425604 0.257107 12.000000 0 356.298133
0.026315 -0.000392 1.449218 8.000000 31 356.298144
0.744347 0.058712 4.747051 104.000000 28 356.298146
0.968919 0.075299 4.695784 92.000000 27 356.298149
1.321272 0.128959 4.288615 93.000000 25 356.298151
1.732564 0.178758 4.162902 91.000000 23 356.298154
2.333374 0.241146 4.364437 85.000000 21 356.298157
2.830564 0.292523 4.252017 91.000000 19 356.298159
3.372591 0.348534 4.134573 10.000000 17 356.298162
0.090781 0.003510 1.407063 5.000000 30 356.298169
0.162870 0.009463 1.476322 6.000000 29 356.298172
1.192205 0.107848 4.643123 96.000000 26 356.298175
1.525496 0.154709 4.223905 92.000000 24 356.298177
2.096697 0.213363 4.419571 95.000000 22 356.298180
2.575506 0.262532 4.304747 88.000000 20 356.298182
3.088029 0.314770 4.183506 38.000000 18 356.298185
3.653777 0.372434 4.059772 10.000000 16 356.298187
3.820485 0.399534 3.854648 7.000000 15 356.298145
3.340480 0.349335 2.789621 9.000000 13 356.298148
3.632831 0.379267 2.479346 11.000000 11 356.298150
5.042196 0.526400 2.739138 11.000000 9 356.298153
5.644614 0.588296 2.381243 11.000000 7 356.298155
5.802542 0.603731 1.803624 10.000000 5 356.298158
5.814188 0.604943 1.201290 8.000000 3 356.298160
4.041766 0.419817 0.457039 12.000000 1 356.298163
3.320738 0.342001 3.053385 9.000000 14 356.298171
3.384031 0.348517 2.560639 9.000000 12 356.298173
3.934466 0.404511 2.408908 12.000000 10 356.298176
5.328482 0.547828 2.563678 11.000000 8 356.298178
5.816408 0.596966 2.122986 10.000000 6 356.298181
4.400280 0.450847 1.157562 11.000000 4 356.298183
5.862391 0.599618 0.913081 8.000000 2 356.298186
4.110013 0.419657 0.260331 9.000000 0 356.298189
0.026314 -0.000479 1.449218 8.000000 31 356.298199
0.744538 0.056243 4.747051 104.000000 28 356.298202
0.969164 0.072086 4.695784 94.000000 27 356.298204
1.321692 0.124577 4.288615 92.000000 25 356.298207
1.733148 0.173012 4.162902 92.000000 23 356.298209
2.331777 0.233169 4.360048 87.000000 21 356.298212
2.831518 0.283135 4.252017 90.000000 19 356.298214
3.370538 0.337029 4.130736 9.000000 17 356.298217
0.090792 0.003209 1.407063 5.000000 30 356.298225
0.160767 0.008816 1.456437 6.000000 29 356.298227
1.192556 0.103894 4.643123 96.000000 26 356.298230
1.526001 0.149649 4.223905 90.000000 24 356.298232
2.097394 0.206408 4.419571 95.000000 22 356.298235
2.576363 0.253990 4.304747 89.000000 20 356.298237
3.086057 0.304232 4.179516 65.000000 18 356.298240
3.651618 0.359983 4.056098 10.000000 16 356.298243
3.906943 0.395483 3.938757 9.000000 15 356.298200
3.364858 0.340608 2.808447 8.000000 13 356.298203
3.629908 0.366798 2.476604 11.000000 11 356.298205
5.039505 0.509231 2.736820 11.000000 9 356.298208
5.637308 0.568644 2.377497 11.000000 7 356.298211
5.842697 0.588331 1.814898 9.000000 5 356.298213
5.845486 0.588612 1.206886 9.000000 3 356.298216
4.062956 0.408404 0.458823 11.000000 1 356.298218
3.340434 0.332839 3.070009 8.000000 14 356.298226
3.401257 0.338896 2.572411 9.000000 12 356.298229
3.927206 0.390608 2.403843 12.000000 10 356.298231
5.321237 0.529257 2.559482 12.000000 8 356.298234
5.860649 0.581874 2.137770 10.000000 6 356.298236
4.406588 0.436732 1.158734 9.000000 4 356.298239
5.893915 0.583099 0.917220 12.000000 2 356.298241
4.185958 0.413390 0.263354 8.000000 0 356.298244
0.026312 -0.000571 1.449218 8.000000 31 356.298255
0.744730 0.053644 4.747051 104.000000 28 356.298257
0.969409 0.068702 4.695784 93.000000 27 356.298260
1.320631 0.119828 4.283843 94.000000 25 356.298262
1.733741 0.166961 4.162902 91.000000 23 356.298265
2.332577 0.225028 4.360048 87.000000 21 356.298267
2.832489 0.273250 4.252017 90.000000 19 356.298270
3.371694 0.325261 4.130736 9.000000 17 356.298272
0.090513 0.002887 1.402071 5.000000 30 356.298280
0.159197 0.008180 1.441522 6.000000 29 356.298283
1.192912 0.099731 4.643123 96.000000 26 356.298285
1.524796 0.144159 4.219212 90.000000 24 356.298288
2.098101 0.199086 4.419571 95.000000 22 356.298290
2.574638 0.244748 4.300481 88.000000 20 356.298293
3.087100 0.293458 4.179516 84.000000 18 356.298296
3.652853 0.347234 4.056098 10.000000 16 356.298298
3.918948 0.382883 3.949271 9.000000 15 356.298256
3.393148 0.331510 2.830412 8.000000 13 356.298258
3.627004 0.353719 2.473862 11.000000 11 356.298261
5.036843 0.491207 2.734502 11.000000 9 356.298263
5.630031 0.548064 2.373751 11.000000 7 356.298266
5.887689 0.572109 1.827581 9.000000 5 356.298269
5.935511 0.576756 1.223673 10.000000 3 356.298271
4.123838 0.399989 0.464178 9.000000 1 356.298274
3.360162 0.322963 3.086633 8.000000 14 356.298281
3.418513 0.328568 2.584184 9.000000 12 356.298284
3.932837 0.377309 2.406375 11.000000 10 356.298287
5.318534 0.510245 2.557384 12.000000 8 356.298289
5.872047 0.562313 2.141055 9.000000 6 356.298292
4.408086 0.421347 1.158734 9.000000 4 356.298294
5.861406 0.559230 0.912391 13.000000 2 356.298297
4.281871 0.407775 0.267184 10.000000 0 356.298299
0.026310 -0.000662 1.449218 8.000000 31 356.298310
0.744912 0.051044 4.747051 104.000000 28 356.298313
0.969643 0.065318 4.695784 93.000000 27 356.298315
1.321041 0.115217 4.283843 94.000000 25 356.298318
1.734313 0.160908 4.162902 89.000000 23 356.298320
2.333348 0.216884 4.360048 86.000000 21 356.298323
2.830624 0.263100 4.247884 89.000000 19 356.298325
3.369617 0.313193 4.126900 9.000000 17 356.298328
0.089943 0.002561 1.392088 5.000000 30 356.298336
0.157624 0.007555 1.426608 6.000000 29 356.298338
1.193252 0.095566 4.643123 96.000000 26 356.298341
1.525290 0.138836 4.219212 90.000000 24 356.298343
2.098783 0.191761 4.419571 95.000000 22 356.298346
2.575476 0.235759 4.300481 89.000000 20 356.298349
3.085104 0.282406 4.175527 87.000000 18 356.298351
3.650666 0.334172 4.052422 10.000000 16 356.298354
3.952216 0.372210 3.980812 11.000000 15 356.298311
3.421414 0.322219 2.852376 8.000000 13 356.298314
3.624054 0.340665 2.471121 11.000000 11 356.298316
5.034116 0.473207 2.732184 11.000000 9 356.298319
5.627293 0.527975 2.371878 11.000000 7 356.298322
5.927861 0.555132 1.838854 9.000000 5 356.298324
5.966834 0.558781 1.229269 9.000000 3 356.298327
4.209502 0.393471 0.471764 7.000000 1 356.298329
3.376142 0.312609 3.099933 8.000000 14 356.298337
3.435738 0.318124 2.595957 9.000000 12 356.298340
3.929837 0.363182 2.403843 11.000000 10 356.298342
5.311244 0.490842 2.553187 12.000000 8 356.298345
5.892784 0.543548 2.147626 10.000000 6 356.298347
4.462771 0.410859 1.171630 3.000000 4 356.298350
5.868254 0.539219 0.913081 13.000000 2 356.298352
4.313118 0.395563 0.268393 10.000000 0 356.298355
0.026307 -0.000754 1.449218 8.000000 31 356.298366
0.744311 0.048393 4.742112 104.000000 28 356.298368
0.969865 0.061933 4.695784 94.000000 27 356.298371
1.321436 0.110605 4.283843 93.000000 25 356.298373
1.732918 0.154679 4.158299 89.000000 23 356.298376
2.334091 0.208738 4.360048 87.000000 21 356.298378
2.831525 0.253218 4.247884 89.000000 19 356.298381
3.367496 0.301144 4.123063 9.000000 17 356.298383
0.089662 0.002244 1.387097 5.000000 30 356.298391
0.156583 0.006962 1.416665 8.000000 29 356.298394
1.193579 0.091400 4.643123 96.000000 26 356.298396
1.525766 0.133510 4.219212 90.000000 24 356.298399
2.099440 0.184434 4.419571 95.000000 22 356.298401
2.576283 0.226768 4.300481 89.000000 20 356.298404
3.086071 0.271635 4.175527 88.000000 18 356.298407
3.651810 0.321427 4.052422 10.000000 16 356.298409
3.949939 0.358090 3.977307 10.000000 15 356.298367
3.441903 0.312031 2.868065 7.000000 13 356.298369
3.621057 0.327636 2.468380 11.000000 11 356.298372
5.031325 0.455233 2.729866 11.000000 9 356.298375
5.619868 0.507495 2.368132 11.000000 7 356.298377
5.953652 0.536589 1.845900 9.000000 5 356.298380
5.983425 0.539273 1.232067 9.000000 3 356.298382
4.315011 0.388144 0.481134 9.000000 1 356.298385
3.403250 0.303141 3.123207 9.000000 14 356.298393
3.452932 0.307564 2.607729 9.000000 12 356.298395
3.931081 0.349462 2.403843 11.000000 10 356.298398
5.308404 0.471897 2.551090 12.000000 8 356.298400
5.932278 0.526313 2.160768 12.000000 6 356.298403
5.860235 0.517860 0.911702 13.000000 2 356.298408
4.334379 0.382261 0.269199 10.000000 0 356.298410
0.026304 -0.000846 1.449218 8.000000 31 356.298421
0.744475 0.045795 4.742112 104.000000 28 356.298424
0.970076 0.058547 4.695784 93.000000 27 356.298426
1.321814 0.105992 4.283843 94.000000 25 356.298429
1.733448 0.148630 4.158299 91.000000 23 356.298431
2.332419 0.200384 4.355660 85.000000 21 356.298434
2.832392 0.243333 4.247884 88.000000 19 356.298436
3.368527 0.289387 4.123063 9.000000 17 356.298439
0.089380 0.001928 1.382105 5.000000 30 356.298447
0.155539 0.006377 1.406722 11.000000 29 356.298449
1.193890 0.087234 4.643123 96.000000 26 356.298452
1.526222 0.128184 4.219212 90.000000 24 356.298454
2.100071 0.177104 4.419571 95.000000 22 356.298457
2.574461 0.217554 4.296215 89.000000 20 356.298460
3.087000 0.260861 4.175527 87.000000 18 356.298462
3.649533 0.308392 4.048747 10.000000 16 356.298465
3.951165 0.344300 3.977307 8.000000 15 356.298422
3.466240 0.302043 2.886892 7.000000 13 356.298425
3.622178 0.314994 2.468380 11.000000 11 356.298427
5.028470 0.437284 2.727548 11.000000 9 356.298430
5.616987 0.487474 2.366259 11.000000 7 356.298433
6.014634 0.520926 1.237662 10.000000 3 356.298438
4.336186 0.374795 0.482919 9.000000 1 356.298440
3.434053 0.293806 3.149806 10.000000 14 356.298448
3.482175 0.297921 2.628331 9.000000 12 356.298451
3.927981 0.335371 2.401310 11.000000 10 356.298453
5.300975 0.452593 2.546893 12.000000 8 356.298456
5.938784 0.506004 2.162410 12.000000 6 356.298458
6.044398 0.513940 1.553805 7.000000 4 356.298461
5.857072 0.496982 0.911012 13.000000 2 356.298463
4.360578 0.369236 0.270206 11.000000 0 356.298466
0.026258 -0.000930 1.444219 8.000000 31 356.298477
0.744630 0.043196 4.742112 104.000000 28 356.298479
0.970274 0.055161 4.695784 93.000000 27 356.298482
1.322176 0.101377 4.283843 93.000000 25 356.298484
1.733956 0.142578 4.158299 91.000000 23 356.298487
2.333104 0.192242 4.355660 85.000000 21 356.298489
2.833224 0.233444 4.247884 89.000000 19 356.298492
3.366322 0.277364 4.119226 9.000000 17 356.298495
0.089097 0.001615 1.377113 6.000000 30 356.298502
0.155560 0.005834 1.406722 28.000000 29 356.298505
1.194188 0.083066 4.643123 96.000000 26 356.298507
1.526660 0.122855 4.219212 90.000000 24 356.298510
2.100676 0.169772 4.419571 95.000000 22 356.298513
2.575204 0.208566 4.296215 89.000000 20 356.298515
3.084888 0.249840 4.171537 87.000000 18 356.298518
3.650587 0.295651 4.048747 10.000000 16 356.298520
3.952343 0.330506 3.977307 8.000000 15 356.298478
3.486670 0.291563 2.902581 7.000000 13 356.298480
3.619089 0.302000 2.465638 11.000000 11 356.298483
5.007891 0.417886 2.715958 10.000000 9 356.298486
5.609414 0.467095 2.362513 11.000000 7 356.298488
4.513442 0.375041 1.420323 8.000000 5 356.298491
6.016417 0.499928 1.237662 11.000000 3 356.298493
4.372209 0.362537 0.486042 9.000000 1 356.298496
3.475999 0.285176 3.186379 8.000000 14 356.298504
3.507365 0.287747 2.645990 10.000000 12 356.298506
3.924831 0.321306 2.398778 11.000000 10 356.298509
5.293477 0.433345 2.542697 12.000000 8 356.298511
5.935807 0.484886 2.160768 12.000000 6 356.298514
6.075222 0.495207 1.560839 8.000000 4 356.298516
5.848899 0.475731 0.909632 13.000000 2 356.298519
4.386738 0.356034 0.271214 11.000000 0 356.298521
0.026255 -0.001022 1.444219 8.000000 31 356.298532
0.744777 0.040597 4.742112 103.000000 28 356.298535
0.970461 0.051773 4.695784 94.000000 27 356.298537
1.322521 0.096761 4.283843 93.000000 25 356.298540
1.732495 0.136371 4.153697 91.000000 23 356.298542
2.333761 0.184096 4.355660 87.000000 21 356.298545
2.831216 0.223332 4.243751 90.000000 19 356.298547
3.364073 0.265359 4.115388 9.000000 17 356.298550
0.088812 0.001303 1.372122 7.000000 30 356.298558
0.155046 0.005275 1.401751 33.000000 29 356.298560
1.194470 0.078897 4.643123 96.000000 26 356.298563
1.527080 0.117526 4.219212 91.000000 24 356.298565
2.103427 0.162607 4.424073 82.000000 22 356.298568
2.575917 0.199576 4.296215 89.000000 20 356.298571
3.085741 0.239070 4.171537 88.000000 18 356.298573
3.651596 0.282906 4.048747 10.000000 16 356.298576
3.949917 0.316423 3.973803 9.000000 15 356.298533
3.507068 0.280945 2.918270 7.000000 13 356.298536
3.615953 0.289032 2.462897 11.000000 11 356.298539
4.960742 0.396520 2.690460 9.000000 9 356.298541
5.606390 0.447143 2.360640 12.000000 7 356.298544
4.538635 0.361186 1.427369 11.000000 5 356.298546
6.023021 0.479314 1.238595 12.000000 3 356.298549
4.413163 0.350426 0.489612 8.000000 1 356.298551
3.692900 0.289997 3.379220 7.000000 14 356.298559
3.536555 0.277717 2.666592 9.000000 12 356.298562
3.921631 0.307267 2.396246 11.000000 10 356.298564
5.285907 0.414156 2.538501 12.000000 8 356.298567
5.918631 0.462691 2.154197 12.000000 6 356.298569
6.130218 0.478155 1.573735 10.000000 4 356.298572
5.840651 0.454544 0.908253 14.000000 2 356.298574
4.412859 0.342653 0.272222 12.000000 0 356.298577
0.026251 -0.001113 1.444219 8.000000 31 356.298588
0.744914 0.037997 4.742112 101.000000 28 356.298590
0.970636 0.048386 4.695784 94.000000 27 356.298593
1.322851 0.092144 4.283843 95.000000 25 356.298595
1.732961 0.130323 4.153697 91.000000 23 356.298598
2.334389 0.175949 4.355660 88.000000 21 356.298600
2.831978 0.213447 4.243751 90.000000 19 356.298603
3.364979 0.253615 4.115388 9.000000 17 356.298606
0.088816 0.000993 1.372122 9.000000 30 356.298613
0.154530 0.004720 1.396780 34.000000 29 356.298616
1.193483 0.074648 4.638284 96.000000 26 356.298618
1.527481 0.112194 4.219212 90.000000 24 356.298621
2.108325 0.155584 4.433074 27.000000 22 356.298624
2.576598 0.190583 4.296215 90.000000 20 356.298626
3.083551 0.228075 4.167548 88.000000 18 356.298629
3.649181 0.269908 4.045072 10.000000 16 356.298631
3.950998 0.302633 3.973803 9.000000 15 356.298589
3.527435 0.270188 2.933959 9.000000 13 356.298591
3.612771 0.276090 2.460155 11.000000 11 356.298594
5.598671 0.426865 2.356894 11.000000 7 356.298599
4.544651 0.345705 1.428778 9.000000 5 356.298602
6.005065 0.456796 1.234864 11.000000 3 356.298604
4.419325 0.335396 0.490058 8.000000 1 356.298607
4.025316 0.301966 3.675132 8.000000 14 356.298615
3.561687 0.267185 2.684251 9.000000 12 356.298617
3.918380 0.293254 2.393713 11.000000 10 356.298620
5.282794 0.395363 2.536403 13.000000 8 356.298622
5.920210 0.442028 2.154197 12.000000 6 356.298625
6.151239 0.458198 1.578424 10.000000 4 356.298627
5.837263 0.433786 0.907563 14.000000 2 356.298630
4.433957 0.328724 0.273028 12.000000 0 356.298633
0.026290 -0.001213 1.449218 8.000000 31 356.298643
0.745042 0.035396 4.742112 101.000000 28 356.298646
0.969781 0.044950 4.690888 94.000000 27 356.298648
1.321674 0.087428 4.279071 94.000000 25 356.298651
1.733405 0.124273 4.153697 91.000000 23 356.298653
2.332599 0.167627 4.351272 87.000000 21 356.298656
2.832706 0.203561 4.243751 90.000000 19 356.298659
3.362646 0.241638 4.111551 9.000000 17 356.298661
0.088819 0.000683 1.372122 11.000000 30 356.298669
0.154011 0.004169 1.391808 29.000000 29 356.298671
1.193736 0.070482 4.638284 96.000000 26 356.298674
1.527863 0.106862 4.219212 90.000000 24 356.298677
2.577247 0.181588 4.296215 89.000000 20 356.298682
3.081322 0.217099 4.163558 88.000000 18 356.298684
3.646719 0.256930 4.041397 10.000000 16 356.298687
3.948473 0.288580 3.970298 9.000000 15 356.298644
3.547769 0.259292 2.949647 8.000000 13 356.298647
3.609542 0.263173 2.457414 11.000000 11 356.298650
4.252014 0.310013 2.317258 13.000000 9 356.298652
5.595503 0.406983 2.355021 11.000000 7 356.298655
4.545830 0.329839 1.428778 8.000000 5 356.298657
5.996825 0.435121 1.232999 11.000000 3 356.298660
4.450271 0.322125 0.492735 11.000000 1 356.298662
4.160440 0.297502 3.794826 9.000000 14 356.298670
3.586788 0.256480 2.701910 9.000000 12 356.298673
3.915080 0.279268 2.391181 11.000000 10 356.298675
5.275089 0.376275 2.532207 12.000000 8 356.298678
5.921717 0.421360 2.154197 12.000000 6 356.298680
6.186740 0.439132 1.586630 11.000000 4 356.298683
5.828862 0.412708 0.906183 15.000000 2 356.298685
4.430094 0.312893 0.272826 12.000000 0 356.298688
0.026286 -0.001305 1.449218 8.000000 31 356.298699
0.744385 0.032761 4.737173 101.000000 28 356.298701
0.969932 0.041565 4.690888 92.000000 27 356.298704
1.321972 0.082814 4.279071 93.000000 25 356.298706
1.733828 0.118221 4.153697 91.000000 23 356.298709
2.333170 0.159484 4.351272 87.000000 21 356.298711
2.830592 0.193480 4.239618 90.000000 19 356.298714
3.360271 0.229680 4.107715 11.000000 17 356.298717
0.088821 0.000373 1.372122 13.000000 30 356.298724
0.153491 0.003621 1.386837 26.000000 29 356.298727
1.193975 0.066314 4.638284 96.000000 26 356.298729
1.528227 0.101528 4.219212 91.000000 24 356.298732
2.575263 0.172416 4.291950 89.000000 20 356.298737
3.079053 0.206140 4.159569 88.000000 18 356.298740
3.647593 0.244199 4.041397 10.000000 16 356.298742
3.949457 0.274795 3.970298 9.000000 15 356.298700
3.571954 0.248528 2.968474 8.000000 13 356.298703
3.622952 0.251441 2.465638 9.000000 11 356.298705
4.257490 0.295475 2.319576 12.000000 9 356.298708
5.587640 0.386809 2.351275 11.000000 7 356.298710
5.988505 0.413508 1.231134 10.000000 3 356.298715
4.466273 0.307615 0.494074 9.000000 1 356.298718
4.209888 0.286271 3.838049 9.000000 14 356.298726
3.611858 0.245604 2.719569 9.000000 12 356.298728
3.911729 0.265308 2.388648 11.000000 10 356.298731
5.271842 0.357552 2.530109 12.000000 8 356.298733
5.923151 0.400687 2.154197 12.000000 6 356.298736
6.183386 0.417207 1.585458 12.000000 4 356.298738
5.820385 0.391694 0.904804 14.000000 2 356.298741
4.431159 0.297427 0.272826 18.000000 0 356.298744
0.026281 -0.001397 1.449218 8.000000 31 356.298754
0.744494 0.030163 4.737173 101.000000 28 356.298757
0.970071 0.038179 4.690888 92.000000 27 356.298759
1.322253 0.078199 4.279071 93.000000 25 356.298762
1.734231 0.112168 4.153697 91.000000 23 356.298764
2.331322 0.151184 4.346883 85.000000 21 356.298767
2.831250 0.183598 4.239618 88.000000 19 356.298770
3.361052 0.217949 4.107715 46.000000 17 356.298772
0.088822 0.000063 1.372122 6.000000 30 356.298780
0.152969 0.003077 1.381865 25.000000 29 356.298782
1.194199 0.062146 4.638284 96.000000 26 356.298785
1.526850 0.096084 4.214519 91.000000 24 356.298788
2.575850 0.163426 4.291950 88.000000 20 356.298793
3.079754 0.195391 4.159569 88.000000 18 356.298795
3.645040 0.231250 4.037722 9.000000 16 356.298798
3.946834 0.260772 3.966794 9.000000 15 356.298755
3.596106 0.237597 2.987301 8.000000 13 356.298758
3.644670 0.240167 2.479346 9.000000 11 356.298761
4.249654 0.280029 2.314939 12.000000 9 356.298763
5.579704 0.366694 2.347528 11.000000 7 356.298766
5.980110 0.391960 1.229269 10.000000 3 356.298771
4.492167 0.293647 0.496305 9.000000 1 356.298773
4.214589 0.271814 3.841374 8.000000 14 356.298781
3.636895 0.234555 2.737228 9.000000 12 356.298784
3.912631 0.251652 2.388648 11.000000 10 356.298786
5.273057 0.339148 2.530109 11.000000 8 356.298789
6.175103 0.395000 1.583113 12.000000 4 356.298794
5.811832 0.370744 0.903424 14.000000 2 356.298797
4.437156 0.282275 0.273028 20.000000 0 356.298799
0.026233 -0.001480 1.444219 8.000000 31 356.298810
0.743819 0.027536 4.732233 101.000000 28 356.298812
0.970199 0.034793 4.690888 94.000000 27 356.298815
1.322517 0.073583 4.279071 93.000000 25 356.298817
1.734612 0.106114 4.153697 92.000000 23 356.298820
2.331836 0.143045 4.346883 85.000000 21 356.298823
2.831874 0.173714 4.239618 88.000000 19 356.298825
3.358592 0.206019 4.103878 59.000000 17 356.298828
0.088821 -0.000247 1.372122 6.000000 30 356.298835
0.152979 0.002543 1.381865 20.000000 29 356.298838
1.194409 0.057977 4.638284 96.000000 26 356.298841
1.527176 0.090754 4.214519 91.000000 24 356.298843
2.573801 0.154277 4.287683 89.000000 20 356.298848
3.077409 0.184459 4.155579 88.000000 18 356.298851
3.645825 0.218525 4.037722 9.000000 16 356.298853
3.944160 0.246771 3.963289 9.000000 15 356.298811
3.620224 0.226502 3.006127 8.000000 13 356.298814
3.666353 0.228745 2.493053 8.000000 11 356.298816
4.250606 0.265194 2.314939 12.000000 9 356.298819
5.576323 0.346927 2.345655 11.000000 7 356.298821
6.263175 0.388561 1.933270 10.000000 5 356.298824
5.971635 0.370474 1.227403 12.000000 3 356.298826
5.278512 0.326549 0.566806 5.000000 1 356.298829
4.260241 0.259829 3.881272 10.000000 14 356.298837
3.661899 0.223335 2.754887 9.000000 12 356.298839
3.909183 0.237731 2.386116 11.000000 10 356.298842
5.269679 0.320464 2.528011 11.000000 8 356.298844
4.723786 0.286439 1.735312 6.000000 6 356.298847
6.161889 0.372562 1.579596 12.000000 4 356.298849
5.808147 0.350157 0.902734 14.000000 2 356.298852
4.428141 0.266185 0.272625 22.000000 0 356.298855
0.026228 -0.001571 1.444219 8.000000 31 356.298866
0.743910 0.024939 4.732233 99.000000 28 356.298869
0.970314 0.031406 4.690888 94.000000 27 356.298871
1.322766 0.068966 4.279071 94.000000 25 356.298874
1.734971 0.100058 4.153697 97.000000 23 356.298876
2.332321 0.134905 4.346883 86.000000 21 356.298879
2.829653 0.163665 4.235485 90.000000 19 356.298881
3.359291 0.194294 4.103878 90.000000 17 356.298884
0.088820 -0.000557 1.372122 7.000000 30 356.298892
0.152453 0.002005 1.376894 19.000000 29 356.298894
1.194604 0.053808 4.638284 96.000000 26 356.298897
1.527483 0.085423 4.214519 90.000000 24 356.298899
2.574324 0.145292 4.287683 90.000000 20 356.298904
3.078035 0.173716 4.155579 88.000000 18 356.298907
3.643181 0.205607 4.034046 9.000000 16 356.298910
3.944998 0.233002 3.963289 9.000000 15 356.298867
3.640424 0.215011 3.021816 9.000000 13 356.298870
3.692174 0.217421 2.509501 8.000000 11 356.298872
4.247083 0.250094 2.312622 11.000000 9 356.298875
5.568245 0.326916 2.341909 11.000000 7 356.298878
6.250126 0.365855 1.929043 9.000000 5 356.298880
5.963085 0.349053 1.225538 12.000000 3 356.298883
4.261122 0.244956 3.881272 10.000000 14 356.298893
3.690903 0.212175 2.775489 9.000000 12 356.298896
3.905685 0.223838 2.383584 12.000000 10 356.298898
5.266235 0.301807 2.525913 11.000000 8 356.298901
4.724757 0.269948 1.735312 13.000000 6 356.298903
6.153446 0.350498 1.577252 11.000000 4 356.298906
5.799446 0.329319 0.901354 14.000000 2 356.298908
4.488898 0.254115 0.275043 90.000000 0 356.298911
0.026179 -0.001654 1.439219 8.000000 31 356.298922
0.743993 0.022342 4.732233 99.000000 28 356.298924
0.970418 0.028018 4.690888 94.000000 27 356.298927
1.322999 0.064348 4.279071 94.000000 25 356.298929
1.733359 0.093896 4.149094 96.000000 23 356.298932
2.332778 0.126763 4.346883 87.000000 21 356.298934
2.830207 0.153787 4.235485 90.000000 19 356.298937
3.359949 0.182567 4.103878 96.000000 17 356.298939
0.088817 -0.000867 1.372122 7.000000 30 356.298947
0.152459 0.001472 1.376894 15.000000 29 356.298950
1.194785 0.049637 4.638284 96.000000 26 356.298952
1.527772 0.080090 4.214519 91.000000 24 356.298955
1.791440 0.094531 3.771451 4.000000 22 356.298957
2.574815 0.136305 4.287683 89.000000 20 356.298960
3.078622 0.162970 4.155579 87.000000 18 356.298963
3.643876 0.192888 4.034046 9.000000 16 356.298965
3.942226 0.219032 3.959785 10.000000 15 356.298923
3.672247 0.204030 3.046919 8.000000 13 356.298925
3.717961 0.205919 2.525950 8.000000 11 356.298928
4.247930 0.235268 2.312622 11.000000 9 356.298930
5.564723 0.307222 2.340036 11.000000 7 356.298933
6.251365 0.344036 1.929043 9.000000 5 356.298936
5.959362 0.327966 1.224606 12.000000 3 356.298938
5.628743 0.308786 0.598041 13.000000 1 356.298941
4.261950 0.230081 3.881272 10.000000 14 356.298948
3.715838 0.200597 2.793148 8.000000 12 356.298951
3.902137 0.209971 2.381051 12.000000 10 356.298954
5.258193 0.282935 2.521717 11.000000 8 356.298956
4.744534 0.254466 1.741883 9.000000 6 356.298959
6.144925 0.328497 1.574907 12.000000 4 356.298961
5.795615 0.308810 0.900665 15.000000 2 356.298964
4.524680 0.240299 0.276454 89.000000 0 356.298966
0.026174 -0.001745 1.439219 8.000000 31 356.298977
0.744066 0.019745 4.732233 101.000000 28 356.298980
0.970510 0.024631 4.690888 91.000000 27 356.298982
1.323215 0.059730 4.279071 94.000000 25 356.298985
1.733676 0.087845 4.149094 96.000000 23 356.298987
2.333206 0.118619 4.346883 86.000000 21 356.298990
2.830727 0.143907 4.235485 90.000000 19 356.298992
3.360565 0.170837 4.103878 95.000000 17 356.298995
0.088814 -0.001177 1.372122 7.000000 30 356.299003
0.152463 0.000940 1.376894 15.000000 29 356.299005
1.194951 0.045467 4.638284 96.000000 26 356.299008
1.526319 0.074673 4.209826 91.000000 24 356.299010
1.796110 0.088491 3.780453 4.000000 22 356.299013
2.575275 0.127317 4.287683 89.000000 20 356.299016
3.079172 0.152223 4.155579 87.000000 18 356.299018
3.644527 0.180168 4.034046 9.000000 16 356.299021
3.942967 0.205270 3.959785 10.000000 15 356.298978
3.669049 0.191008 3.043781 8.000000 13 356.298981
3.743712 0.194239 2.542399 8.000000 11 356.298983
4.244301 0.220209 2.310303 12.000000 9 356.298986
5.556502 0.287317 2.336290 11.000000 7 356.298989
6.242947 0.321719 1.926224 9.000000 5 356.298991
5.950658 0.306656 1.222740 12.000000 3 356.298994
5.619839 0.288625 0.597148 13.000000 1 356.298996
4.258998 0.215014 3.877948 10.000000 14 356.299004
3.740736 0.188848 2.810807 9.000000 12 356.299007
3.898540 0.196132 2.378519 12.000000 10 356.299009
5.254615 0.264351 2.519619 11.000000 8 356.299012
4.849157 0.243105 1.778022 5.000000 6 356.299014
6.136325 0.306561 1.572562 12.000000 4 356.299017
5.786766 0.288085 0.899285 15.000000 2 356.299019
4.560420 0.226236 0.277865 87.000000 0 356.299022
0.026167 -0.001836 1.439219 8.000000 31 356.299033
0.743354 0.017130 4.727294 100.000000 28 356.299035
0.970590 0.021243 4.690888 91.000000 27 356.299038
1.321924 0.055048 4.274300 94.000000 25 356.299040
1.733973 0.081793 4.149094 96.000000 23 356.299043
2.331213 0.110360 4.342494 86.000000 21 356.299045
2.828401 0.133892 4.231352 90.000000 19 356.299048
3.361141 0.159106 4.103878 95.000000 17 356.299050
0.088809 -0.001487 1.372122 7.000000 30 356.299058
0.152465 0.000408 1.376894 15.000000 29 356.299061
1.193845 0.041252 4.633445 96.000000 26 356.299063
1.526570 0.069344 4.209826 90.000000 24 356.299066
1.798583 0.082320 3.784954 5.000000 22 356.299068
2.573099 0.118207 4.283418 89.000000 20 356.299071
3.076674 0.141336 4.151590 88.000000 18 356.299074
3.641748 0.167289 4.030371 9.000000 16 356.299076
3.940097 0.191332 3.956280 10.000000 15 356.299034
3.712464 0.180276 3.078296 8.000000 13 356.299036
3.769427 0.182383 2.558848 8.000000 11 356.299039
4.240619 0.205178 2.307986 12.000000 9 356.299042
5.562101 0.268142 2.338163 11.000000 7 356.299044
6.229656 0.299234 1.921997 11.000000 5 356.299047
5.946786 0.285647 1.221808 12.000000 3 356.299049
5.610863 0.268530 0.596256 13.000000 1 356.299052
4.255992 0.199971 3.874623 10.000000 14 356.299060
3.769636 0.177117 2.831409 9.000000 12 356.299062
3.894895 0.182321 2.375986 12.000000 10 356.299065
5.201103 0.243461 2.494442 9.000000 8 356.299067
6.127647 0.284688 1.570218 12.000000 4 356.299072
5.777842 0.267426 0.897905 15.000000 2 356.299075
4.611089 0.212617 0.279880 84.000000 0 356.299077
0.026118 -0.001918 1.434219 8.000000 31 356.299088
0.743409 0.014535 4.727294 100.000000 28 356.299091
0.970658 0.017855 4.690888 94.000000 27 356.299093
1.322108 0.050434 4.274300 92.000000 25 356.299096
1.734247 0.075739 4.149094 96.000000 23 356.299098
2.331583 0.102222 4.342494 85.000000 21 356.299101
2.828851 0.124018 4.231352 88.000000 19 356.299103
3.361676 0.147372 4.103878 95.000000 17 356.299106
0.088514 -0.001788 1.367130 7.000000 30 356.299114
0.152466 -0.000124 1.376894 13.000000 29 356.299116
1.193982 0.037084 4.633445 96.000000 26 356.299119
1.526803 0.064015 4.209826 90.000000 24 356.299121
1.801035 0.076134 3.789455 6.000000 22 356.299124
2.573495 0.109224 4.283418 89.000000 20 356.299127
3.077149 0.130595 4.151590 88.000000 18 356.299129
3.642309 0.154576 4.030371 9.000000 16 356.299132
3.940741 0.177577 3.956280 9.000000 15 356.299089
3.786961 0.170645 3.137914 7.000000 13 356.299092
3.799280 0.170536 2.578038 8.000000 11 356.299094
4.236884 0.190175 2.305667 12.000000 9 356.299097
5.549110 0.248104 2.332544 11.000000 7 356.299100
6.221078 0.277060 1.919178 11.000000 5 356.299102
5.937932 0.264450 1.219942 12.000000 3 356.299105
5.616742 0.249164 0.596702 13.000000 1 356.299107
4.256664 0.185113 3.874623 9.000000 14 356.299115
3.798499 0.165187 2.852011 8.000000 12 356.299118
3.895508 0.168724 2.375986 12.000000 10 356.299120
5.147510 0.222947 2.469265 8.000000 8 356.299123
5.865120 0.253002 2.131199 13.000000 6 356.299125
6.118891 0.262879 1.567873 12.000000 4 356.299128
5.763898 0.246620 0.895836 14.000000 2 356.299130
4.621785 0.196945 0.280283 83.000000 0 356.299133
0.026111 -0.002009 1.434219 8.000000 31 356.299144
0.742678 0.011928 4.722355 100.000000 28 356.299146
0.970715 0.014467 4.690888 92.000000 27 356.299149
1.322276 0.045818 4.274300 91.000000 25 356.299151
1.734501 0.069685 4.149094 96.000000 23 356.299154
2.329532 0.093986 4.338106 85.000000 21 356.299156
2.826455 0.114029 4.227219 88.000000 19 356.299159
3.362170 0.135637 4.103878 96.000000 17 356.299162
0.088507 -0.002097 1.367130 7.000000 30 356.299169
0.152465 -0.000656 1.376894 11.000000 29 356.299172
1.194104 0.032916 4.633445 96.000000 26 356.299174
1.527017 0.058685 4.209826 90.000000 24 356.299177
1.803466 0.069931 3.793956 7.000000 22 356.299180
2.573861 0.100240 4.283418 88.000000 20 356.299182
3.077586 0.119853 4.151590 88.000000 18 356.299185
3.639439 0.141729 4.026696 10.000000 16 356.299187
3.937774 0.163672 3.952775 9.000000 15 356.299145
3.829098 0.158484 2.597229 8.000000 11 356.299150
4.233095 0.175202 2.303349 11.000000 9 356.299153
5.536047 0.228160 2.326925 10.000000 7 356.299155
6.212420 0.254949 1.916360 11.000000 5 356.299158
5.919187 0.242916 1.216212 12.000000 3 356.299160
5.572794 0.227726 0.592686 13.000000 1 356.299163
4.253553 0.170105 3.871298 9.000000 14 356.299171
3.827324 0.153057 2.872613 9.000000 12 356.299173
3.883149 0.154611 2.368389 11.000000 10 356.299176
4.585926 0.182589 2.209107 11.000000 8 356.299178
5.865968 0.232528 2.131199 13.000000 6 356.299181
6.110057 0.241135 1.565529 12.000000 4 356.299183
5.759775 0.226305 0.895146 14.000000 2 356.299186
4.677358 0.182959 0.282500 60.000000 0 356.299188
0.026062 -0.002090 1.429219 8.000000 31 356.299199
0.742716 0.009336 4.722355 100.000000 28 356.299202
0.969741 0.011067 4.685994 94.000000 27 356.299204
1.320935 0.041156 4.269528 93.000000 25 356.299207
1.734734 0.063630 4.149094 90.000000 23 356.299209
2.329846 0.085854 4.338106 85.000000 21 356.299212
2.826836 0.104162 4.227219 91.000000 19 356.299214
3.359419 0.123782 4.100040 95.000000 17 356.299217
0.088210 -0.002394 1.362139 7.000000 30 356.299225
0.152461 -0.001189 1.376894 10.000000 29 356.299227
1.194212 0.028748 4.633445 95.000000 26 356.299230
1.525488 0.053294 4.205133 91.000000 24 356.299232
1.805875 0.063712 3.798456 9.000000 22 356.299235
2.574195 0.091255 4.283418 89.000000 20 356.299238
3.074973 0.109003 4.147601 88.000000 18 356.299240
3.636524 0.128904 4.023021 11.000000 16 356.299243
3.934757 0.149790 3.949271 10.000000 15 356.299200
4.445477 0.169229 3.668198 8.000000 13 356.299203
3.858877 0.146225 2.616419 9.000000 11 356.299206
4.229254 0.160256 2.301031 11.000000 9 356.299208
6.203684 0.232903 1.913542 11.000000 5 356.299213
5.915090 0.222068 1.215279 12.000000 3 356.299216
5.553649 0.207528 0.590902 8.000000 1 356.299218
4.250390 0.155120 3.867973 9.000000 14 356.299226
3.856110 0.140728 2.893216 9.000000 12 356.299229
3.913825 0.142151 2.386116 9.000000 10 356.299231
4.591071 0.166745 2.211205 11.000000 8 356.299234
5.857305 0.211709 2.127914 12.000000 6 356.299236
6.101147 0.219456 1.563184 12.000000 4 356.299239
5.735784 0.205312 0.891697 15.000000 2 356.299241
4.767838 0.169832 0.286127 19.000000 0 356.299244
0.026054 -0.002181 1.429219 8.000000 31 356.299255
0.742744 0.006743 4.722355 100.000000 28 356.299257
0.969774 0.007682 4.685994 94.000000 27 356.299260
1.321070 0.036545 4.269528 94.000000 25 356.299262
1.734945 0.057575 4.149094 90.000000 23 356.299265
2.330132 0.077721 4.338106 75.000000 21 356.299267
2.827183 0.094294 4.227219 90.000000 19 356.299270
3.359831 0.112054 4.100040 95.000000 17 356.299273
0.088202 -0.002686 1.362139 7.000000 30 356.299280
0.152457 -0.001694 1.376894 9.000000 29 356.299283
1.194300 0.024788 4.633445 95.000000 26 356.299285
1.525656 0.048235 4.205133 91.000000 24 356.299288
1.806087 0.057408 3.798456 12.000000 22 356.299291
2.574498 0.082269 4.283418 89.000000 20 356.299293
3.075335 0.098268 4.147601 87.000000 18 356.299296
3.633543 0.116736 4.019346 39.000000 16 356.299298
3.935256 0.136055 3.949271 10.000000 15 356.299256
4.512179 0.155997 3.721540 9.000000 13 356.299258
3.888616 0.133760 2.635609 9.000000 11 356.299261
4.225360 0.145340 2.298713 11.000000 9 356.299264
4.935158 0.169755 2.083431 9.000000 7 356.299266
6.194834 0.212001 1.910723 11.000000 5 356.299269
5.529454 0.187298 0.588671 5.000000 1 356.299274
4.250905 0.140282 3.867973 10.000000 14 356.299282
3.884856 0.128200 2.913818 9.000000 12 356.299284
3.935818 0.129882 2.398778 8.000000 10 356.299287
4.591599 0.151519 2.211205 11.000000 8 356.299289
5.857975 0.192285 2.127914 12.000000 6 356.299292
6.092125 0.198906 1.560839 12.000000 4 356.299294
5.672089 0.184201 0.882729 11.000000 2 356.299297
5.357588 0.173052 0.309908 13.000000 0 356.299300
0.026047 -0.002268 1.429219 8.000000 31 356.299310
0.742762 0.004280 4.722355 99.000000 28 356.299313
0.969794 0.004466 4.685994 93.000000 27 356.299315
1.321184 0.032164 4.269528 94.000000 25 356.299318
1.735127 0.051821 4.149094 95.000000 23 356.299320
2.327982 0.069922 4.333717 37.000000 21 356.299323
2.824667 0.084834 4.223086 88.000000 19 356.299326
3.356980 0.100816 4.096204 93.000000 17 356.299328
0.087902 -0.002981 1.357147 7.000000 30 356.299336
0.152450 -0.002226 1.376894 4.000000 29 356.299338
1.194380 0.020619 4.633445 96.000000 26 356.299341
1.525815 0.042910 4.205133 92.000000 24 356.299344
1.806267 0.051418 3.798456 7.000000 22 356.299346
2.572150 0.073657 4.279151 88.000000 20 356.299349
3.072631 0.087983 4.143611 87.000000 18 356.299351
3.630539 0.103954 4.015671 65.000000 16 356.299354
3.932121 0.122893 3.945766 9.000000 15 356.299311
4.578818 0.143100 3.774883 9.000000 13 356.299314
3.922474 0.121903 2.657541 9.000000 11 356.299317
4.221391 0.131190 2.296395 12.000000 9 356.299319
4.935720 0.152527 2.083431 9.000000 7 356.299322
6.185946 0.190081 1.907905 11.000000 5 356.299324
5.510133 0.168352 0.586886 6.000000 1 356.299329
4.247614 0.126074 3.864648 10.000000 14 356.299337
3.913542 0.116156 2.934420 9.000000 12 356.299340
3.962104 0.116906 2.413973 8.000000 10 356.299342
4.583026 0.135223 2.207009 12.000000 8 356.299345
5.849169 0.171558 2.124629 13.000000 6 356.299347
6.087924 0.177498 1.559667 13.000000 4 356.299350
5.633097 0.163253 0.877211 7.000000 2 356.299352
5.373141 0.154781 0.310513 15.000000 0 356.299355
0.026039 -0.002359 1.429219 8.000000 31 356.299366
0.743549 0.001688 4.727294 99.000000 28 356.299368
0.969804 0.001081 4.685994 94.000000 27 356.299371
1.321289 0.027552 4.269528 93.000000 25 356.299373
1.733344 0.045713 4.144492 95.000000 23 356.299376
2.206071 0.058554 4.109895 3.000000 21 356.299378
2.824946 0.074973 4.223086 88.000000 19 356.299381
3.354106 0.089012 4.092367 93.000000 17 356.299384
0.087892 -0.003288 1.357147 7.000000 30 356.299391
0.151907 -0.002746 1.371923 4.000000 29 356.299394
1.194444 0.016449 4.633445 96.000000 26 356.299396
1.525956 0.037583 4.205133 91.000000 24 356.299399
1.806436 0.045113 3.798456 7.000000 22 356.299402
2.572391 0.064678 4.279151 89.000000 20 356.299404
3.072920 0.077257 4.143611 87.000000 18 356.299407
3.627491 0.091196 4.011995 93.000000 16 356.299409
3.932526 0.109166 3.945766 9.000000 15 356.299367
4.579290 0.127116 3.774883 9.000000 13 356.299370
3.952134 0.109018 2.676731 9.000000 11 356.299372
4.217394 0.116332 2.294077 11.000000 9 356.299375
5.473787 0.150031 2.300703 7.000000 7 356.299377
6.181777 0.168356 1.906496 10.000000 5 356.299380
5.500731 0.148848 0.585993 7.000000 1 356.299385
4.248029 0.111246 3.864648 10.000000 14 356.299393
3.942207 0.103235 2.955022 9.000000 12 356.299395
3.984037 0.103635 2.426635 8.000000 10 356.299398
4.578933 0.119106 2.204911 11.000000 8 356.299400
5.845012 0.151018 2.122986 13.000000 6 356.299403
6.078789 0.155996 1.557322 12.000000 4 356.299405
5.378643 0.136150 0.310714 10.000000 0 356.299411
0.026030 -0.002449 1.429219 8.000000 31 356.299421
0.743551 -0.000907 4.727294 99.000000 28 356.299424
0.969802 -0.002305 4.685994 93.000000 27 356.299426
1.321377 0.022939 4.269528 93.000000 25 356.299429
1.733493 0.039662 4.144492 98.000000 23 356.299431
2.172731 0.050080 4.048454 3.000000 21 356.299434
2.825190 0.065112 4.223086 88.000000 19 356.299437
3.354397 0.077304 4.092367 93.000000 17 356.299439
0.087880 -0.003594 1.357147 7.000000 30 356.299447
0.151897 -0.003277 1.371923 5.000000 29 356.299449
1.193237 0.012267 4.628605 96.000000 26 356.299452
1.526078 0.032256 4.205133 89.000000 24 356.299455
1.808759 0.038854 3.802957 10.000000 22 356.299457
2.572601 0.055698 4.279151 90.000000 20 356.299460
3.073171 0.066530 4.143611 87.000000 18 356.299462
3.624398 0.078459 4.008320 94.000000 16 356.299465
3.929318 0.095352 3.942262 9.000000 15 356.299422
4.587489 0.111320 3.781158 10.000000 13 356.299425
3.981752 0.095926 2.695921 9.000000 11 356.299428
4.213346 0.101503 2.291759 11.000000 9 356.299430
5.566969 0.133140 2.338163 8.000000 7 356.299433
6.172735 0.146549 1.903677 10.000000 5 356.299435
3.948331 0.093740 0.841299 53.000000 3 356.299438
5.491260 0.129411 0.585101 9.000000 1 356.299440
4.244658 0.096332 3.861323 10.000000 14 356.299448
3.962749 0.089932 2.969738 9.000000 12 356.299451
4.014545 0.090407 2.444362 9.000000 10 356.299453
4.570247 0.102918 2.200715 11.000000 8 356.299456
5.836061 0.130403 2.119700 13.000000 6 356.299458
6.069577 0.134561 1.554978 12.000000 4 356.299461
4.039880 0.088859 0.655090 58.000000 2 356.299464
5.364101 0.117048 0.310110 9.000000 0 356.299466
0.026022 -0.002540 1.429219 8.000000 31 356.299477
0.743543 -0.003502 4.727294 98.000000 28 356.299479
0.969788 -0.005690 4.685994 94.000000 27 356.299482
1.321449 0.018327 4.269528 93.000000 25 356.299484
1.731668 0.033573 4.139889 98.000000 23 356.299487
2.031569 0.039733 3.789523 3.000000 21 356.299490
2.822587 0.055195 4.218953 88.000000 19 356.299492
3.351441 0.065532 4.088530 93.000000 17 356.299495
0.087866 -0.003901 1.357147 7.000000 30 356.299502
0.151351 -0.003791 1.366951 5.000000 29 356.299505
