# .PCD v.7 - Point Cloud Data file format
VERSION .7
FIELDS x y z intensity ring timestamp
SIZE 4 4 4 4 2 8
TYPE F F F F U D
COUNT 1 1 1 1 1 1
WIDTH 927
HEIGHT 1
VIEWPOINT 0 0 0 1 0 0 0
POINTS 927
DATA ascii
2.107743 -1.873302 3.451597 18.000000 17 356.111532
0.060065 -0.060633 1.312222 9.000000 30 356.111540
0.585301 -0.573352 7.586186 108.000000 29 356.111542
0.208016 -0.189491 1.120181 20.000000 26 356.111545
1.006361 -0.897865 3.721778 61.000000 24 356.111548
1.454422 -1.296730 4.091011 97.000000 22 356.111550
1.771047 -1.578483 3.950675 5.000000 20 356.111553
1.945987 -1.734407 3.525238 3.000000 18 356.111555
3.731317 -3.325640 5.496762 4.000000 16 356.111558
2.532749 -2.245509 3.406066 9.000000 15 356.111515
2.519011 -2.233333 2.795896 10.000000 13 356.111518
2.498037 -2.215516 2.273736 12.000000 11 356.111521
2.483595 -2.202711 1.823518 15.000000 9 356.111523
2.469694 -2.191153 1.422250 16.000000 7 356.111526
2.447253 -2.172006 1.051114 15.000000 5 356.111528
2.439494 -2.165120 0.710732 16.000000 3 356.111531
2.427939 -2.155622 0.383860 18.000000 1 356.111533
2.516769 -2.238413 3.079984 11.000000 14 356.111541
2.490644 -2.215180 2.510605 13.000000 12 356.111544
2.471807 -2.199199 2.029044 15.000000 10 356.111546
2.465902 -2.193949 1.613260 17.000000 8 356.111549
2.452111 -2.182446 1.231008 17.000000 6 356.111551
2.432384 -2.165649 0.876206 18.000000 4 356.111554
2.425839 -2.160581 0.544720 17.000000 2 356.111557
2.416951 -2.153421 0.224257 20.000000 0 356.111559
0.016937 -0.019003 1.349222 11.000000 31 356.111570
0.163232 -0.153017 1.422930 9.000000 28 356.111572
0.173990 -0.163462 1.171220 16.000000 27 356.111575
0.855722 -0.774691 3.735095 69.000000 25 356.111577
1.258346 -1.126645 4.038633 30.000000 23 356.111580
1.572986 -1.407874 3.934348 12.000000 21 356.111583
1.795366 -1.606917 3.611409 6.000000 19 356.111585
2.101191 -1.880648 3.451597 18.000000 17 356.111588
0.059853 -0.060842 1.312222 8.000000 30 356.111595
0.582916 -0.575016 7.581215 109.000000 29 356.111598
0.207353 -0.190216 1.120181 20.000000 26 356.111601
1.003220 -0.901372 3.721778 59.000000 24 356.111603
1.449887 -1.301799 4.091011 96.000000 22 356.111606
1.728650 -1.551556 3.869622 5.000000 20 356.111608
1.935435 -1.737162 3.517260 3.000000 18 356.111611
3.734823 -3.352232 5.518813 4.000000 16 356.111613
2.503613 -2.235335 3.378030 9.000000 15 356.111571
2.485066 -2.218779 2.767656 11.000000 13 356.111574
2.465339 -2.201939 2.251804 13.000000 11 356.111576
2.452762 -2.190709 1.807292 16.000000 9 356.111579
2.437832 -2.178139 1.409139 17.000000 7 356.111581
2.418195 -2.161353 1.042659 16.000000 5 356.111584
2.406284 -2.150707 0.704204 17.000000 3 356.111586
2.398125 -2.144168 0.381183 18.000000 1 356.111589
2.483905 -2.224761 3.050060 11.000000 14 356.111597
2.458810 -2.202286 2.487060 14.000000 12 356.111599
2.441638 -2.187675 2.011317 15.000000 10 356.111602
2.437948 -2.184372 1.600672 18.000000 8 356.111604
2.423378 -2.172080 1.221152 18.000000 6 356.111607
2.403096 -2.154658 0.869172 19.000000 4 356.111609
2.396163 -2.149196 0.540581 18.000000 2 356.111612
2.387108 -2.141826 0.223048 21.000000 0 356.111615
0.016870 -0.019062 1.349222 11.000000 31 356.111626
0.162697 -0.153586 1.422930 10.000000 28 356.111629
0.173418 -0.164069 1.171220 17.000000 27 356.111631
0.846391 -0.771636 3.706464 57.000000 25 356.111634
1.287777 -1.161121 4.144492 52.000000 23 356.111636
1.584079 -1.427792 3.973846 12.000000 21 356.111639
1.793926 -1.616943 3.619675 5.000000 19 356.111641
2.094613 -1.887971 3.451597 20.000000 17 356.111644
0.059640 -0.061051 1.312222 8.000000 30 356.111652
0.580527 -0.576671 7.576243 110.000000 29 356.111654
0.206688 -0.190939 1.120181 22.000000 26 356.111657
1.001347 -0.906026 3.726471 58.000000 24 356.111659
1.445334 -1.306852 4.091011 96.000000 22 356.111662
1.670984 -1.510363 3.754441 6.000000 20 356.111664
1.929359 -1.743908 3.517260 3.000000 18 356.111667
3.725614 -3.367522 5.522488 3.000000 16 356.111670
2.471929 -2.222601 3.346489 9.000000 15 356.111627
2.454148 -2.206617 2.742554 11.000000 13 356.111630
2.435876 -2.190957 2.232614 13.000000 11 356.111632
2.422043 -2.178519 1.791065 16.000000 9 356.111635
2.409536 -2.168030 1.397901 17.000000 7 356.111638
2.389242 -2.150525 1.034204 16.000000 5 356.111640
2.376855 -2.139375 0.698608 18.000000 3 356.111643
2.368420 -2.132532 0.378506 19.000000 1 356.111645
2.451168 -2.210907 3.020137 11.000000 14 356.111653
2.427096 -2.189198 2.463514 14.000000 12 356.111656
2.411581 -2.175967 1.993590 16.000000 10 356.111658
2.410090 -2.174626 1.588083 18.000000 8 356.111661
2.394748 -2.161541 1.211296 18.000000 6 356.111663
2.373914 -2.143488 0.862138 19.000000 4 356.111666
2.366596 -2.137630 0.536442 19.000000 2 356.111668
2.357376 -2.130049 0.221839 22.000000 0 356.111671
0.016827 -0.019158 1.354222 9.000000 31 356.111682
0.162160 -0.154153 1.422930 10.000000 28 356.111684
0.172844 -0.164673 1.171220 16.000000 27 356.111687
1.277931 -1.160356 4.126081 39.000000 23 356.111692
1.586181 -1.439754 3.991401 11.000000 21 356.111694
1.794522 -1.628869 3.632074 6.000000 19 356.111697
2.088010 -1.895271 3.451597 19.000000 17 356.111699
0.059427 -0.061259 1.312222 9.000000 30 356.111707
0.578133 -0.578316 7.571272 110.000000 29 356.111710
0.206020 -0.191659 1.120181 21.000000 26 356.111712
0.998179 -0.909516 3.726471 59.000000 24 356.111715
1.440763 -1.311889 4.091011 96.000000 22 356.111717
1.627128 -1.481075 3.669123 4.000000 20 356.111720
1.923260 -1.750632 3.517260 3.000000 18 356.111723
2.420190 -2.202965 3.626103 9.000000 16 356.111725
2.440363 -2.209673 3.314948 9.000000 15 356.111683
2.423345 -2.194267 2.717452 11.000000 13 356.111685
2.403421 -2.176990 2.210682 14.000000 11 356.111688
2.394723 -2.169115 1.777157 17.000000 9 356.111690
2.381341 -2.157750 1.386663 18.000000 7 356.111693
2.360394 -2.139520 1.025748 17.000000 5 356.111696
2.347535 -2.127865 0.693012 18.000000 3 356.111698
2.338827 -2.120715 0.375828 20.000000 1 356.111701
2.418557 -2.196852 2.990213 11.000000 14 356.111708
2.398495 -2.178633 2.442912 15.000000 12 356.111711
2.381635 -2.164077 1.975863 16.000000 10 356.111714
2.382331 -2.164713 1.575495 19.000000 8 356.111716
2.366220 -2.150828 1.201440 19.000000 6 356.111719
2.348437 -2.135412 0.856276 21.000000 4 356.111721
2.337140 -2.125885 0.532303 20.000000 2 356.111724
2.327756 -2.118091 0.220630 22.000000 0 356.111726
0.016760 -0.019216 1.354222 10.000000 31 356.111737
0.161621 -0.154718 1.422930 10.000000 28 356.111740
0.172268 -0.165275 1.171220 16.000000 27 356.111742
1.272431 -1.163491 4.121479 29.000000 23 356.111747
1.586450 -1.450131 4.004567 11.000000 21 356.111750
2.083748 -1.904711 3.455434 12.000000 17 356.111755
0.059212 -0.061466 1.312222 8.000000 30 356.111763
0.576111 -0.580331 7.571272 110.000000 29 356.111765
0.205350 -0.192377 1.120181 21.000000 26 356.111768
0.994998 -0.912995 3.726471 59.000000 24 356.111770
1.436175 -1.316910 4.091011 96.000000 22 356.111773
1.621949 -1.486745 3.669123 4.000000 20 356.111776
1.917138 -1.757335 3.517260 3.000000 18 356.111778
2.389993 -2.190782 3.593026 9.000000 16 356.111781
2.408918 -2.196552 3.283407 10.000000 15 356.111738
2.392658 -2.181729 2.692350 11.000000 13 356.111741
2.374182 -2.165641 2.191492 14.000000 11 356.111743
2.367498 -2.159548 1.763249 18.000000 9 356.111746
2.353248 -2.147301 1.375424 19.000000 7 356.111749
2.335196 -2.131576 1.018702 17.000000 5 356.111751
2.321953 -2.119488 0.688349 18.000000 3 356.111754
2.313022 -2.112076 0.373597 21.000000 1 356.111756
2.388831 -2.185117 2.963614 11.000000 14 356.111764
2.367016 -2.165167 2.419367 15.000000 12 356.111767
2.351803 -2.152005 1.958136 17.000000 10 356.111769
2.358019 -2.157696 1.565005 20.000000 8 356.111772
2.337798 -2.139943 1.191584 21.000000 6 356.111774
2.319460 -2.123901 0.849242 22.000000 4 356.111777
2.307795 -2.113960 0.528164 20.000000 2 356.111779
2.298248 -2.105953 0.219421 23.000000 0 356.111782
0.016693 -0.019275 1.354222 10.000000 31 356.111793
0.161080 -0.155281 1.422930 10.000000 28 356.111795
0.171690 -0.165876 1.171220 17.000000 27 356.111798
1.261176 -1.161309 4.098466 18.000000 23 356.111803
1.583141 -1.457283 4.008956 10.000000 21 356.111805
2.077087 -1.911973 3.455434 11.000000 17 356.111810
0.058998 -0.061672 1.312222 8.000000 30 356.111818
0.574082 -0.582338 7.571272 110.000000 29 356.111821
0.204677 -0.193093 1.120181 20.000000 26 356.111823
0.993072 -0.917634 3.731164 59.000000 24 356.111826
1.433169 -1.323393 4.095511 96.000000 22 356.111828
1.611000 -1.487091 3.656325 4.000000 20 356.111831
1.910992 -1.764016 3.517260 3.000000 18 356.111834
2.354930 -2.173817 3.552600 9.000000 16 356.111836
2.377595 -2.183239 3.251866 10.000000 15 356.111794
2.362089 -2.169004 2.667248 12.000000 13 356.111796
2.345052 -2.154114 2.172301 15.000000 11 356.111799
2.340370 -2.149817 1.749341 18.000000 9 356.111802
2.325256 -2.136682 1.364186 20.000000 7 356.111804
2.306550 -2.120235 1.010247 18.000000 5 356.111807
2.292842 -2.107634 0.682753 19.000000 3 356.111809
2.283640 -2.099911 0.370920 22.000000 1 356.111812
2.359215 -2.173202 2.937016 11.000000 14 356.111820
2.338634 -2.154246 2.398765 15.000000 12 356.111822
2.325254 -2.142672 1.942941 17.000000 10 356.111825
2.330447 -2.147461 1.552416 20.000000 8 356.111827
2.309480 -2.128886 1.181727 22.000000 6 356.111830
2.294166 -2.115509 0.843381 22.000000 4 356.111832
2.282201 -2.105214 0.524715 21.000000 2 356.111835
2.272525 -2.097022 0.218413 24.000000 0 356.111837
0.016626 -0.019333 1.354222 9.000000 31 356.111848
0.160537 -0.155842 1.422930 10.000000 28 356.111851
0.171110 -0.166474 1.171220 17.000000 27 356.111853
0.838803 -0.786443 3.720780 44.000000 25 356.111856
1.234194 -1.144450 4.024826 11.000000 23 356.111858
1.581559 -1.466057 4.017733 9.000000 21 356.111861
2.070400 -1.919212 3.455434 11.000000 17 356.111866
0.058782 -0.061877 1.312222 9.000000 30 356.111874
0.572046 -0.584338 7.571272 110.000000 29 356.111876
0.204002 -0.193806 1.120181 21.000000 26 356.111879
0.989863 -0.921095 3.731164 59.000000 24 356.111881
1.428541 -1.328387 4.095511 96.000000 22 356.111884
1.611530 -1.498033 3.669123 5.000000 20 356.111887
1.902615 -1.768624 3.513270 3.000000 18 356.111889
2.327463 -2.163559 3.523199 9.000000 16 356.111892
2.349013 -2.172155 3.223830 10.000000 15 356.111849
2.331639 -2.156092 2.642145 12.000000 13 356.111852
2.316032 -2.142411 2.153111 15.000000 11 356.111854
2.313339 -2.139923 1.735433 19.000000 9 356.111857
2.297368 -2.125894 1.352948 22.000000 7 356.111860
2.281532 -2.111979 1.003201 18.000000 5 356.111862
2.267447 -2.098940 0.678090 19.000000 3 356.111865
2.258026 -2.090952 0.368689 23.000000 1 356.111867
2.329713 -2.161107 2.910417 11.000000 14 356.111875
2.313319 -2.145903 2.381106 15.000000 12 356.111878
2.295639 -2.130248 1.925214 17.000000 10 356.111880
2.302977 -2.137060 1.539828 21.000000 8 356.111883
2.284729 -2.120870 1.173514 22.000000 6 356.111885
2.265396 -2.103660 0.836347 23.000000 4 356.111888
2.256698 -2.096316 0.521266 22.000000 2 356.111890
2.243232 -2.084536 0.217204 25.000000 0 356.111893
0.016558 -0.019391 1.354222 9.000000 31 356.111904
0.159992 -0.156402 1.422930 12.000000 28 356.111906
0.170528 -0.167070 1.171220 16.000000 27 356.111909
0.838225 -0.791417 3.730323 37.000000 25 356.111911
1.213057 -1.132750 3.969595 7.000000 23 356.111914
1.579934 -1.474839 4.026510 9.000000 21 356.111916
1.761319 -1.644164 3.611409 3.000000 19 356.111919
2.061344 -1.924240 3.451597 13.000000 17 356.111922
0.058566 -0.062082 1.312222 8.000000 30 356.111929
0.570003 -0.586332 7.571272 110.000000 29 356.111932
0.203324 -0.194517 1.120181 21.000000 26 356.111934
0.986642 -0.924544 3.731164 56.000000 24 356.111937
1.423896 -1.333366 4.095511 96.000000 22 356.111940
1.613907 -1.510778 3.686187 8.000000 20 356.111942
1.896430 -1.775254 3.513270 3.000000 18 356.111945
2.297622 -2.150819 3.490122 9.000000 16 356.111947
2.320537 -2.160898 3.195793 10.000000 15 356.111905
2.304156 -2.145648 2.620181 13.000000 13 356.111907
2.287122 -2.130531 2.133921 15.000000 11 356.111910
2.289647 -2.132886 1.723843 19.000000 9 356.111913
2.269584 -2.114937 1.341710 23.000000 7 356.111915
2.256600 -2.103574 0.996155 19.000000 5 356.111918
2.245733 -2.093444 0.674360 23.000000 3 356.111920
2.232503 -2.081839 0.366458 25.000000 1 356.111923
2.300323 -2.148832 2.883818 11.000000 14 356.111931
2.285139 -2.134650 2.360503 16.000000 12 356.111933
2.269289 -2.120587 1.910020 18.000000 10 356.111936
2.275606 -2.126493 1.527240 22.000000 8 356.111938
2.256613 -2.109483 1.163658 23.000000 6 356.111941
2.240288 -2.094955 0.830485 24.000000 4 356.111943
2.231284 -2.087265 0.517817 23.000000 2 356.111946
2.217703 -2.075286 0.216196 26.000000 0 356.111948
0.016490 -0.019448 1.354222 10.000000 31 356.111959
0.159445 -0.156959 1.422930 12.000000 28 356.111962
0.169944 -0.167664 1.171220 16.000000 27 356.111964
0.836539 -0.795367 3.735095 30.000000 25 356.111967
1.187747 -1.116902 3.900557 5.000000 23 356.111969
1.580013 -1.485268 4.039676 10.000000 21 356.111972
1.761720 -1.656085 3.623808 3.000000 19 356.111974
2.054615 -1.931423 3.451597 13.000000 17 356.111977
0.058349 -0.062286 1.312222 8.000000 30 356.111985
0.567952 -0.588318 7.571272 110.000000 29 356.111987
0.202644 -0.195225 1.120181 20.000000 26 356.111990
0.984664 -0.929167 3.735857 54.000000 24 356.111992
1.419233 -1.338328 4.095511 96.000000 22 356.111995
1.612418 -1.519980 3.694718 14.000000 20 356.111998
1.892415 -1.783931 3.517260 3.000000 18 356.112000
2.270365 -2.140222 3.460721 9.000000 16 356.112003
2.292169 -2.149470 3.167757 10.000000 15 356.111960
2.273935 -2.132375 2.595078 13.000000 13 356.111963
2.258324 -2.118476 2.114731 15.000000 11 356.111966
2.262801 -2.122679 1.709935 20.000000 9 356.111968
2.241904 -2.103812 1.330472 23.000000 7 356.111971
2.228258 -2.091738 0.987700 19.000000 5 356.111973
2.220505 -2.084460 0.669697 24.000000 3 356.111976
2.207071 -2.072574 0.364227 25.000000 1 356.111978
2.273768 -2.138937 2.860544 11.000000 14 356.111986
2.260009 -2.125997 2.342844 17.000000 12 356.111989
2.243035 -2.110768 1.894825 19.000000 10 356.111991
2.248339 -2.115762 1.514652 23.000000 8 356.111994
2.228605 -2.097925 1.153802 25.000000 6 356.111996
2.211731 -2.082769 0.823451 24.000000 4 356.111999
2.205961 -2.078062 0.514368 24.000000 2 356.112001
2.192266 -2.065883 0.215189 26.000000 0 356.112004
0.016400 -0.019469 1.349222 10.000000 31 356.112015
0.159447 -0.158063 1.427870 11.000000 28 356.112017
0.170079 -0.168976 1.176115 15.000000 27 356.112020
0.843466 -0.807579 3.778040 18.000000 25 356.112022
1.195190 -1.131788 3.937377 5.000000 23 356.112025
1.578299 -1.494068 4.048454 9.000000 21 356.112027
1.745711 -1.652551 3.603143 3.000000 19 356.112030
2.045532 -1.936380 3.447760 12.000000 17 356.112033
0.058131 -0.062490 1.312222 9.000000 30 356.112040
0.565895 -0.590297 7.571272 110.000000 29 356.112043
0.201961 -0.195932 1.120181 20.000000 26 356.112045
0.980163 -0.931410 3.731164 47.000000 24 356.112048
1.416131 -1.344774 4.100012 96.000000 22 356.112051
1.614669 -1.532781 3.711782 14.000000 20 356.112053
1.888362 -1.792601 3.521249 3.000000 18 356.112056
2.240752 -2.127127 3.427644 10.000000 16 356.112058
2.263909 -2.137870 3.139721 10.000000 15 356.112016
2.246665 -2.121590 2.573114 13.000000 13 356.112018
2.229638 -2.106246 2.095540 15.000000 11 356.112021
2.232834 -2.109269 1.693708 21.000000 9 356.112024
2.214330 -2.092521 1.319234 24.000000 7 356.112026
2.203512 -2.083026 0.980654 22.000000 5 356.112029
2.195367 -2.075326 0.665034 25.000000 3 356.112031
2.178113 -2.059735 0.361550 27.000000 1 356.112034
2.247311 -2.128884 2.837270 12.000000 14 356.112042
2.234968 -2.117194 2.325186 17.000000 12 356.112044
2.216877 -2.100791 1.879631 19.000000 10 356.112047
2.217879 -2.101745 1.499965 24.000000 8 356.112049
2.197277 -2.082949 1.142303 26.000000 6 356.112052
2.183285 -2.070409 0.816418 26.000000 4 356.112054
2.180730 -2.068709 0.510919 25.000000 2 356.112057
2.166922 -2.056328 0.214181 27.000000 0 356.112060
0.016332 -0.019526 1.349222 10.000000 31 356.112070
0.158894 -0.158618 1.427870 12.000000 28 356.112073
0.169488 -0.169568 1.176115 16.000000 27 356.112075
0.833116 -0.803261 3.744638 9.000000 25 356.112078
1.195473 -1.139998 3.951185 5.000000 23 356.112080
1.578276 -1.504527 4.061620 9.000000 21 356.112083
1.746042 -1.664460 3.615542 3.000000 19 356.112086
2.055004 -1.958992 3.474618 9.000000 17 356.112088
0.057719 -0.062477 1.307231 9.000000 30 356.112096
0.563831 -0.592268 7.571272 110.000000 29 356.112098
0.202175 -0.197515 1.125021 18.000000 26 356.112101
0.971919 -0.930053 3.712393 32.000000 24 356.112104
1.411429 -1.349709 4.100012 96.000000 22 356.112106
1.605538 -1.534804 3.703250 5.000000 20 356.112109
1.882093 -1.799181 3.521249 3.000000 18 356.112111
2.213709 -2.116195 3.398243 10.000000 16 356.112114
2.235758 -2.126099 3.111684 10.000000 15 356.112071
2.219499 -2.110641 2.551150 13.000000 13 356.112074
2.204094 -2.096724 2.079092 16.000000 11 356.112077
2.206199 -2.098730 1.679800 22.000000 9 356.112079
2.183504 -2.077866 1.306122 24.000000 7 356.112082
2.178854 -2.074166 0.973608 22.000000 5 356.112084
2.166762 -2.062655 0.659438 26.000000 3 356.112087
2.152878 -2.050154 0.359319 27.000000 1 356.112089
2.218250 -2.116094 2.810671 12.000000 14 356.112097
2.210016 -2.108243 2.307527 18.000000 12 356.112100
2.190817 -2.090659 1.864436 20.000000 10 356.112102
2.190829 -2.090674 1.487377 25.000000 8 356.112105
2.169497 -2.071041 1.132447 26.000000 6 356.112107
2.154953 -2.057876 0.809384 27.000000 4 356.112110
2.155591 -2.059205 0.507470 25.000000 2 356.112112
2.141671 -2.046622 0.213173 27.000000 0 356.112115
0.016263 -0.019583 1.349222 10.000000 31 356.112126
0.159433 -0.160276 1.437748 11.000000 28 356.112128
0.168895 -0.170159 1.176115 14.000000 27 356.112131
0.831379 -0.807205 3.749410 4.000000 25 356.112133
1.205578 -1.157696 3.997211 6.000000 23 356.112136
1.578200 -1.515005 4.074786 9.000000 21 356.112138
1.738191 -1.668596 3.611409 3.000000 19 356.112141
2.064342 -1.981695 3.501477 7.000000 17 356.112144
0.057500 -0.062678 1.307231 8.000000 30 356.112151
0.561761 -0.594233 7.571272 110.000000 29 356.112154
0.201485 -0.198220 1.125021 17.000000 26 356.112156
0.972394 -0.937032 3.726471 8.000000 24 356.112159
1.406709 -1.354627 4.100012 96.000000 22 356.112162
1.600171 -1.540399 3.703250 5.000000 20 356.112164
1.877972 -1.807830 3.525238 3.000000 18 356.112167
2.189212 -2.107451 3.372517 10.000000 16 356.112169
2.207717 -2.114158 3.083648 10.000000 15 356.112127
2.195249 -2.102221 2.532323 14.000000 13 356.112130
2.178645 -2.087050 2.062643 17.000000 11 356.112132
2.176466 -2.084966 1.663574 23.000000 9 356.112135
2.156155 -2.066230 1.294884 25.000000 7 356.112137
2.150822 -2.061840 0.965153 23.000000 5 356.112140
2.141818 -2.053208 0.654775 26.000000 3 356.112142
2.127736 -2.040422 0.357088 24.000000 1 356.112145
2.191998 -2.105715 2.787397 12.000000 14 356.112153
2.185153 -2.099143 2.289868 18.000000 12 356.112155
2.164855 -2.080370 1.849241 20.000000 10 356.112158
2.163883 -2.079440 1.474789 26.000000 8 356.112160
2.141828 -2.058965 1.122591 27.000000 6 356.112163
2.126736 -2.045171 0.802350 27.000000 4 356.112165
2.130546 -2.049550 0.504021 26.000000 2 356.112168
2.116515 -2.036764 0.212166 27.000000 0 356.112171
0.016195 -0.019639 1.349222 10.000000 31 356.112181
0.159963 -0.161939 1.447627 11.000000 28 356.112184
0.169014 -0.171474 1.181010 14.000000 27 356.112186
1.228213 -1.187701 4.084659 11.000000 23 356.112191
1.576347 -1.523835 4.083563 8.000000 21 356.112194
1.732356 -1.674653 3.611409 3.000000 19 356.112197
2.078157 -2.008943 3.536010 6.000000 17 356.112199
0.057281 -0.062878 1.307231 9.000000 30 356.112207
0.559683 -0.596190 7.571272 110.000000 29 356.112209
0.203471 -0.201579 1.139538 14.000000 26 356.112212
1.401972 -1.359529 4.100012 96.000000 22 356.112217
1.596657 -1.547791 3.707516 7.000000 20 356.112220
1.873815 -1.816473 3.529228 3.000000 18 356.112222
2.162369 -2.096203 3.343116 9.000000 16 356.112225
2.179788 -2.102047 3.055612 10.000000 15 356.112182
2.168282 -2.090955 2.510359 14.000000 13 356.112185
2.153291 -2.077224 2.046194 17.000000 11 356.112188
2.146856 -2.071019 1.647348 24.000000 9 356.112190
2.128914 -2.054429 1.283646 25.000000 7 356.112193
2.126354 -2.052676 0.958107 23.000000 5 356.112195
2.113433 -2.040202 0.649179 27.000000 3 356.112198
2.102689 -2.030540 0.354857 24.000000 1 356.112200
2.165847 -2.095179 2.764123 12.000000 14 356.112208
2.160382 -2.089896 2.272209 19.000000 12 356.112211
2.138991 -2.069925 1.834047 21.000000 10 356.112213
2.133781 -2.064888 1.460102 26.000000 8 356.112216
2.114270 -2.046721 1.112735 27.000000 6 356.112218
2.098634 -2.032294 0.795316 28.000000 4 356.112221
2.105594 -2.039746 0.500571 27.000000 2 356.112224
2.091454 -2.026756 0.211158 28.000000 0 356.112226
0.016126 -0.019696 1.349222 10.000000 31 356.112237
0.161569 -0.164719 1.467384 12.000000 28 356.112239
0.168414 -0.172063 1.181010 15.000000 27 356.112242
1.243655 -1.211063 4.149094 21.000000 23 356.112247
1.576168 -1.534341 4.096729 8.000000 21 356.112250
1.726500 -1.680690 3.611409 3.000000 19 356.112252
2.094104 -2.038547 3.574379 6.000000 17 356.112255
0.056870 -0.062861 1.302239 9.000000 30 356.112262
0.557598 -0.598140 7.571272 110.000000 29 356.112265
0.207215 -0.206733 1.163734 11.000000 26 356.112268
1.397218 -1.364415 4.100012 96.000000 22 356.112273
1.867463 -1.823003 3.529228 3.000000 18 356.112278
2.138057 -2.087161 3.317389 9.000000 16 356.112280
2.151970 -2.089767 3.027575 10.000000 15 356.112238
2.138628 -2.076815 2.485256 14.000000 13 356.112241
2.128031 -2.067246 2.029745 17.000000 11 356.112243
2.120547 -2.059979 1.633440 24.000000 9 356.112246
2.101781 -2.042463 1.272408 26.000000 7 356.112248
2.098537 -2.040022 0.949652 24.000000 5 356.112251
2.088687 -2.030447 0.644516 28.000000 3 356.112253
2.077737 -2.020508 0.352625 29.000000 1 356.112256
2.139795 -2.084486 2.740849 13.000000 14 356.112264
2.135702 -2.080502 2.254550 20.000000 12 356.112266
2.110139 -2.056317 1.816320 23.000000 10 356.112269
2.107058 -2.053319 1.447514 27.000000 8 356.112271
2.086823 -2.034310 1.102879 28.000000 6 356.112274
2.074127 -2.022640 0.789454 29.000000 4 356.112276
2.077192 -2.026335 0.496433 28.000000 2 356.112279
2.070064 -2.020087 0.210352 29.000000 0 356.112282
0.016079 -0.019789 1.354222 10.000000 31 356.112292
0.162617 -0.166954 1.482201 12.000000 28 356.112295
0.167812 -0.172649 1.181010 15.000000 27 356.112297
0.297930 -0.295296 1.387407 4.000000 25 356.112300
1.240815 -1.216765 4.153697 33.000000 23 356.112302
1.574224 -1.543188 4.105506 8.000000 21 356.112305
1.720623 -1.686706 3.611409 3.000000 19 356.112307
2.080107 -2.039112 3.562868 6.000000 17 356.112310
0.056650 -0.063059 1.302239 9.000000 30 356.112318
0.555507 -0.600083 7.571272 110.000000 29 356.112320
0.206492 -0.207455 1.163734 9.000000 26 356.112323
1.392207 -1.369527 4.100012 96.000000 22 356.112328
1.862917 -1.831948 3.533217 3.000000 18 356.112333
2.113473 -2.078344 3.291663 9.000000 16 356.112336
2.126814 -2.079813 3.003043 10.000000 15 356.112293
2.111883 -2.065215 2.463292 15.000000 13 356.112296
2.105857 -2.060041 2.016038 18.000000 11 356.112298
2.094342 -2.048781 1.619532 23.000000 9 356.112301
2.074759 -2.030332 1.261169 27.000000 7 356.112304
2.074263 -2.030556 0.942606 24.000000 5 356.112306
2.060173 -2.017467 0.638920 28.000000 3 356.112309
2.052530 -2.010684 0.350394 29.000000 1 356.112311
2.113484 -2.074005 2.717575 13.000000 14 356.112319
2.110753 -2.071329 2.236891 21.000000 12 356.112322
2.084129 -2.045916 1.801125 23.000000 10 356.112324
2.083324 -2.045130 1.437024 27.000000 8 356.112327
2.062506 -2.025400 1.094665 29.000000 6 356.112329
2.045895 -2.009790 0.782420 29.000000 4 356.112332
2.052090 -2.016580 0.492984 28.000000 2 356.112334
2.045183 -2.009792 0.209344 29.000000 0 356.112337
0.016007 -0.019848 1.354222 9.000000 31 356.112348
0.164161 -0.169787 1.501958 13.000000 28 356.112350
0.167884 -0.173997 1.185906 14.000000 27 356.112353
0.293676 -0.293220 1.373092 11.000000 25 356.112355
1.234957 -1.219931 4.149094 45.000000 23 356.112358
1.573671 -1.553998 4.118672 9.000000 21 356.112360
1.714429 -1.693001 3.611409 3.000000 19 356.112363
2.093149 -2.066996 3.597401 6.000000 17 356.112365
0.056419 -0.063266 1.302239 9.000000 30 356.112373
0.553304 -0.602115 7.571272 110.000000 29 356.112376
1.387418 -1.374378 4.100012 96.000000 22 356.112383
1.856511 -1.838440 3.533217 3.000000 18 356.112389
2.089343 -2.069011 3.265937 10.000000 16 356.112391
2.098852 -2.067572 2.975007 10.000000 15 356.112349
2.073793 -2.042890 2.428777 14.000000 13 356.112351
2.080422 -2.050136 1.999589 19.000000 11 356.112354
2.067886 -2.037786 1.605623 23.000000 9 356.112356
2.050796 -2.021650 1.251804 27.000000 7 356.112359
2.046312 -2.017934 0.934151 25.000000 5 356.112362
2.035630 -2.007400 0.634257 29.000000 3 356.112364
2.027772 -2.000350 0.348163 30.000000 1 356.112367
2.087638 -2.062996 2.694301 13.000000 14 356.112374
2.083384 -2.058797 2.216289 21.000000 12 356.112377
2.055512 -2.031963 1.783398 24.000000 10 356.112380
2.056807 -2.033246 1.424435 27.000000 8 356.112382
2.035276 -2.012664 1.084809 29.000000 6 356.112385
2.021590 -1.999828 0.776559 28.000000 4 356.112387
2.027439 -2.006314 0.489534 29.000000 2 356.112390
2.023601 -2.003216 0.208538 29.000000 0 356.112392
0.015937 -0.019904 1.354222 10.000000 31 356.112403
0.165716 -0.172604 1.521716 16.000000 28 356.112406
0.167979 -0.175319 1.190801 13.000000 27 356.112408
0.289492 -0.291065 1.358777 20.000000 25 356.112411
1.233461 -1.226990 4.158299 66.000000 23 356.112413
1.571635 -1.562860 4.127450 9.000000 21 356.112416
1.708509 -1.698975 3.611409 3.000000 19 356.112418
2.070009 -2.058465 3.570542 8.000000 17 356.112421
0.056197 -0.063462 1.302239 9.000000 30 356.112429
0.551199 -0.604043 7.571272 110.000000 29 356.112431
0.844143 -0.861141 4.676997 37.000000 26 356.112434
1.384154 -1.380751 4.104513 96.000000 22 356.112439
1.854351 -1.849165 3.541196 3.000000 18 356.112444
2.065304 -2.059534 3.240211 11.000000 16 356.112447
2.073899 -2.057304 2.950475 10.000000 15 356.112404
2.061123 -2.044634 2.422501 14.000000 13 356.112407
2.058413 -2.042659 1.985882 19.000000 11 356.112409
2.041893 -2.026268 1.591715 25.000000 9 356.112412
2.023986 -2.009200 1.240566 28.000000 7 356.112415
2.018831 -2.004782 0.925695 26.000000 5 356.112417
2.011183 -1.997187 0.629594 29.000000 3 356.112420
2.003112 -1.989867 0.345932 30.000000 1 356.112422
2.064541 -2.054466 2.674352 13.000000 14 356.112430
2.058994 -2.048949 2.198630 21.000000 12 356.112433
2.030074 -2.020876 1.768204 25.000000 10 356.112435
2.033615 -2.024404 1.413945 27.000000 8 356.112438
2.011507 -2.003095 1.076596 29.000000 6 356.112440
1.997379 -1.989721 0.770697 28.000000 4 356.112443
1.999376 -1.992405 0.485396 30.000000 2 356.112445
2.002443 -1.996159 0.207732 29.000000 0 356.112448
0.015846 -0.019922 1.349222 10.000000 31 356.112459
0.166183 -0.174308 1.531594 17.000000 28 356.112461
0.168767 -0.177382 1.200591 14.000000 27 356.112464
0.287425 -0.291011 1.354005 27.000000 25 356.112466
1.230551 -1.232671 4.162902 79.000000 23 356.112469
1.572941 -1.575117 4.145004 10.000000 21 356.112471
1.700580 -1.702938 3.607276 3.000000 19 356.112474
2.069607 -2.072484 3.582053 9.000000 17 356.112476
0.055976 -0.063658 1.302239 9.000000 30 356.112484
0.549087 -0.605963 7.571272 111.000000 29 356.112487
0.840255 -0.863181 4.672158 69.000000 26 356.112489
0.328051 -0.329740 1.319082 5.000000 24 356.112492
1.379326 -1.385574 4.104513 96.000000 22 356.112494
1.545202 -1.551670 3.652059 4.000000 20 356.112497
1.837251 -1.844949 3.521249 3.000000 18 356.112500
2.041358 -2.049916 3.214485 11.000000 16 356.112502
2.049044 -2.046888 2.925943 10.000000 15 356.112460
2.045711 -2.043562 2.413087 16.000000 13 356.112462
2.033524 -2.032097 1.969433 19.000000 11 356.112465
2.016004 -2.014594 1.577807 26.000000 9 356.112468
2.000567 -1.999865 1.231201 28.000000 7 356.112470
1.991467 -1.991464 0.917240 26.000000 5 356.112473
1.983358 -1.983354 0.623998 30.000000 3 356.112475
1.978549 -1.979237 0.343701 30.000000 1 356.112478
2.041531 -2.045800 2.654403 14.000000 14 356.112486
2.034699 -2.038957 2.180971 22.000000 12 356.112488
2.004739 -2.009636 1.753009 25.000000 10 356.112491
2.010509 -2.015424 1.403455 27.000000 8 356.112493
1.987829 -1.993384 1.068382 29.000000 6 356.112496
1.973264 -1.979469 0.764836 31.000000 4 356.112498
1.974931 -1.981833 0.481946 30.000000 2 356.112501
1.977834 -1.985439 0.206724 30.000000 0 356.112503
0.015776 -0.019977 1.349222 10.000000 31 356.112514
0.166640 -0.176018 1.541473 17.000000 28 356.112517
0.169543 -0.179452 1.210382 16.000000 27 356.112519
0.286407 -0.292013 1.354005 32.000000 25 356.112522
1.226240 -1.236959 4.162902 86.000000 23 356.112524
1.567433 -1.580598 4.145004 10.000000 21 356.112527
1.694625 -1.708864 3.607276 3.000000 19 356.112529
2.037529 -2.054655 3.539846 9.000000 17 356.112532
0.055753 -0.063853 1.302239 8.000000 30 356.112540
0.547325 -0.608273 7.576243 111.000000 29 356.112542
0.838985 -0.867917 4.681837 91.000000 26 356.112545
0.320834 -0.324745 1.295618 6.000000 24 356.112547
1.374481 -1.390380 4.104513 96.000000 22 356.112550
1.537943 -1.555200 3.647793 4.000000 20 356.112553
1.835038 -1.855637 3.529228 3.000000 18 356.112555
2.017503 -2.040155 3.188759 10.000000 16 356.112558
2.026801 -2.038853 2.904916 11.000000 15 356.112515
2.027587 -2.039647 2.400536 17.000000 13 356.112518
2.008734 -2.021387 1.952984 19.000000 11 356.112520
1.993346 -2.005907 1.566217 26.000000 9 356.112523
1.977238 -1.990392 1.221836 29.000000 7 356.112526
1.967602 -1.981383 0.910194 26.000000 5 356.112528
1.959116 -1.972837 0.619335 30.000000 3 356.112531
1.954086 -1.968460 0.341470 30.000000 1 356.112533
2.015977 -2.034346 2.631129 14.000000 14 356.112541
2.007653 -2.025950 2.160369 23.000000 12 356.112544
1.982541 -2.001308 1.740347 25.000000 10 356.112546
1.987492 -2.006309 1.392964 29.000000 8 356.112549
1.964244 -1.983533 1.060169 30.000000 6 356.112551
1.952664 -1.972527 0.760146 31.000000 4 356.112554
1.950584 -1.971115 0.478497 30.000000 2 356.112556
1.956837 -1.978124 0.205918 30.000000 0 356.112559
0.015707 -0.020032 1.349222 10.000000 31 356.112570
0.166556 -0.177165 1.546412 18.000000 28 356.112572
0.171002 -0.182274 1.225067 17.000000 27 356.112575
0.284344 -0.291940 1.349233 33.000000 25 356.112577
1.223286 -1.242624 4.167504 90.000000 23 356.112580
1.563588 -1.587767 4.149393 13.000000 21 356.112582
1.688650 -1.714769 3.607276 3.000000 19 356.112585
2.016847 -2.048049 3.516825 9.000000 17 356.112588
0.055343 -0.063826 1.297248 9.000000 30 356.112595
0.545199 -0.610180 7.576243 111.000000 29 356.112598
0.835950 -0.870841 4.681837 93.000000 26 356.112600
0.323324 -0.329559 1.309696 7.000000 24 356.112603
1.369619 -1.395170 4.104513 96.000000 22 356.112606
1.527023 -1.554977 3.634995 4.000000 20 356.112608
1.832773 -1.866332 3.537207 3.000000 18 356.112611
1.996117 -2.032672 3.166708 10.000000 16 356.112613
2.004640 -2.030688 2.883889 11.000000 15 356.112571
2.006781 -2.032861 2.384847 17.000000 13 356.112573
1.984043 -2.010529 1.936535 21.000000 11 356.112576
1.967661 -1.993932 1.552309 26.000000 9 356.112579
1.954000 -1.980780 1.212471 28.000000 7 356.112581
1.940463 -1.967745 0.901739 27.000000 5 356.112584
1.934972 -1.962176 0.614672 30.000000 3 356.112586
1.929722 -1.957536 0.339239 31.000000 1 356.112589
1.993148 -2.025400 2.611180 14.000000 14 356.112597
1.983559 -2.015660 2.142710 23.000000 12 356.112599
1.957403 -1.989776 1.725153 26.000000 10 356.112602
1.964562 -1.997057 1.382474 29.000000 8 356.112604
1.940753 -1.973542 1.051955 30.000000 6 356.112607
1.928729 -1.962000 0.754285 32.000000 4 356.112609
1.929808 -1.963783 0.475738 32.000000 2 356.112612
1.935916 -1.970687 0.205112 31.000000 0 356.112614
0.015615 -0.020048 1.344222 10.000000 31 356.112625
0.165936 -0.177745 1.546412 18.000000 28 356.112628
0.172443 -0.185108 1.239753 14.000000 27 356.112630
0.283324 -0.292931 1.349233 35.000000 25 356.112633
1.218941 -1.246887 4.167504 88.000000 23 356.112635
1.554686 -1.589790 4.140616 18.000000 21 356.112638
1.682654 -1.720653 3.607276 3.000000 19 356.112640
1.991754 -2.036741 3.486130 9.000000 17 356.112643
0.055120 -0.064019 1.297248 9.000000 30 356.112651
0.543065 -0.612079 7.576243 111.000000 29 356.112653
0.832905 -0.873753 4.681837 93.000000 26 356.112656
0.325784 -0.334394 1.323775 17.000000 24 356.112658
1.364741 -1.399942 4.104513 95.000000 22 356.112661
1.530689 -1.569633 3.656325 5.000000 20 356.112664
1.972442 -2.022637 3.140981 10.000000 16 356.112669
1.980063 -2.019846 2.859357 11.000000 15 356.112626
1.986047 -2.025954 2.369159 17.000000 13 356.112629
1.962380 -2.002510 1.922828 22.000000 11 356.112632
1.945185 -1.984968 1.540719 27.000000 9 356.112634
1.930853 -1.971030 1.203105 28.000000 7 356.112637
1.916800 -1.957368 0.894693 27.000000 5 356.112639
1.910926 -1.951370 0.610009 31.000000 3 356.112642
1.908943 -1.950025 0.337454 31.000000 1 356.112644
1.970406 -2.016320 2.591231 15.000000 14 356.112652
1.959560 -2.005226 2.125051 24.000000 12 356.112655
1.935382 -1.981176 1.712490 26.000000 10 356.112657
1.941722 -1.987669 1.371984 30.000000 8 356.112660
1.917355 -1.963411 1.043742 30.000000 6 356.112662
1.904892 -1.951330 0.748423 32.000000 4 356.112665
1.905648 -1.952786 0.472289 31.000000 2 356.112667
1.915071 -1.963128 0.204306 31.000000 0 356.112670
0.015545 -0.020103 1.344222 10.000000 31 356.112681
0.165315 -0.178324 1.546412 20.000000 28 356.112683
0.173867 -0.187955 1.254439 12.000000 27 356.112686
0.281265 -0.292841 1.344461 35.000000 25 356.112688
1.214581 -1.251134 4.167504 88.000000 23 356.112691
1.535775 -1.581457 4.105506 30.000000 21 356.112693
1.676637 -1.726516 3.607276 3.000000 19 356.112696
1.968999 -2.027581 3.459270 9.000000 17 356.112699
0.054907 -0.064201 1.297248 9.000000 30 356.112706
0.541033 -0.613877 7.576243 110.000000 29 356.112709
0.830003 -0.876511 4.681837 94.000000 26 356.112711
0.323474 -0.334232 1.319082 18.000000 24 356.112714
1.361361 -1.406262 4.109014 95.000000 22 356.112717
1.521573 -1.571220 3.647793 5.000000 20 356.112719
1.951791 -2.015485 3.788546 15.000000 18 356.112722
1.951570 -2.014557 3.118930 10.000000 16 356.112724
1.958075 -2.011413 2.838330 11.000000 15 356.112682
1.965386 -2.018927 2.353470 17.000000 13 356.112684
1.937881 -1.991368 1.906379 23.000000 11 356.112687
1.922796 -1.975871 1.529129 27.000000 9 356.112690
1.908140 -1.960810 1.193740 30.000000 7 356.112692
1.896919 -1.949959 0.889056 28.000000 5 356.112695
1.886980 -1.940420 0.605346 31.000000 3 356.112697
1.884768 -1.938822 0.335223 31.000000 1 356.112700
1.947751 -2.007107 2.571282 15.000000 14 356.112708
1.932845 -1.991749 2.104449 24.000000 12 356.112710
1.910787 -1.969020 1.697296 27.000000 10 356.112713
1.919317 -1.977813 1.361494 30.000000 8 356.112715
1.894392 -1.952811 1.035529 30.000000 6 356.112718
1.884875 -1.943679 0.743734 32.000000 4 356.112720
1.881927 -1.941316 0.468840 31.000000 2 356.112723
1.894644 -1.955117 0.203500 31.000000 0 356.112726
0.015500 -0.020192 1.349222 10.000000 31 356.112736
0.165248 -0.179443 1.551351 21.000000 28 356.112739
0.174618 -0.190032 1.264229 11.000000 27 356.112741
0.280292 -0.293772 1.344461 34.000000 25 356.112744
1.211781 -1.256561 4.172107 87.000000 23 356.112746
1.522205 -1.577920 4.083563 39.000000 21 356.112749
1.670903 -1.732066 3.607276 3.000000 19 356.112752
1.946683 -2.017948 3.432412 9.000000 17 356.112754
0.054498 -0.064169 1.292256 10.000000 30 356.112762
0.538886 -0.615762 7.576243 110.000000 29 356.112764
0.826939 -0.879403 4.681837 94.000000 26 356.112767
0.322305 -0.335359 1.319082 29.000000 24 356.112770
1.356690 -1.410769 4.109014 96.000000 22 356.112772
1.518162 -1.578136 3.652059 5.000000 20 356.112775
1.959723 -2.037151 3.816472 13.000000 18 356.112777
1.930425 -2.006698 3.096879 11.000000 16 356.112780
1.936519 -2.002514 2.817302 12.000000 15 356.112737
1.942443 -2.008643 2.334643 18.000000 13 356.112740
1.913829 -1.979745 1.889930 24.000000 11 356.112743
1.900838 -1.966310 1.517538 28.000000 9 356.112745
1.888398 -1.954124 1.186248 30.000000 7 356.112748
1.873435 -1.939317 0.882010 29.000000 5 356.112750
1.866883 -1.932535 0.601615 31.000000 3 356.112753
1.864490 -1.930732 0.333438 31.000000 1 356.112755
1.925534 -1.997423 2.551333 15.000000 14 356.112763
1.912203 -1.983598 2.089733 25.000000 12 356.112766
1.888944 -1.960155 1.684634 26.000000 10 356.112768
1.896654 -1.968160 1.351003 30.000000 8 356.112771
1.874459 -1.945807 1.028958 31.000000 6 356.112773
1.861221 -1.932741 0.737872 33.000000 4 356.112776
1.861401 -1.933603 0.466081 32.000000 2 356.112778
1.873951 -1.947319 0.202694 32.000000 0 356.112781
0.015429 -0.020246 1.349222 10.000000 31 356.112792
0.164621 -0.180019 1.551351 23.000000 28 356.112794
0.174639 -0.191393 1.269125 10.000000 27 356.112797
0.278238 -0.293664 1.339690 34.000000 25 356.112799
1.204685 -1.257961 4.162902 72.000000 23 356.112802
1.505087 -1.571114 4.052842 54.000000 21 356.112804
1.664847 -1.737888 3.607276 3.000000 19 356.112807
1.926321 -2.010841 3.409390 9.000000 17 356.112810
0.054274 -0.064359 1.292256 9.000000 30 356.112817
0.536734 -0.617639 7.576243 110.000000 29 356.112820
0.823864 -0.882284 4.681837 94.000000 26 356.112822
0.319941 -0.335234 1.314389 34.000000 24 356.112825
1.351757 -1.415496 4.109014 96.000000 22 356.112828
1.512644 -1.583426 3.652059 5.000000 20 356.112830
1.933863 -2.024364 3.780566 11.000000 18 356.112833
1.909357 -1.998716 3.074828 11.000000 16 356.112835
1.914697 -1.993828 2.796275 12.000000 15 356.112793
1.919241 -1.998564 2.315816 18.000000 13 356.112796
1.892428 -1.971331 1.876223 24.000000 11 356.112798
1.878622 -1.956953 1.505948 28.000000 9 356.112801
1.865516 -1.943979 1.176883 31.000000 7 356.112803
1.853370 -1.931997 0.876374 25.000000 5 356.112806
1.843123 -1.921315 0.596952 32.000000 3 356.112808
1.840505 -1.919257 0.331207 32.000000 1 356.112811
1.905639 -1.990645 2.534708 16.000000 14 356.112819
1.888497 -1.972742 2.072074 25.000000 12 356.112821
1.867187 -1.951163 1.671972 27.000000 10 356.112824
1.874083 -1.958373 1.340513 31.000000 8 356.112826
1.851333 -1.935276 1.020744 31.000000 6 356.112829
1.841026 -1.925174 0.733183 33.000000 4 356.112831
1.840952 -1.925770 0.463321 32.000000 2 356.112834
1.853335 -1.939401 0.201888 32.000000 0 356.112837
0.015358 -0.020300 1.349222 10.000000 31 356.112847
0.163470 -0.180016 1.546412 23.000000 28 356.112850
0.174652 -0.192757 1.274020 10.000000 27 356.112852
0.277211 -0.294634 1.339690 34.000000 25 356.112855
1.198941 -1.260743 4.158299 47.000000 23 356.112857
1.494640 -1.571150 4.039676 79.000000 21 356.112860
1.660710 -1.745728 3.611409 3.000000 19 356.112863
1.903823 -2.001293 3.382532 10.000000 17 356.112865
0.054049 -0.064548 1.292256 10.000000 30 356.112873
0.534575 -0.619509 7.576243 110.000000 29 356.112875
0.820779 -0.885154 4.681837 94.000000 26 356.112878
0.318769 -0.336349 1.314389 35.000000 24 356.112881
1.346808 -1.420206 4.109014 96.000000 22 356.112883
1.507108 -1.588697 3.652059 4.000000 20 356.112886
1.922637 -2.026730 3.772588 11.000000 18 356.112888
1.888370 -1.990611 3.052778 11.000000 16 356.112891
1.895419 -1.987595 2.778752 12.000000 15 356.112848
1.896134 -1.988348 2.296990 19.000000 13 356.112851
1.868224 -1.959765 1.859774 24.000000 11 356.112854
1.856496 -1.947466 1.494358 29.000000 9 356.112856
1.845926 -1.937055 1.169391 31.000000 7 356.112859
1.830070 -1.921088 0.869328 25.000000 5 356.112861
1.822852 -1.913511 0.593222 32.000000 3 356.112864
1.820057 -1.911244 0.329423 32.000000 1 356.112866
1.885814 -1.983752 2.518085 16.000000 14 356.112874
1.867674 -1.964674 2.057358 25.000000 12 356.112877
1.845516 -1.942043 1.659310 27.000000 10 356.112879
1.854730 -1.951743 1.332121 31.000000 8 356.112882
1.831557 -1.928031 1.014174 31.000000 6 356.112884
1.817559 -1.913966 0.727321 33.000000 4 356.112887
1.817171 -1.914226 0.459872 33.000000 2 356.112890
1.832798 -1.931363 0.201081 32.000000 0 356.112892
0.015267 -0.020315 1.344222 9.000000 31 356.112903
0.161802 -0.179430 1.536533 23.000000 28 356.112905
0.173978 -0.193366 1.274020 10.000000 27 356.112908
0.276181 -0.295599 1.339690 34.000000 25 356.112910
1.199898 -1.270602 4.176709 29.000000 23 356.112913
1.489146 -1.576358 4.039676 87.000000 21 356.112916
1.654606 -1.751514 3.611409 3.000000 19 356.112918
1.881415 -1.991613 3.355673 10.000000 17 356.112921
0.053823 -0.064737 1.292256 9.000000 30 356.112928
0.532409 -0.621371 7.576243 110.000000 29 356.112931
0.817684 -0.888014 4.681837 94.000000 26 356.112934
0.316410 -0.336203 1.309696 36.000000 24 356.112936
1.343335 -1.426484 4.113515 95.000000 22 356.112939
1.503341 -1.595846 3.656325 4.000000 20 356.112941
1.905217 -2.022459 3.752640 11.000000 18 356.112944
1.865137 -1.979917 3.027051 11.000000 16 356.112946
1.873757 -1.978662 2.757725 12.000000 15 356.112904
1.873121 -1.977995 2.278163 19.000000 13 356.112907
1.846999 -1.951092 1.846067 25.000000 11 356.112909
1.837504 -1.941065 1.485086 29.000000 9 356.112912
1.826407 -1.930018 1.161899 32.000000 7 356.112914
1.810166 -1.913524 0.863691 30.000000 5 356.112917
1.802658 -1.905588 0.589491 32.000000 3 356.112919
1.799688 -1.903112 0.327638 32.000000 1 356.112922
1.866060 -1.976745 2.501460 17.000000 14 356.112930
1.846932 -1.956485 2.042642 26.000000 12 356.112932
1.826890 -1.935931 1.649180 28.000000 10 356.112935
1.832332 -1.941702 1.321631 32.000000 8 356.112937
1.811853 -1.920672 1.007603 32.000000 6 356.112940
1.797528 -1.906154 0.722632 34.000000 4 356.112942
1.796891 -1.906144 0.457113 33.000000 2 356.112945
1.812340 -1.923205 0.200275 32.000000 0 356.112948
0.015196 -0.020368 1.344222 11.000000 31 356.112958
0.159622 -0.178255 1.521716 20.000000 28 356.112961
0.173302 -0.193972 1.274020 10.000000 27 356.112963
0.275148 -0.296562 1.339690 34.000000 25 356.112966
1.485274 -1.583294 4.044065 91.000000 21 356.112971
1.648482 -1.757279 3.611409 3.000000 19 356.112973
1.859097 -1.981801 3.328814 10.000000 17 356.112976
0.053597 -0.064924 1.292256 9.000000 30 356.112984
0.529891 -0.622819 7.571272 110.000000 29 356.112986
0.814580 -0.890863 4.681837 94.000000 26 356.112989
0.315235 -0.337305 1.309696 36.000000 24 356.112991
1.338348 -1.431164 4.113515 96.000000 22 356.112994
1.497761 -1.601084 3.656325 4.000000 20 356.112996
1.881674 -2.011489 3.720724 12.000000 18 356.112999
1.844319 -1.971561 3.005000 11.000000 16 356.113002
1.852180 -1.969603 2.736698 13.000000 15 356.112959
1.850205 -1.967506 2.259336 20.000000 13 356.112962
1.825857 -1.942294 1.832359 26.000000 11 356.112964
1.815545 -1.931328 1.473496 30.000000 9 356.112967
1.806960 -1.922868 1.154407 32.000000 7 356.112970
1.790337 -1.905845 0.858054 28.000000 5 356.112972
1.782542 -1.897547 0.585761 32.000000 3 356.112975
1.779397 -1.894862 0.325853 33.000000 1 356.112977
1.846379 -1.969625 2.484836 17.000000 14 356.112985
1.826269 -1.948176 2.027926 26.000000 12 356.112988
1.805381 -1.926567 1.636518 29.000000 10 356.112990
1.813129 -1.934839 1.313239 32.000000 8 356.112993
1.792223 -1.913199 1.001032 33.000000 6 356.112995
1.777574 -1.898225 0.717943 34.000000 4 356.112998
1.776689 -1.897943 0.454354 33.000000 2 356.113000
1.791962 -1.914928 0.199469 32.000000 0 356.113003
0.015125 -0.020421 1.344222 10.000000 31 356.113014
0.156422 -0.175904 1.497019 16.000000 28 356.113016
0.173299 -0.195338 1.278915 11.000000 27 356.113019
0.274111 -0.297520 1.339690 34.000000 25 356.113021
1.479738 -1.588469 4.044065 92.000000 21 356.113026
1.644256 -1.765082 3.615542 3.000000 19 356.113029
1.839057 -1.974204 3.305793 10.000000 17 356.113031
0.053551 -0.065337 1.297248 9.000000 30 356.113039
0.527714 -0.624665 7.571272 110.000000 29 356.113042
0.811465 -0.893701 4.681837 93.000000 26 356.113044
0.312881 -0.337138 1.305004 35.000000 24 356.113047
1.333344 -1.435827 4.113515 96.000000 22 356.113049
1.493938 -1.608213 3.660591 4.000000 20 356.113052
1.862333 -2.004796 3.696787 12.000000 18 356.113055
1.821275 -1.960600 2.979274 12.000000 16 356.113057
1.830690 -1.960418 2.715671 13.000000 15 356.113015
1.830041 -1.959726 2.243648 21.000000 13 356.113017
1.804800 -1.933372 1.818652 26.000000 11 356.113020
1.796700 -1.924700 1.464224 30.000000 9 356.113022
1.787586 -1.915606 1.146914 32.000000 7 356.113025
1.770584 -1.898051 0.852417 28.000000 5 356.113028
1.762505 -1.889390 0.582030 31.000000 3 356.113030
1.759186 -1.886493 0.324068 31.000000 1 356.113033
1.826770 -1.962391 2.468212 17.000000 14 356.113040
1.805687 -1.939746 2.013211 27.000000 12 356.113043
1.786897 -1.920233 1.626388 29.000000 10 356.113046
1.793997 -1.927866 1.304846 33.000000 8 356.113048
1.772668 -1.905613 0.994461 33.000000 6 356.113051
1.757697 -1.890180 0.713254 35.000000 4 356.113053
1.759938 -1.893252 0.452284 34.000000 2 356.113056
1.771663 -1.906533 0.198663 32.000000 0 356.113058
0.015053 -0.020474 1.344222 10.000000 31 356.113069
0.153754 -0.174115 1.477262 15.000000 28 356.113072
0.172616 -0.195942 1.278915 11.000000 27 356.113074
0.273071 -0.298475 1.339690 34.000000 25 356.113077
1.475811 -1.595383 4.048454 94.000000 21 356.113082
1.638084 -1.770810 3.615542 3.000000 19 356.113084
1.816916 -1.964138 3.278934 10.000000 17 356.113087
0.053322 -0.065524 1.297248 9.000000 30 356.113095
0.525530 -0.626503 7.571272 111.000000 29 356.113097
0.808340 -0.896528 4.681837 93.000000 26 356.113100
0.311703 -0.338228 1.305004 35.000000 24 356.113102
1.328324 -1.440473 4.113515 96.000000 22 356.113105
1.488316 -1.613418 3.660591 4.000000 20 356.113108
1.841019 -1.995777 3.668860 12.000000 18 356.113110
1.800628 -1.951994 2.957223 12.000000 16 356.113113
1.809286 -1.951106 2.694643 13.000000 15 356.113070
1.807307 -1.948976 2.224821 21.000000 13 356.113073
1.783827 -1.924328 1.804945 26.000000 11 356.113075
1.774912 -1.914715 1.452634 31.000000 9 356.113078
1.765133 -1.904832 1.137549 33.000000 7 356.113081
1.750907 -1.890142 0.846780 31.000000 5 356.113083
1.742546 -1.881116 0.578300 31.000000 3 356.113086
1.739056 -1.878006 0.322283 31.000000 1 356.113088
1.809770 -1.957786 2.454912 18.000000 14 356.113096
1.782443 -1.928229 1.995552 27.000000 12 356.113099
1.765554 -1.910627 1.613726 29.000000 10 356.113101
1.774936 -1.920784 1.296454 34.000000 8 356.113104
1.753188 -1.897913 0.987891 34.000000 6 356.113106
1.737899 -1.882020 0.708564 35.000000 4 356.113109
1.739883 -1.884829 0.449525 34.000000 2 356.113111
1.751445 -1.898019 0.197857 32.000000 0 356.113114
0.014982 -0.020526 1.344222 9.000000 31 356.113125
0.151100 -0.172311 1.457505 14.000000 28 356.113127
0.171931 -0.196543 1.278915 11.000000 27 356.113130
0.272027 -0.299427 1.339690 33.000000 25 356.113132
1.470233 -1.600525 4.048454 94.000000 21 356.113137
1.637604 -1.782735 3.627941 3.000000 19 356.113140
1.794868 -1.953941 3.252075 10.000000 17 356.113142
0.053272 -0.065937 1.302239 9.000000 30 356.113150
0.523340 -0.628334 7.571272 110.000000 29 356.113153
0.806045 -0.900281 4.686676 94.000000 26 356.113155
0.309355 -0.338041 1.300311 35.000000 24 356.113158
1.323287 -1.445100 4.113515 96.000000 22 356.113160
1.484437 -1.620527 3.664857 4.000000 20 356.113163
1.819790 -1.986634 3.640934 11.000000 18 356.113166
1.780064 -1.943268 2.935172 12.000000 16 356.113168
1.790386 -1.944293 2.677120 14.000000 15 356.113126
1.787308 -1.940954 2.209132 22.000000 13 356.113128
1.762939 -1.915161 1.791238 26.000000 11 356.113131
1.756216 -1.907861 1.443362 31.000000 9 356.113134
1.745917 -1.897337 1.130057 33.000000 7 356.113136
1.731308 -1.882120 0.841144 32.000000 5 356.113139
1.725992 -1.876341 0.575502 34.000000 3 356.113141
1.719006 -1.869402 0.320498 33.000000 1 356.113144
1.790298 -1.950336 2.438288 18.000000 14 356.113152
1.762035 -1.919550 1.980836 28.000000 12 356.113154
1.747215 -1.904072 1.603596 29.000000 10 356.113157
1.755947 -1.913592 1.288062 34.000000 8 356.113159
1.733783 -1.890101 0.981320 34.000000 6 356.113162
