# .PCD v.7 - Point Cloud Data file format
VERSION .7
FIELDS x y z intensity ring timestamp
SIZE 4 4 4 4 2 8
TYPE F F F F U D
COUNT 1 1 1 1 1 1
WIDTH 906
HEIGHT 1
VIEWPOINT 0 0 0 1 0 0 0
POINTS 906
DATA ascii
-0.325226 -1.097249 0.685367 39.000000 9 356.629321
-0.323196 -1.089704 0.547544 35.000000 7 356.629323
-0.315390 -1.062703 0.415567 25.000000 5 356.629326
-0.314460 -1.059572 0.301312 8.000000 3 356.629328
-0.316095 -1.064397 0.192436 13.000000 1 356.629331
-0.329400 -1.105683 1.108349 46.000000 14 356.629339
-0.326188 -1.094893 0.915412 48.000000 12 356.629341
-0.324438 -1.088324 0.752701 44.000000 10 356.629344
-0.327060 -1.097109 0.616685 42.000000 8 356.629346
-0.324144 -1.086636 0.483586 36.000000 6 356.629349
-0.318407 -1.066724 0.359214 13.000000 4 356.629351
-0.317429 -1.062771 0.246719 14.000000 2 356.629354
-0.323245 -1.081553 0.139211 28.000000 0 356.629357
-0.025354 -0.047832 4.654097 100.000000 31 356.629368
-0.205546 -0.626793 4.193854 8.000000 28 356.629371
-0.271438 -0.824449 4.196471 9.000000 27 356.629373
-0.339749 -1.104730 3.739866 8.000000 25 356.629376
-0.351666 -1.166318 2.929425 22.000000 23 356.629378
-0.345021 -1.144985 2.257880 35.000000 21 356.629381
-0.340378 -1.129567 1.805311 38.000000 19 356.629383
-0.337241 -1.119150 1.475570 39.000000 17 356.629386
-0.099617 -0.260363 4.646617 102.000000 30 356.629394
-0.168311 -0.474839 4.648083 103.000000 29 356.629396
-0.355824 -1.128468 4.589892 91.000000 26 356.629399
-0.364532 -1.201402 3.468369 19.000000 24 356.629401
-0.349117 -1.152032 2.551725 31.000000 22 356.629404
-0.343693 -1.134830 2.009674 37.000000 20 356.629406
-0.337992 -1.116000 1.618258 39.000000 18 356.629409
-0.334448 -1.104288 1.329125 39.000000 16 356.629412
-0.333186 -1.110595 1.219229 40.000000 15 356.629369
-0.330875 -1.102881 1.010501 42.000000 13 356.629372
-0.328845 -1.095421 0.834466 40.000000 11 356.629374
-0.329054 -1.096107 0.685367 39.000000 9 356.629377
-0.326998 -1.088569 0.547544 34.000000 7 356.629380
-0.319097 -1.061596 0.415567 25.000000 5 356.629382
-0.318157 -1.058468 0.301312 8.000000 3 356.629385
-0.319808 -1.063287 0.192436 13.000000 1 356.629387
-0.333258 -1.104527 1.108349 46.000000 14 356.629395
-0.330008 -1.093748 0.915412 50.000000 12 356.629398
-0.328235 -1.087184 0.752701 42.000000 10 356.629400
-0.330887 -1.095961 0.616685 40.000000 8 356.629403
-0.327935 -1.085498 0.483586 35.000000 6 356.629405
-0.320722 -1.060954 0.358041 13.000000 4 356.629408
-0.321137 -1.061656 0.246719 13.000000 2 356.629410
-0.327018 -1.080418 0.139211 29.000000 0 356.629413
-0.025521 -0.047743 4.654097 100.000000 31 356.629424
-0.212881 -0.641555 4.297579 10.000000 28 356.629426
-0.288492 -0.865995 4.411860 12.000000 27 356.629429
-0.344936 -1.107815 3.754181 7.000000 25 356.629431
-0.355165 -1.163215 2.924823 22.000000 23 356.629434
-0.348317 -1.141482 2.253491 35.000000 21 356.629436
-0.344318 -1.128371 1.805311 38.000000 19 356.629439
-0.341146 -1.117966 1.475570 39.000000 17 356.629441
-0.100525 -0.260014 4.646617 101.000000 30 356.629449
-0.169967 -0.474249 4.648083 103.000000 29 356.629452
-0.359761 -1.127219 4.589892 91.000000 26 356.629454
-0.368723 -1.200122 3.468369 19.000000 24 356.629457
-0.353136 -1.150806 2.551725 30.000000 22 356.629459
-0.346887 -1.131130 2.005409 37.000000 20 356.629462
-0.341886 -1.114813 1.618258 39.000000 18 356.629465
-0.338301 -1.103114 1.329125 40.000000 16 356.629467
-0.337061 -1.109425 1.219229 40.000000 15 356.629425
-0.333591 -1.097995 1.007363 40.000000 13 356.629427
-0.332667 -1.094267 0.834466 40.000000 11 356.629430
-0.332878 -1.094952 0.685367 39.000000 9 356.629432
-0.330796 -1.087421 0.547544 37.000000 7 356.629435
-0.322801 -1.060475 0.415567 25.000000 5 356.629438
-0.321850 -1.057351 0.301312 8.000000 3 356.629440
-0.323518 -1.062164 0.192436 14.000000 1 356.629443
-0.337111 -1.103357 1.108349 46.000000 14 356.629450
-0.333824 -1.092590 0.915412 46.000000 12 356.629453
-0.332028 -1.086032 0.752701 42.000000 10 356.629456
-0.334711 -1.094799 0.616685 40.000000 8 356.629458
-0.331722 -1.084347 0.483586 35.000000 6 356.629461
-0.324424 -1.059828 0.358041 13.000000 4 356.629463
-0.324841 -1.060529 0.246719 13.000000 2 356.629466
-0.330787 -1.079270 0.139211 29.000000 0 356.629468
-0.025687 -0.047653 4.654097 101.000000 31 356.629479
-0.220321 -0.656274 4.401303 13.000000 28 356.629482
-0.296723 -0.880419 4.490184 14.000000 27 356.629484
-0.349250 -1.108029 3.758953 7.000000 25 356.629487
-0.359223 -1.161968 2.924823 22.000000 23 356.629489
-0.352299 -1.140259 2.253491 35.000000 21 356.629492
-0.348255 -1.127163 1.805311 38.000000 19 356.629494
-0.345046 -1.116768 1.475570 40.000000 17 356.629497
-0.101432 -0.259661 4.646617 102.000000 30 356.629505
-0.171622 -0.473653 4.648083 103.000000 29 356.629507
-0.363694 -1.125956 4.589892 90.000000 26 356.629510
-0.372910 -1.198828 3.468369 19.000000 24 356.629512
-0.356505 -1.147487 2.547225 30.000000 22 356.629515
-0.350834 -1.129913 2.005409 37.000000 20 356.629518
-0.345775 -1.113613 1.618258 39.000000 18 356.629520
-0.342149 -1.101926 1.329125 40.000000 16 356.629523
-0.339883 -1.104833 1.215725 40.000000 15 356.629480
-0.337422 -1.096824 1.007363 40.000000 13 356.629483
-0.336485 -1.093099 0.834466 40.000000 11 356.629485
-0.336698 -1.093783 0.685367 39.000000 9 356.629488
-0.333225 -1.081829 0.545671 38.000000 7 356.629491
-0.326501 -1.059342 0.415567 25.000000 5 356.629493
-0.325539 -1.056221 0.301312 8.000000 3 356.629496
-0.325756 -1.056270 0.191990 14.000000 1 356.629498
-0.340961 -1.102173 1.108349 46.000000 14 356.629506
-0.336442 -1.087556 0.912469 44.000000 12 356.629509
-0.335817 -1.084866 0.752701 44.000000 10 356.629511
-0.338531 -1.093624 0.616685 40.000000 8 356.629514
-0.335505 -1.083182 0.483586 31.000000 6 356.629516
-0.328121 -1.058689 0.358041 13.000000 4 356.629519
-0.328541 -1.059389 0.246719 14.000000 2 356.629521
-0.334553 -1.078109 0.139211 28.000000 0 356.629524
-0.025853 -0.047563 4.654097 101.000000 31 356.629535
-0.227866 -0.670948 4.505027 8.000000 28 356.629537
-0.303414 -0.889978 4.544032 17.000000 27 356.629540
-0.353115 -1.106803 3.758953 8.000000 25 356.629542
-0.363277 -1.160707 2.924823 22.000000 23 356.629545
-0.355562 -1.136736 2.249103 35.000000 21 356.629547
-0.352187 -1.125940 1.805311 38.000000 19 356.629550
-0.348942 -1.115557 1.475570 39.000000 17 356.629552
-0.102338 -0.259306 4.646617 102.000000 30 356.629560
-0.173089 -0.472550 4.643111 103.000000 29 356.629563
-0.367622 -1.124680 4.589892 89.000000 26 356.629565
-0.377611 -1.199165 3.473062 19.000000 24 356.629568
-0.360508 -1.146235 2.547225 31.000000 22 356.629570
-0.354776 -1.128681 2.005409 37.000000 20 356.629573
-0.349660 -1.112399 1.618258 39.000000 18 356.629576
-0.345993 -1.100725 1.329125 39.000000 16 356.629578
-0.343737 -1.103639 1.215725 40.000000 15 356.629536
-0.341248 -1.095639 1.007363 42.000000 13 356.629538
-0.340298 -1.091918 0.834466 40.000000 11 356.629541
-0.340514 -1.092601 0.685367 39.000000 9 356.629544
-0.336999 -1.080660 0.545671 38.000000 7 356.629546
-0.331626 -1.062775 0.416976 24.000000 5 356.629549
-0.329224 -1.055078 0.301312 8.000000 3 356.629551
-0.329441 -1.055126 0.191990 14.000000 1 356.629554
-0.343690 -1.097413 1.105024 48.000000 14 356.629562
-0.340236 -1.086375 0.912469 48.000000 12 356.629564
-0.339602 -1.083688 0.752701 44.000000 10 356.629567
-0.342346 -1.092436 0.616685 40.000000 8 356.629569
-0.339284 -1.082004 0.483586 31.000000 6 356.629572
-0.331815 -1.057537 0.358041 13.000000 4 356.629574
-0.332237 -1.058235 0.246719 14.000000 2 356.629577
-0.338314 -1.076934 0.139211 30.000000 0 356.629579
-0.026019 -0.047473 4.654097 101.000000 31 356.629590
-0.230207 -0.670149 4.505027 8.000000 28 356.629593
-0.312168 -0.905275 4.627251 31.000000 27 356.629595
-0.356977 -1.105564 3.758953 8.000000 25 356.629598
-0.367326 -1.159432 2.924823 22.000000 23 356.629600
-0.359528 -1.135488 2.249103 35.000000 21 356.629603
-0.355266 -1.122021 1.801178 38.000000 19 356.629605
-0.352834 -1.114332 1.475570 39.000000 17 356.629608
-0.103242 -0.258947 4.646617 102.000000 30 356.629616
-0.174738 -0.471943 4.643111 104.000000 29 356.629618
-0.371545 -1.123390 4.589892 89.000000 26 356.629621
-0.381794 -1.197840 3.473062 20.000000 24 356.629623
-0.364507 -1.144970 2.547225 31.000000 22 356.629626
-0.358713 -1.127436 2.005409 37.000000 20 356.629629
-0.353541 -1.111172 1.618258 39.000000 18 356.629631
-0.349834 -1.099510 1.329125 39.000000 16 356.629634
-0.347588 -1.102433 1.215725 40.000000 15 356.629591
-0.345071 -1.094441 1.007363 42.000000 13 356.629594
-0.342850 -1.086735 0.831724 40.000000 11 356.629596
-0.344326 -1.091406 0.685367 39.000000 9 356.629599
-0.340769 -1.079477 0.545671 38.000000 7 356.629602
-0.335333 -1.061611 0.416976 24.000000 5 356.629604
-0.332905 -1.053922 0.301312 8.000000 3 356.629607
-0.333122 -1.053970 0.191990 14.000000 1 356.629609
-0.347519 -1.096206 1.105024 46.000000 14 356.629617
-0.344026 -1.085181 0.912469 46.000000 12 356.629620
-0.343382 -1.082496 0.752701 44.000000 10 356.629622
-0.346157 -1.091234 0.616685 40.000000 8 356.629625
-0.341630 -1.076312 0.481944 35.000000 6 356.629627
-0.335504 -1.056372 0.358041 13.000000 4 356.629630
-0.334429 -1.052349 0.246029 14.000000 2 356.629632
-0.342071 -1.075747 0.139211 28.000000 0 356.629635
-0.026185 -0.047382 4.654097 101.000000 31 356.629646
-0.233822 -0.673010 4.529724 12.000000 28 356.629648
-0.313312 -0.898412 4.597879 58.000000 27 356.629651
-0.360369 -1.102891 3.754181 8.000000 25 356.629653
-0.371371 -1.158143 2.924823 22.000000 23 356.629656
-0.363489 -1.134226 2.249103 35.000000 21 356.629658
-0.359181 -1.120774 1.801178 38.000000 19 356.629661
-0.355743 -1.110040 1.471733 39.000000 17 356.629664
-0.104146 -0.258585 4.646617 102.000000 30 356.629671
-0.176384 -0.471330 4.643111 104.000000 29 356.629674
-0.375465 -1.122086 4.589892 89.000000 26 356.629676
-0.386503 -1.198142 3.477755 20.000000 24 356.629679
-0.368501 -1.143690 2.547225 31.000000 22 356.629682
-0.362647 -1.126177 2.005409 37.000000 20 356.629684
-0.356494 -1.107062 1.614269 39.000000 18 356.629687
-0.352630 -1.095056 1.325450 39.000000 16 356.629689
-0.351434 -1.101213 1.215725 40.000000 15 356.629647
-0.348889 -1.093230 1.007363 42.000000 13 356.629649
-0.346641 -1.085532 0.831724 40.000000 11 356.629652
-0.348133 -1.090198 0.685367 39.000000 9 356.629655
-0.344535 -1.078280 0.545671 38.000000 7 356.629657
-0.339037 -1.060434 0.416976 22.000000 5 356.629660
-0.336581 -1.052754 0.301312 8.000000 3 356.629662
-0.336799 -1.052801 0.191990 15.000000 1 356.629665
-0.351343 -1.094987 1.105024 44.000000 14 356.629673
-0.347812 -1.083974 0.912469 48.000000 12 356.629675
-0.347159 -1.081290 0.752701 44.000000 10 356.629678
-0.349964 -1.090019 0.616685 42.000000 8 356.629680
-0.345385 -1.075113 0.481944 35.000000 6 356.629683
-0.339190 -1.055195 0.358041 13.000000 4 356.629685
-0.338100 -1.051176 0.246029 14.000000 2 356.629688
-0.345824 -1.074546 0.139211 28.000000 0 356.629690
-0.026350 -0.047290 4.654097 100.000000 31 356.629701
-0.238491 -0.678786 4.574177 14.000000 28 356.629704
-0.317463 -0.900193 4.612565 92.000000 27 356.629706
-0.363748 -1.100209 3.749410 8.000000 25 356.629709
-0.375412 -1.156839 2.924823 19.000000 23 356.629711
-0.367446 -1.132950 2.249103 35.000000 21 356.629714
-0.363091 -1.119514 1.801178 38.000000 19 356.629716
-0.359616 -1.108792 1.471733 39.000000 17 356.629719
-0.105048 -0.258220 4.646617 101.000000 30 356.629727
-0.178028 -0.470711 4.643111 103.000000 29 356.629729
-0.379379 -1.120768 4.589892 89.000000 26 356.629732
-0.390683 -1.196785 3.477755 20.000000 24 356.629734
-0.372491 -1.142397 2.547225 31.000000 22 356.629737
-0.366576 -1.124904 2.005409 37.000000 20 356.629740
-0.360356 -1.105811 1.614269 39.000000 18 356.629742
-0.356451 -1.093818 1.325450 39.000000 16 356.629745
-0.355276 -1.099980 1.215725 40.000000 15 356.629702
-0.352703 -1.092005 1.007363 42.000000 13 356.629705
-0.350428 -1.084316 0.831724 40.000000 11 356.629708
-0.351937 -1.088976 0.685367 39.000000 9 356.629710
-0.348297 -1.077071 0.545671 38.000000 7 356.629713
-0.344213 -1.063809 0.418385 16.000000 5 356.629715
-0.340254 -1.051573 0.301312 8.000000 3 356.629718
-0.342006 -1.056357 0.192436 13.000000 1 356.629720
-0.355163 -1.093754 1.105024 46.000000 14 356.629728
-0.351593 -1.082753 0.912469 46.000000 12 356.629731
-0.350931 -1.080072 0.752701 44.000000 10 356.629733
-0.353767 -1.088791 0.616685 40.000000 8 356.629736
-0.349136 -1.073901 0.481944 35.000000 6 356.629738
-0.342871 -1.054004 0.358041 13.000000 4 356.629741
-0.341767 -1.049989 0.246029 13.000000 2 356.629743
-0.349573 -1.073332 0.139211 29.000000 0 356.629746
-0.026539 -0.047234 4.659096 100.000000 31 356.629757
-0.241901 -0.680878 4.593934 17.000000 28 356.629759
-0.320261 -0.898120 4.607670 94.000000 27 356.629762
-0.367586 -1.098932 3.749410 8.000000 25 356.629764
-0.379448 -1.155522 2.924823 19.000000 23 356.629767
-0.371398 -1.131661 2.249103 35.000000 21 356.629769
-0.366996 -1.118240 1.801178 38.000000 19 356.629772
-0.363484 -1.107530 1.471733 40.000000 17 356.629775
-0.105948 -0.257852 4.646617 101.000000 30 356.629782
-0.179862 -0.470585 4.648083 103.000000 29 356.629785
-0.383289 -1.119437 4.589892 88.000000 26 356.629787
-0.394858 -1.195414 3.477755 20.000000 24 356.629790
-0.376477 -1.141090 2.547225 31.000000 22 356.629793
-0.369683 -1.121141 2.001143 37.000000 20 356.629795
-0.364214 -1.104547 1.614269 39.000000 18 356.629798
-0.360267 -1.092567 1.325450 40.000000 16 356.629800
-0.359113 -1.098733 1.215725 40.000000 15 356.629758
-0.355303 -1.087068 1.004225 42.000000 13 356.629760
-0.354211 -1.083086 0.831724 40.000000 11 356.629763
-0.354359 -1.083530 0.683049 39.000000 9 356.629766
-0.352055 -1.075849 0.545671 38.000000 7 356.629768
-0.347925 -1.062601 0.418385 16.000000 5 356.629771
-0.342394 -1.045710 0.300379 8.000000 3 356.629773
-0.345691 -1.055156 0.192436 13.000000 1 356.629776
-0.358979 -1.092507 1.105024 46.000000 14 356.629784
-0.355371 -1.081519 0.912469 46.000000 12 356.629786
-0.354699 -1.078840 0.752701 44.000000 10 356.629789
-0.357565 -1.087549 0.616685 40.000000 8 356.629791
-0.352883 -1.072676 0.481944 35.000000 6 356.629794
-0.346548 -1.052801 0.358041 13.000000 4 356.629796
-0.345430 -1.048790 0.246029 14.000000 2 356.629799
-0.351754 -1.067361 0.139010 29.000000 0 356.629802
-0.026704 -0.047141 4.659096 101.000000 31 356.629812
-0.245592 -0.683685 4.618630 22.000000 28 356.629815
-0.323740 -0.897954 4.612565 94.000000 27 356.629817
-0.370941 -1.096228 3.744638 8.000000 25 356.629820
-0.382863 -1.152336 2.920220 23.000000 23 356.629822
-0.375346 -1.130357 2.249103 34.000000 21 356.629825
-0.370897 -1.116952 1.801178 38.000000 19 356.629828
-0.367348 -1.106254 1.471733 40.000000 17 356.629830
-0.106848 -0.257480 4.646617 102.000000 30 356.629838
-0.181503 -0.469955 4.648083 102.000000 29 356.629840
-0.387606 -1.119281 4.594731 87.000000 26 356.629843
-0.399576 -1.195665 3.482447 21.000000 24 356.629846
-0.380458 -1.139769 2.547225 31.000000 22 356.629848
-0.373595 -1.119844 2.001143 37.000000 20 356.629851
-0.369021 -1.106127 1.618258 39.000000 18 356.629853
-0.364078 -1.091303 1.325450 40.000000 16 356.629856
-0.362946 -1.097472 1.215725 40.000000 15 356.629813
-0.359095 -1.085821 1.004225 42.000000 13 356.629816
-0.357989 -1.081843 0.831724 40.000000 11 356.629819
-0.358139 -1.082286 0.683049 39.000000 9 356.629821
-0.355808 -1.074613 0.545671 38.000000 7 356.629824
-0.350123 -1.056826 0.416976 24.000000 5 356.629826
-0.346042 -1.044508 0.300379 8.000000 3 356.629829
-0.349372 -1.053943 0.192436 13.000000 1 356.629831
-0.362790 -1.091247 1.105024 46.000000 14 356.629839
-0.359144 -1.080272 0.912469 48.000000 12 356.629842
-0.358463 -1.077596 0.752701 44.000000 10 356.629844
-0.361359 -1.086295 0.616685 42.000000 8 356.629847
-0.356625 -1.071437 0.481944 35.000000 6 356.629849
-0.350221 -1.051585 0.358041 11.000000 4 356.629852
-0.349089 -1.047578 0.246029 14.000000 2 356.629854
-0.355477 -1.066126 0.139010 29.000000 0 356.629857
-0.026868 -0.047048 4.659096 101.000000 31 356.629868
-0.248508 -0.684284 4.628509 30.000000 28 356.629870
-0.326872 -0.896819 4.612565 95.000000 27 356.629873
-0.374766 -1.094926 3.744638 8.000000 25 356.629875
-0.386883 -1.150993 2.920220 23.000000 23 356.629878
-0.379290 -1.129040 2.249103 34.000000 21 356.629880
-0.374794 -1.115650 1.801178 38.000000 19 356.629883
-0.371207 -1.104965 1.471733 40.000000 17 356.629886
-0.107746 -0.257106 4.646617 102.000000 30 356.629893
-0.183143 -0.469318 4.648083 102.000000 29 356.629896
-0.391511 -1.117921 4.594731 87.000000 26 356.629898
-0.403747 -1.194263 3.482447 21.000000 24 356.629901
-0.384434 -1.138434 2.547225 31.000000 22 356.629904
-0.377501 -1.118533 2.001143 37.000000 20 356.629906
-0.372880 -1.104833 1.618258 39.000000 18 356.629909
-0.367885 -1.090025 1.325450 40.000000 16 356.629911
-0.366775 -1.096199 1.215725 40.000000 15 356.629869
-0.362884 -1.084561 1.004225 40.000000 13 356.629872
-0.361763 -1.080586 0.831724 42.000000 11 356.629874
-0.361915 -1.081030 0.683049 39.000000 9 356.629877
-0.359557 -1.073365 0.545671 38.000000 7 356.629879
-0.352285 -1.051049 0.415567 24.000000 5 356.629882
-0.349686 -1.043294 0.300379 8.000000 3 356.629884
-0.351465 -1.047996 0.191990 13.000000 1 356.629887
-0.366597 -1.089975 1.105024 46.000000 14 356.629895
-0.362913 -1.079012 0.912469 46.000000 12 356.629897
-0.362222 -1.076338 0.752701 44.000000 10 356.629900
-0.365149 -1.085027 0.616685 42.000000 8 356.629902
-0.360363 -1.070186 0.481944 35.000000 6 356.629905
-0.353889 -1.050356 0.358041 9.000000 4 356.629907
-0.352744 -1.046353 0.246029 14.000000 2 356.629910
-0.359196 -1.064879 0.139010 30.000000 0 356.629913
-0.027032 -0.046954 4.659096 101.000000 31 356.629923
-0.251699 -0.685600 4.643327 34.000000 28 356.629926
-0.330001 -0.895673 4.612565 95.000000 27 356.629928
-0.378585 -1.093611 3.744638 8.000000 25 356.629931
-0.390898 -1.149635 2.920220 22.000000 23 356.629933
-0.383229 -1.127710 2.249103 35.000000 21 356.629936
-0.378686 -1.114335 1.801178 38.000000 19 356.629939
-0.375062 -1.103663 1.471733 40.000000 17 356.629941
-0.108598 -0.256747 4.646617 101.000000 30 356.629949
-0.184698 -0.468708 4.648083 101.000000 29 356.629951
-0.395216 -1.116617 4.594731 86.000000 26 356.629954
-0.407705 -1.192918 3.482447 21.000000 24 356.629957
-0.388406 -1.137085 2.547225 31.000000 22 356.629959
-0.381403 -1.117208 2.001143 37.000000 20 356.629962
-0.376734 -1.103524 1.618258 39.000000 18 356.629964
-0.371498 -1.088799 1.325450 39.000000 16 356.629967
-0.369456 -1.091534 1.212220 40.000000 15 356.629924
-0.366667 -1.083287 1.004225 42.000000 13 356.629927
-0.365533 -1.079317 0.831724 42.000000 11 356.629930
-0.365686 -1.079760 0.683049 39.000000 9 356.629932
-0.363114 -1.072167 0.545671 38.000000 7 356.629935
-0.355769 -1.049875 0.415567 23.000000 5 356.629937
-0.353326 -1.042067 0.300379 8.000000 3 356.629940
-0.355121 -1.046762 0.191990 14.000000 1 356.629942
-0.370400 -1.088688 1.105024 46.000000 14 356.629950
-0.366677 -1.077738 0.912469 46.000000 12 356.629953
-0.365790 -1.075131 0.752701 44.000000 10 356.629955
-0.368745 -1.083810 0.616685 40.000000 8 356.629958
-0.363909 -1.068985 0.481944 34.000000 6 356.629960
-0.357370 -1.049177 0.358041 9.000000 4 356.629963
-0.356212 -1.045177 0.246029 14.000000 2 356.629966
-0.362726 -1.063682 0.139010 28.000000 0 356.629968
-0.027188 -0.046864 4.659096 101.000000 31 356.629979
-0.252889 -0.681848 4.623570 49.000000 28 356.629981
-0.333325 -0.895527 4.617460 95.000000 27 356.629984
-0.382210 -1.092350 3.744638 7.000000 25 356.629986
-0.394708 -1.148333 2.920220 23.000000 23 356.629989
-0.386188 -1.124167 2.244714 35.000000 21 356.629992
-0.381465 -1.110412 1.797045 38.000000 19 356.629994
-0.378720 -1.102413 1.471733 39.000000 17 356.629997
-0.109493 -0.256366 4.646617 102.000000 30 356.630004
-0.186333 -0.468061 4.648083 101.000000 29 356.630007
-0.399111 -1.115230 4.594731 84.000000 26 356.630010
-0.411867 -1.191488 3.482447 21.000000 24 356.630012
-0.392174 -1.135791 2.547225 31.000000 22 356.630015
-0.384255 -1.113472 1.996877 37.000000 20 356.630017
-0.380392 -1.102269 1.618258 39.000000 18 356.630020
-0.374190 -1.084291 1.321775 39.000000 16 356.630022
-0.373073 -1.090303 1.212220 40.000000 15 356.629980
-0.370257 -1.082065 1.004225 42.000000 13 356.629983
-0.369110 -1.078099 0.831724 40.000000 11 356.629985
-0.369264 -1.078541 0.683049 39.000000 9 356.629988
-0.366855 -1.070893 0.545671 38.000000 7 356.629990
-0.357876 -1.044088 0.414157 25.000000 5 356.629993
-0.356780 -1.040890 0.300379 8.000000 3 356.629995
-0.358591 -1.045579 0.191990 14.000000 1 356.629998
-0.374008 -1.087454 1.105024 46.000000 14 356.630006
-0.370249 -1.076516 0.912469 48.000000 12 356.630008
-0.368137 -1.069771 0.750168 42.000000 10 356.630011
-0.372526 -1.082516 0.616685 40.000000 8 356.630013
-0.367639 -1.067708 0.481944 33.000000 6 356.630016
-0.361031 -1.047923 0.358041 12.000000 4 356.630018
-0.359858 -1.043927 0.246029 14.000000 2 356.630021
-0.366436 -1.062409 0.139010 28.000000 0 356.630024
-0.027351 -0.046769 4.659096 101.000000 31 356.630034
-0.255268 -0.680961 4.623570 76.000000 28 356.630037
-0.336449 -0.894358 4.617460 94.000000 27 356.630039
-0.386020 -1.091009 3.744638 7.000000 25 356.630042
-0.398714 -1.146948 2.920220 23.000000 23 356.630044
-0.390109 -1.122812 2.244714 35.000000 21 356.630047
-0.385339 -1.109074 1.797045 38.000000 19 356.630049
-0.382566 -1.101084 1.471733 39.000000 17 356.630052
-0.110388 -0.255983 4.646617 102.000000 30 356.630060
-0.188166 -0.467902 4.653054 101.000000 29 356.630062
-0.403430 -1.115013 4.599570 84.000000 26 356.630065
-0.416023 -1.190043 3.482447 21.000000 24 356.630067
-0.396136 -1.134415 2.547225 31.000000 22 356.630070
-0.388140 -1.112124 1.996877 37.000000 20 356.630072
-0.383244 -1.098089 1.614269 39.000000 18 356.630075
-0.377973 -1.082979 1.321775 40.000000 16 356.630078
-0.376877 -1.088994 1.212220 40.000000 15 356.630035
-0.374032 -1.080766 1.004225 42.000000 13 356.630038
-0.371503 -1.072853 0.828983 40.000000 11 356.630040
-0.373027 -1.077246 0.683049 39.000000 9 356.630043
-0.370591 -1.069606 0.545671 38.000000 7 356.630046
-0.361518 -1.042833 0.414157 25.000000 5 356.630048
-0.360411 -1.039638 0.300379 7.000000 3 356.630051
-0.362238 -1.044321 0.191990 13.000000 1 356.630053
-0.377801 -1.086142 1.105024 44.000000 14 356.630061
-0.374004 -1.075217 0.912469 48.000000 12 356.630064
-0.371869 -1.068479 0.750168 44.000000 10 356.630066
-0.376303 -1.081209 0.616685 40.000000 8 356.630069
-0.371363 -1.066418 0.481944 33.000000 6 356.630071
-0.363087 -1.042066 0.356869 13.000000 4 356.630074
-0.363500 -1.042665 0.246029 14.000000 2 356.630076
-0.370143 -1.061124 0.139010 28.000000 0 356.630079
-0.027514 -0.046673 4.659096 101.000000 31 356.630090
-0.257368 -0.679339 4.618630 98.000000 28 356.630092
-0.339931 -0.894130 4.622355 95.000000 27 356.630095
-0.389826 -1.089655 3.744638 7.000000 25 356.630097
-0.402716 -1.145549 2.920220 23.000000 23 356.630100
-0.393232 -1.119183 2.240325 35.000000 21 356.630102
-0.389208 -1.107722 1.797045 38.000000 19 356.630105
-0.386407 -1.099742 1.471733 39.000000 17 356.630107
-0.111281 -0.255596 4.646617 102.000000 30 356.630115
-0.189596 -0.466748 4.648083 101.000000 29 356.630118
-0.407319 -1.113598 4.599570 84.000000 26 356.630120
-0.420175 -1.188583 3.482447 22.000000 24 356.630123
-0.399369 -1.130972 2.542724 31.000000 22 356.630125
-0.392019 -1.110762 1.996877 37.000000 20 356.630128
-0.387075 -1.096744 1.614269 39.000000 18 356.630131
-0.381751 -1.081653 1.321775 40.000000 16 356.630133
-0.380676 -1.087672 1.212220 40.000000 15 356.630091
-0.377803 -1.079454 1.004225 40.000000 13 356.630093
-0.375246 -1.071549 0.828983 42.000000 11 356.630096
-0.376785 -1.075937 0.683049 39.000000 9 356.630098
-0.374322 -1.068305 0.545671 38.000000 7 356.630101
-0.365156 -1.041565 0.414157 24.000000 5 356.630104
-0.365663 -1.043009 0.301312 5.000000 3 356.630106
-0.365881 -1.043050 0.191990 11.000000 1 356.630109
-0.381590 -1.084816 1.105024 46.000000 14 356.630116
-0.377755 -1.073905 0.912469 46.000000 12 356.630119
-0.375597 -1.067175 0.750168 42.000000 10 356.630122
-0.380074 -1.079889 0.616685 40.000000 8 356.630124
-0.375084 -1.065116 0.481944 34.000000 6 356.630127
-0.366722 -1.040792 0.356869 13.000000 4 356.630129
-0.367137 -1.041390 0.246029 14.000000 2 356.630132
-0.372183 -1.055114 0.138808 28.000000 0 356.630134
-0.027652 -0.046541 4.654097 98.000000 31 356.630145
-0.259737 -0.678437 4.618630 101.000000 28 356.630148
-0.343050 -0.892938 4.622355 95.000000 27 356.630150
-0.394136 -1.089692 3.749410 8.000000 25 356.630153
-0.406712 -1.144136 2.920220 23.000000 23 356.630155
-0.397136 -1.117804 2.240325 35.000000 21 356.630158
-0.393072 -1.106356 1.797045 38.000000 19 356.630160
-0.390243 -1.098387 1.471733 39.000000 17 356.630163
-0.112172 -0.255206 4.646617 101.000000 30 356.630171
-0.191224 -0.466084 4.648083 101.000000 29 356.630173
-0.411204 -1.112170 4.599570 83.000000 26 356.630176
-0.424321 -1.187109 3.482447 23.000000 24 356.630178
-0.403314 -1.129571 2.542724 31.000000 22 356.630181
-0.395894 -1.109387 1.996877 37.000000 20 356.630184
-0.390901 -1.095387 1.614269 39.000000 18 356.630186
-0.385524 -1.080313 1.321775 40.000000 16 356.630189
-0.384470 -1.086336 1.212220 40.000000 15 356.630146
-0.381568 -1.078129 1.004225 42.000000 13 356.630149
-0.378984 -1.070233 0.828983 42.000000 11 356.630151
-0.380538 -1.074615 0.683049 39.000000 9 356.630154
-0.376500 -1.062623 0.543798 38.000000 7 356.630157
-0.368790 -1.040284 0.414157 24.000000 5 356.630159
-0.369301 -1.041727 0.301312 5.000000 3 356.630162
-0.369520 -1.041767 0.191990 12.000000 1 356.630164
-0.385375 -1.083478 1.105024 46.000000 14 356.630172
-0.381501 -1.072580 0.912469 46.000000 12 356.630175
-0.379320 -1.065857 0.750168 44.000000 10 356.630177
-0.383842 -1.078556 0.616685 40.000000 8 356.630180
-0.378799 -1.063800 0.481944 34.000000 6 356.630182
-0.370353 -1.039506 0.356869 13.000000 4 356.630185
-0.370770 -1.040102 0.246029 14.000000 2 356.630187
-0.375863 -1.053808 0.138808 28.000000 0 356.630190
-0.027814 -0.046444 4.654097 98.000000 31 356.630201
-0.262104 -0.677526 4.618630 101.000000 28 356.630203
-0.346165 -0.891735 4.622355 95.000000 27 356.630206
-0.397424 -1.086907 3.744638 8.000000 25 356.630208
-0.410703 -1.142710 2.920220 23.000000 23 356.630211
-0.401036 -1.116410 2.240325 35.000000 21 356.630213
-0.396932 -1.104978 1.797045 39.000000 19 356.630216
-0.394075 -1.097018 1.471733 39.000000 17 356.630218
-0.113062 -0.254813 4.646617 102.000000 30 356.630226
-0.192850 -0.465413 4.648083 101.000000 29 356.630229
-0.415084 -1.110727 4.599570 83.000000 26 356.630231
-0.428462 -1.185621 3.482447 23.000000 24 356.630234
-0.407254 -1.128156 2.542724 31.000000 22 356.630236
-0.399764 -1.107998 1.996877 37.000000 20 356.630239
-0.394722 -1.094015 1.614269 39.000000 18 356.630242
-0.390443 -1.082150 1.325450 40.000000 16 356.630244
-0.388260 -1.084988 1.212220 40.000000 15 356.630202
-0.385329 -1.076790 1.004225 42.000000 13 356.630204
-0.382717 -1.068904 0.828983 42.000000 11 356.630207
-0.382794 -1.069109 0.680731 39.000000 9 356.630210
-0.380207 -1.061302 0.543798 38.000000 7 356.630212
-0.372419 -1.038990 0.414157 24.000000 5 356.630215
-0.372935 -1.040431 0.301312 9.000000 3 356.630217
-0.373154 -1.040470 0.191990 13.000000 1 356.630220
-0.389154 -1.082126 1.105024 46.000000 14 356.630228
-0.385243 -1.071242 0.912469 48.000000 12 356.630230
-0.383038 -1.064527 0.750168 44.000000 10 356.630233
-0.386067 -1.072939 0.614587 40.000000 8 356.630235
-0.382510 -1.062471 0.481944 35.000000 6 356.630238
-0.375627 -1.042780 0.358041 13.000000 4 356.630240
-0.372719 -1.034142 0.245340 11.000000 2 356.630243
-0.379540 -1.052490 0.138808 30.000000 0 356.630245
-0.027976 -0.046347 4.654097 101.000000 31 356.630256
-0.264467 -0.676607 4.618630 97.000000 28 356.630259
-0.349275 -0.890521 4.622355 95.000000 27 356.630261
-0.403287 -1.091116 3.763725 6.000000 25 356.630264
-0.414690 -1.141269 2.920220 23.000000 23 356.630266
-0.404930 -1.115004 2.240325 35.000000 21 356.630269
-0.400786 -1.103585 1.797045 38.000000 19 356.630271
-0.396807 -1.092622 1.467896 40.000000 17 356.630274
-0.113951 -0.254416 4.646617 102.000000 30 356.630282
-0.194473 -0.464737 4.648083 100.000000 29 356.630284
-0.418958 -1.109272 4.599570 83.000000 26 356.630287
-0.432598 -1.184118 3.482447 23.000000 24 356.630289
-0.410443 -1.124682 2.538223 30.000000 22 356.630292
-0.403630 -1.106596 1.996877 37.000000 20 356.630295
-0.398538 -1.092631 1.614269 39.000000 18 356.630297
-0.394218 -1.080781 1.325450 40.000000 16 356.630300
-0.392045 -1.083626 1.212220 40.000000 15 356.630257
-0.389086 -1.075439 1.004225 40.000000 13 356.630260
-0.386446 -1.067561 0.828983 42.000000 11 356.630262
-0.386523 -1.067767 0.680731 39.000000 9 356.630265
-0.383910 -1.059968 0.543798 38.000000 7 356.630268
-0.376043 -1.037684 0.414157 24.000000 5 356.630270
-0.374891 -1.034505 0.300379 9.000000 3 356.630273
-0.376784 -1.039161 0.191990 14.000000 1 356.630275
-0.392929 -1.080761 1.105024 45.000000 14 356.630283
-0.388980 -1.069891 0.912469 48.000000 12 356.630286
-0.386751 -1.063183 0.750168 44.000000 10 356.630288
-0.389810 -1.071585 0.614587 40.000000 8 356.630291
-0.386217 -1.061129 0.481944 35.000000 6 356.630293
-0.379264 -1.041462 0.358041 13.000000 4 356.630296
-0.376327 -1.032835 0.245340 10.000000 2 356.630298
-0.383211 -1.051159 0.138808 30.000000 0 356.630301
-0.028138 -0.046249 4.654097 101.000000 31 356.630312
-0.266828 -0.675680 4.618630 97.000000 28 356.630314
-0.352382 -0.889297 4.622355 95.000000 27 356.630317
-0.407094 -1.089702 3.763725 6.000000 25 356.630319
-0.419344 -1.141649 2.924823 24.000000 23 356.630322
-0.408820 -1.113583 2.240325 35.000000 21 356.630324
-0.404636 -1.102180 1.797045 38.000000 19 356.630327
-0.400619 -1.091231 1.467896 40.000000 17 356.630330
-0.114838 -0.254017 4.646617 102.000000 30 356.630337
-0.196094 -0.464056 4.648083 101.000000 29 356.630340
-0.422828 -1.107802 4.599570 83.000000 26 356.630342
-0.437327 -1.184220 3.487140 24.000000 24 356.630345
-0.414367 -1.123242 2.538223 31.000000 22 356.630348
-0.407490 -1.105181 1.996877 37.000000 20 356.630350
-0.402350 -1.091233 1.614269 39.000000 18 356.630353
-0.397989 -1.079398 1.325450 40.000000 16 356.630355
-0.395825 -1.082250 1.212220 42.000000 15 356.630313
-0.392837 -1.074074 1.004225 40.000000 13 356.630315
-0.390170 -1.066206 0.828983 42.000000 11 356.630318
-0.390248 -1.066411 0.680731 39.000000 9 356.630321
-0.387607 -1.058622 0.543798 38.000000 7 356.630323
-0.379663 -1.036365 0.414157 24.000000 5 356.630326
-0.378500 -1.033190 0.300379 9.000000 3 356.630328
-0.380409 -1.037840 0.191990 13.000000 1 356.630331
-0.396700 -1.079383 1.105024 46.000000 14 356.630339
-0.391318 -1.064733 0.909525 46.000000 12 356.630341
-0.390460 -1.061826 0.750168 44.000000 10 356.630344
-0.393549 -1.070217 0.614587 40.000000 8 356.630346
-0.389918 -1.059775 0.481944 35.000000 6 356.630349
-0.382897 -1.040132 0.358041 13.000000 4 356.630351
-0.379930 -1.031515 0.245340 11.000000 2 356.630354
-0.388606 -1.054502 0.139010 30.000000 0 356.630356
-0.028299 -0.046150 4.654097 100.000000 31 356.630367
-0.269184 -0.674744 4.618630 101.000000 28 356.630370
-0.355484 -0.888061 4.622355 94.000000 27 356.630372
-0.412478 -1.092466 3.778040 7.000000 25 356.630375
-0.423327 -1.140178 2.924823 24.000000 23 356.630377
-0.412705 -1.112150 2.240325 35.000000 21 356.630380
-0.408481 -1.100760 1.797045 39.000000 19 356.630382
-0.404426 -1.089825 1.467896 39.000000 17 356.630385
-0.115680 -0.253635 4.646617 102.000000 30 356.630393
-0.197632 -0.463403 4.648083 101.000000 29 356.630395
-0.426499 -1.106394 4.599570 77.000000 26 356.630398
-0.441251 -1.182763 3.487140 24.000000 24 356.630400
-0.418285 -1.121789 2.538223 31.000000 22 356.630403
-0.411345 -1.103751 1.996877 37.000000 20 356.630406
-0.406156 -1.089822 1.614269 39.000000 18 356.630408
-0.401566 -1.078072 1.325450 40.000000 16 356.630411
-0.399600 -1.080862 1.212220 40.000000 15 356.630368
-0.396584 -1.072696 1.004225 40.000000 13 356.630371
-0.393890 -1.064837 0.828983 42.000000 11 356.630374
-0.393968 -1.065042 0.680731 39.000000 9 356.630376
-0.391116 -1.057330 0.543798 38.000000 7 356.630379
-0.383098 -1.035100 0.414157 24.000000 5 356.630381
-0.382104 -1.031862 0.300379 8.000000 3 356.630384
-0.384029 -1.036506 0.191990 12.000000 1 356.630386
-0.400465 -1.077991 1.105024 46.000000 14 356.630394
-0.395032 -1.063360 0.909525 46.000000 12 356.630397
-0.393979 -1.060526 0.750168 45.000000 10 356.630399
-0.397095 -1.068907 0.614587 40.000000 8 356.630402
-0.393431 -1.058476 0.481944 35.000000 6 356.630404
-0.386345 -1.038857 0.358041 13.000000 4 356.630407
-0.383348 -1.030249 0.245340 17.000000 2 356.630409
-0.392100 -1.053208 0.139010 30.000000 0 356.630412
-0.028452 -0.046056 4.654097 101.000000 31 356.630423
-0.271421 -0.673848 4.618630 102.000000 28 356.630425
-0.358809 -0.887822 4.627251 94.000000 27 356.630428
-0.435262 -1.141329 3.949822 7.000000 25 356.630430
-0.427106 -1.138768 2.924823 24.000000 23 356.630433
-0.416390 -1.110775 2.240325 35.000000 21 356.630435
-0.412129 -1.099400 1.797045 39.000000 19 356.630438
-0.408037 -1.088478 1.467896 39.000000 17 356.630441
-0.116565 -0.253230 4.646617 101.000000 30 356.630448
-0.199249 -0.462710 4.648083 101.000000 29 356.630451
-0.430358 -1.104899 4.599570 77.000000 26 356.630453
-0.445377 -1.181215 3.487140 24.000000 24 356.630456
-0.422198 -1.120322 2.538223 31.000000 22 356.630459
-0.415195 -1.102309 1.996877 37.000000 20 356.630461
-0.409958 -1.088398 1.614269 39.000000 18 356.630464
-0.405515 -1.076593 1.325450 40.000000 16 356.630466
-0.403182 -1.079531 1.212220 40.000000 15 356.630424
-0.400139 -1.071375 1.004225 42.000000 13 356.630426
-0.398882 -1.067442 0.831724 42.000000 11 356.630429
-0.397498 -1.063730 0.680731 39.000000 9 356.630432
-0.394804 -1.055959 0.543798 38.000000 7 356.630434
-0.386709 -1.033756 0.414157 24.000000 5 356.630437
-0.383982 -1.025922 0.299446 8.000000 3 356.630439
-0.387645 -1.035159 0.191990 8.000000 1 356.630442
-0.404225 -1.076587 1.105024 46.000000 14 356.630450
-0.398742 -1.061975 0.909525 46.000000 12 356.630452
-0.397864 -1.059075 0.750168 44.000000 10 356.630455
-0.401010 -1.067444 0.614587 40.000000 8 356.630457
-0.397308 -1.057027 0.481944 35.000000 6 356.630460
-0.390150 -1.037434 0.358041 13.000000 4 356.630462
-0.387122 -1.028838 0.245340 16.000000 2 356.630465
-0.395774 -1.051833 0.139010 29.000000 0 356.630468
-0.028621 -0.045951 4.654097 101.000000 31 356.630478
-0.273889 -0.672849 4.618630 102.000000 28 356.630481
-0.362060 -0.886500 4.627251 95.000000 27 356.630483
-0.446966 -1.159235 4.016627 6.000000 25 356.630486
-0.431277 -1.137195 2.924823 24.000000 23 356.630488
-0.420459 -1.109241 2.240325 35.000000 21 356.630491
-0.416156 -1.097882 1.797045 39.000000 19 356.630494
-0.412024 -1.086975 1.467896 39.000000 17 356.630496
-0.117448 -0.252821 4.646617 101.000000 30 356.630504
-0.201076 -0.462501 4.653054 101.000000 29 356.630506
-0.434213 -1.103390 4.599570 75.000000 26 356.630509
-0.449498 -1.179654 3.487140 24.000000 24 356.630512
-0.426106 -1.118842 2.538223 30.000000 22 356.630514
-0.419041 -1.100853 1.996877 37.000000 20 356.630517
-0.413755 -1.086960 1.614269 39.000000 18 356.630519
-0.409082 -1.075243 1.325450 40.000000 16 356.630522
-0.407136 -1.078046 1.212220 40.000000 15 356.630479
-0.404063 -1.069901 1.004225 42.000000 13 356.630482
-0.402792 -1.065973 0.831724 40.000000 11 356.630485
-0.401394 -1.062266 0.680731 39.000000 9 356.630487
-0.398488 -1.054574 0.543798 38.000000 7 356.630490
-0.390315 -1.032400 0.414157 24.000000 5 356.630492
-0.387561 -1.024575 0.299446 8.000000 3 356.630495
-0.391256 -1.033799 0.191990 7.000000 1 356.630497
-0.407981 -1.075169 1.105024 46.000000 14 356.630505
-0.402446 -1.060576 0.909525 46.000000 12 356.630508
-0.401373 -1.057750 0.750168 44.000000 10 356.630510
-0.404548 -1.066108 0.614587 40.000000 8 356.630513
-0.400811 -1.055704 0.481944 35.000000 6 356.630515
-0.393588 -1.036134 0.358041 13.000000 4 356.630518
-0.390531 -1.027548 0.245340 15.000000 2 356.630520
-0.399443 -1.050445 0.139010 29.000000 0 356.630523
-0.028773 -0.045856 4.654097 101.000000 31 356.630534
-0.276414 -0.672655 4.623570 102.000000 28 356.630536
-0.364998 -0.885295 4.627251 96.000000 27 356.630539
-0.462191 -1.186972 4.116833 11.000000 25 356.630541
-0.435045 -1.135758 2.924823 24.000000 23 356.630544
-0.424135 -1.107841 2.240325 35.000000 21 356.630546
-0.419794 -1.096496 1.797045 39.000000 19 356.630549
-0.415626 -1.085603 1.467896 39.000000 17 356.630552
-0.118330 -0.252410 4.646617 102.000000 30 356.630559
-0.202689 -0.461797 4.653054 101.000000 29 356.630562
-0.438062 -1.101867 4.599570 75.000000 26 356.630564
-0.452373 -1.174857 3.477755 24.000000 24 356.630567
-0.429814 -1.117422 2.538223 31.000000 22 356.630570
-0.422689 -1.099457 1.996877 37.000000 20 356.630572
-0.417357 -1.085582 1.614269 39.000000 18 356.630575
-0.412833 -1.073808 1.325450 40.000000 16 356.630577
-0.410709 -1.076690 1.212220 40.000000 15 356.630535
-0.407609 -1.068556 1.004225 42.000000 13 356.630538
-0.406325 -1.064631 0.831724 42.000000 11 356.630540
-0.404914 -1.060929 0.680731 39.000000 9 356.630543
-0.402166 -1.053177 0.543798 38.000000 7 356.630545
-0.393916 -1.031031 0.414157 24.000000 5 356.630548
-0.390956 -1.023284 0.299446 8.000000 3 356.630550
-0.394682 -1.032496 0.191990 15.000000 1 356.630553
-0.411544 -1.073811 1.105024 48.000000 14 356.630561
-0.405961 -1.059236 0.909525 48.000000 12 356.630563
-0.405063 -1.056342 0.750168 44.000000 10 356.630566
-0.408267 -1.064690 0.614587 40.000000 8 356.630568
-0.404493 -1.054298 0.481944 35.000000 6 356.630571
-0.397202 -1.034754 0.358041 13.000000 4 356.630573
-0.394116 -1.026179 0.245340 14.000000 2 356.630576
-0.403108 -1.049044 0.139010 24.000000 0 356.630579
-0.028907 -0.045720 4.649096 101.000000 31 356.630589
-0.278760 -0.671686 4.623570 102.000000 28 356.630592
-0.368086 -0.884016 4.627251 96.000000 27 356.630594
-0.479457 -1.218707 4.231354 15.000000 25 356.630597
-0.439007 -1.134233 2.924823 21.000000 23 356.630599
-0.427999 -1.106354 2.240325 35.000000 21 356.630602
-0.422604 -1.092399 1.792912 38.000000 19 356.630605
-0.419413 -1.084146 1.467896 40.000000 17 356.630607
-0.119210 -0.251995 4.646617 102.000000 30 356.630615
-0.204300 -0.461086 4.653054 101.000000 29 356.630617
-0.441905 -1.100332 4.599570 75.000000 26 356.630620
-0.455219 -1.170054 3.468369 18.000000 24 356.630623
-0.433712 -1.115915 2.538223 31.000000 22 356.630625
-0.426524 -1.097975 1.996877 37.000000 20 356.630628
-0.421144 -1.084118 1.614269 39.000000 18 356.630630
-0.416579 -1.072360 1.325450 40.000000 16 356.630633
-0.413182 -1.071922 1.208716 40.000000 15 356.630590
-0.411336 -1.067126 1.004225 42.000000 13 356.630593
-0.408534 -1.059305 0.828983 42.000000 11 356.630596
-0.408615 -1.059509 0.680731 39.000000 9 356.630598
-0.405840 -1.051767 0.543798 38.000000 7 356.630601
-0.397513 -1.029650 0.414157 24.000000 5 356.630603
-0.392756 -1.017331 0.298514 8.000000 3 356.630606
-0.396490 -1.026467 0.191544 15.000000 1 356.630608
-0.415290 -1.072368 1.105024 48.000000 14 356.630616
-0.411116 -1.061582 0.912469 48.000000 12 356.630619
-0.408748 -1.054922 0.750168 44.000000 10 356.630621
-0.411981 -1.063258 0.614587 40.000000 8 356.630624
-0.408171 -1.052880 0.481944 35.000000 6 356.630626
-0.400812 -1.033361 0.358041 12.000000 4 356.630629
-0.397696 -1.024797 0.245340 15.000000 2 356.630632
-0.406767 -1.047631 0.139010 20.000000 0 356.630634
-0.029066 -0.045619 4.649096 101.000000 31 356.630645
-0.281103 -0.670709 4.623570 102.000000 28 356.630647
-0.371170 -0.882725 4.627251 96.000000 27 356.630650
-0.484811 -1.219801 4.240898 14.000000 25 356.630652
-0.442964 -1.132693 2.924823 21.000000 23 356.630655
-0.431859 -1.104853 2.240325 35.000000 21 356.630658
-0.426414 -1.090918 1.792912 38.000000 19 356.630660
-0.423195 -1.082675 1.467896 40.000000 17 356.630663
-0.119963 -0.251317 4.641625 102.000000 30 356.630670
-0.205908 -0.460370 4.653054 101.000000 29 356.630673
-0.445743 -1.098782 4.599570 75.000000 26 356.630676
-0.458669 -1.166852 3.463676 18.000000 24 356.630678
-0.437605 -1.114395 2.538223 31.000000 22 356.630681
-0.430354 -1.096479 1.996877 37.000000 20 356.630683
-0.423824 -1.079836 1.610279 39.000000 18 356.630686
-0.420320 -1.070900 1.325450 40.000000 16 356.630688
-0.416921 -1.070474 1.208716 40.000000 15 356.630646
-0.415059 -1.065684 1.004225 42.000000 13 356.630649
-0.412229 -1.057873 0.828983 42.000000 11 356.630651
-0.412311 -1.058076 0.680731 39.000000 9 356.630654
-0.409509 -1.050344 0.543798 38.000000 7 356.630656
-0.401104 -1.028256 0.414157 24.000000 5 356.630659
-0.396305 -1.015953 0.298514 8.000000 3 356.630661
-0.400070 -1.025077 0.191544 15.000000 1 356.630664
-0.417670 -1.067434 1.101699 45.000000 14 356.630672
-0.414819 -1.060140 0.912469 48.000000 12 356.630674
-0.412428 -1.053488 0.750168 45.000000 10 356.630677
-0.415690 -1.061813 0.614587 40.000000 8 356.630679
-0.410121 -1.047051 0.480301 35.000000 6 356.630682
-0.402643 -1.027430 0.356869 12.000000 4 356.630684
-0.401270 -1.023402 0.245340 15.000000 2 356.630687
-0.410422 -1.046204 0.139010 20.000000 0 356.630690
-0.029225 -0.045518 4.649096 101.000000 31 356.630700
-0.283443 -0.669724 4.623570 102.000000 28 356.630703
-0.374249 -0.881424 4.627251 96.000000 27 356.630705
-0.489066 -1.218101 4.240898 14.000000 25 356.630708
-0.446915 -1.131140 2.924823 24.000000 23 356.630710
-0.435713 -1.103339 2.240325 35.000000 21 356.630713
-0.430220 -1.089422 1.792912 38.000000 19 356.630715
-0.426972 -1.081191 1.467896 39.000000 17 356.630718
-0.120840 -0.250896 4.641625 101.000000 30 356.630726
-0.207514 -0.459649 4.653054 101.000000 29 356.630728
-0.449576 -1.097220 4.599570 75.000000 26 356.630731
-0.462103 -1.163640 3.458983 18.000000 24 356.630733
-0.441492 -1.112860 2.538223 31.000000 22 356.630736
-0.434179 -1.094971 1.996877 37.000000 20 356.630738
-0.427591 -1.078350 1.610279 39.000000 18 356.630741
-0.424055 -1.069426 1.325450 40.000000 16 356.630744
-0.420656 -1.069012 1.208716 40.000000 15 356.630701
-0.418776 -1.064229 1.004225 42.000000 13 356.630704
-0.415919 -1.056427 0.828983 42.000000 11 356.630706
-0.416002 -1.056630 0.680731 39.000000 9 356.630709
-0.413173 -1.048908 0.543798 38.000000 7 356.630712
-0.404691 -1.026850 0.414157 24.000000 5 356.630714
-0.399849 -1.014564 0.298514 8.000000 3 356.630717
-0.403646 -1.023674 0.191544 14.000000 1 356.630719
-0.421393 -1.065969 1.101699 45.000000 14 356.630727
-0.418517 -1.058686 0.912469 48.000000 12 356.630730
-0.416103 -1.052042 0.750168 42.000000 10 356.630732
-0.419394 -1.060356 0.614587 40.000000 8 356.630735
-0.413774 -1.045613 0.480301 35.000000 6 356.630737
-0.406227 -1.026019 0.356869 12.000000 4 356.630740
-0.404840 -1.021995 0.245340 15.000000 2 356.630742
-0.414071 -1.044765 0.139010 30.000000 0 356.630745
-0.029384 -0.045415 4.649096 101.000000 31 356.630756
-0.285779 -0.668730 4.623570 101.000000 28 356.630758
-0.377323 -0.880113 4.627251 96.000000 27 356.630761
-0.492192 -1.213619 4.231354 15.000000 25 356.630763
-0.450861 -1.129573 2.924823 23.000000 23 356.630766
-0.439561 -1.101811 2.240325 35.000000 21 356.630768
-0.434020 -1.087914 1.792912 38.000000 19 356.630771
-0.430743 -1.079694 1.467896 39.000000 17 356.630773
-0.121842 -0.250733 4.646617 102.000000 30 356.630781
-0.209117 -0.458922 4.653054 101.000000 29 356.630784
-0.453403 -1.095644 4.599570 75.000000 26 356.630786
-0.465519 -1.160418 3.454291 18.000000 24 356.630789
-0.445374 -1.111312 2.538223 31.000000 22 356.630791
-0.437999 -1.093448 1.996877 37.000000 20 356.630794
-0.431353 -1.076851 1.610279 39.000000 18 356.630797
-0.427786 -1.067939 1.325450 39.000000 16 356.630799
-0.424385 -1.067537 1.208716 40.000000 15 356.630757
-0.422489 -1.062760 1.004225 42.000000 13 356.630759
-0.419604 -1.054969 0.828983 40.000000 11 356.630762
-0.419688 -1.055172 0.680731 39.000000 9 356.630764
-0.415118 -1.043152 0.541925 38.000000 7 356.630767
-0.408273 -1.025431 0.414157 23.000000 5 356.630770
-0.405205 -1.017726 0.299446 8.000000 3 356.630772
-0.407217 -1.022259 0.191544 15.000000 1 356.630775
-0.425112 -1.064492 1.101699 45.000000 14 356.630782
-0.422210 -1.057218 0.912469 48.000000 12 356.630785
-0.419773 -1.050583 0.750168 42.000000 10 356.630788
-0.423093 -1.058886 0.614587 40.000000 8 356.630790
-0.417421 -1.044163 0.480301 35.000000 6 356.630793
-0.409806 -1.024594 0.356869 12.000000 4 356.630795
-0.408405 -1.020576 0.245340 15.000000 2 356.630798
-0.417715 -1.043314 0.139010 30.000000 0 356.630800
-0.029542 -0.045312 4.649096 101.000000 31 356.630811
-0.288111 -0.667729 4.623570 102.000000 28 356.630814
-0.380393 -0.878790 4.627251 96.000000 27 356.630816
-0.496992 -1.213275 4.236125 15.000000 25 356.630819
-0.454801 -1.127993 2.924823 23.000000 23 356.630821
-0.443405 -1.100270 2.240325 35.000000 21 356.630824
-0.437815 -1.086392 1.792912 38.000000 19 356.630826
-0.434509 -1.078184 1.467896 39.000000 17 356.630829
-0.122717 -0.250306 4.646617 102.000000 30 356.630837
-0.210718 -0.458189 4.653054 101.000000 29 356.630839
-0.457710 -1.095215 4.604409 75.000000 26 356.630842
-0.469567 -1.158786 3.454291 18.000000 24 356.630844
-0.449251 -1.109751 2.538223 31.000000 22 356.630847
-0.441813 -1.091913 1.996877 37.000000 20 356.630850
-0.435109 -1.075339 1.610279 38.000000 18 356.630852
-0.431511 -1.066440 1.325450 40.000000 16 356.630855
-0.428108 -1.066049 1.208716 40.000000 15 356.630812
-0.426196 -1.061279 1.004225 42.000000 13 356.630815
-0.423284 -1.053498 0.828983 40.000000 11 356.630817
-0.423369 -1.053701 0.680731 39.000000 9 356.630820
-0.418756 -1.041696 0.541925 38.000000 7 356.630823
-0.411850 -1.024000 0.414157 23.000000 5 356.630825
-0.408755 -1.016305 0.299446 8.000000 3 356.630828
-0.410783 -1.020831 0.191544 15.000000 1 356.630830
-0.428825 -1.063001 1.101699 45.000000 14 356.630838
-0.425897 -1.055738 0.912469 48.000000 12 356.630841
-0.423437 -1.049112 0.750168 42.000000 10 356.630843
-0.426786 -1.057402 0.614587 42.000000 8 356.630846
-0.421063 -1.042699 0.480301 35.000000 6 356.630848
-0.413380 -1.023158 0.356869 12.000000 4 356.630851
-0.411965 -1.019144 0.245340 15.000000 2 356.630853
-0.421355 -1.041849 0.139010 30.000000 0 356.630856
-0.029700 -0.045209 4.649096 101.000000 31 356.630867
-0.290440 -0.666719 4.623570 102.000000 28 356.630869
-0.383866 -0.878390 4.632146 95.000000 27 356.630872
-0.501224 -1.211533 4.236125 15.000000 25 356.630874
-0.458735 -1.126398 2.924823 24.000000 23 356.630877
-0.447243 -1.098716 2.240325 35.000000 21 356.630879
-0.442665 -1.087464 1.797045 38.000000 19 356.630882
-0.438270 -1.076661 1.467896 39.000000 17 356.630884
-0.123590 -0.249876 4.646617 102.000000 30 356.630892
-0.212316 -0.457451 4.653054 100.000000 29 356.630895
-0.461530 -1.093610 4.604409 76.000000 26 356.630897
-0.473609 -1.157140 3.454291 18.000000 24 356.630900
-0.453122 -1.108176 2.538223 30.000000 22 356.630902
-0.445622 -1.090364 1.996877 37.000000 20 356.630905
-0.438860 -1.073813 1.610279 39.000000 18 356.630908
-0.433948 -1.061789 1.321775 39.000000 16 356.630910
-0.431827 -1.064548 1.208716 40.000000 15 356.630868
-0.429898 -1.059785 1.004225 42.000000 13 356.630870
-0.426959 -1.052014 0.828983 42.000000 11 356.630873
-0.427044 -1.052216 0.680731 39.000000 9 356.630876
-0.422390 -1.040228 0.541925 38.000000 7 356.630878
-0.415422 -1.022556 0.414157 24.000000 5 356.630881
-0.412300 -1.014872 0.299446 8.000000 3 356.630883
-0.414343 -1.019391 0.191544 15.000000 1 356.630886
-0.432533 -1.061498 1.101699 47.000000 14 356.630894
-0.429580 -1.054245 0.912469 48.000000 12 356.630896
-0.427097 -1.047627 0.750168 44.000000 10 356.630899
-0.430475 -1.055906 0.614587 42.000000 8 356.630901
-0.424701 -1.041223 0.480301 35.000000 6 356.630904
