# .PCD v.7 - Point Cloud Data file format
VERSION .7
FIELDS x y z intensity ring timestamp
SIZE 4 4 4 4 2 8
TYPE F F F F U D
COUNT 1 1 1 1 1 1
WIDTH 946
HEIGHT 1
VIEWPOINT 0 0 0 1 0 0 0
POINTS 946
DATA ascii
1.495782 1.824904 3.198100 12.000000 18 355.986459
1.780183 2.171876 3.122606 11.000000 16 355.986462
1.780548 2.183958 2.848843 11.000000 15 355.986419
1.797633 2.204909 2.375434 16.000000 13 355.986422
1.203845 1.476068 1.333413 23.000000 11 355.986424
1.210517 1.484245 1.088704 25.000000 9 355.986427
1.155199 1.415914 0.826626 81.000000 7 355.986430
1.149847 1.408851 0.624128 74.000000 5 355.986432
1.146114 1.404277 0.435609 81.000000 3 355.986435
1.221893 1.496593 0.266061 13.000000 1 355.986437
1.789606 2.188041 2.597881 13.000000 14 355.986445
1.813443 2.217181 2.169198 19.000000 12 355.986448
1.205097 1.472874 1.203473 23.000000 10 355.986450
1.227901 1.500741 0.983844 26.000000 8 355.986453
1.154924 1.411045 0.723418 77.000000 6 355.986455
1.157902 1.414181 0.531544 90.000000 4 355.986458
1.245687 1.520853 0.366057 18.000000 2 355.986460
1.234713 1.506918 0.172262 12.000000 0 355.986463
0.145627 0.168832 1.417991 4.000000 28 355.986476
1.419137 1.636603 10.437884 8.000000 27 355.986479
1.073182 1.288695 5.405198 10.000000 25 355.986481
1.056259 1.282745 3.974198 8.000000 23 355.986484
1.129982 1.372753 3.324324 16.000000 21 355.986486
1.452609 1.764685 3.429559 14.000000 19 355.986489
1.743250 2.117758 3.359510 9.000000 17 355.986491
0.107082 0.118804 1.446494 7.000000 29 355.986502
1.734577 2.052885 10.377581 6.000000 26 355.986504
1.438440 1.740667 6.194867 11.000000 24 355.986507
1.064622 1.289224 3.519405 9.000000 22 355.986509
1.256263 1.521823 3.297987 15.000000 20 355.986512
1.550111 1.877779 3.297837 11.000000 18 355.986515
1.789912 2.168263 3.126281 11.000000 16 355.986517
1.790424 2.180485 2.852348 11.000000 15 355.986475
1.807788 2.201629 2.378572 16.000000 13 355.986477
1.208991 1.471857 1.333413 23.000000 11 355.986480
1.215691 1.480010 1.088704 24.000000 9 355.986482
1.160135 1.411873 0.826626 81.000000 7 355.986485
1.157804 1.408535 0.625537 74.000000 5 355.986488
1.154128 1.404063 0.436542 83.000000 3 355.986490
1.227110 1.492319 0.266061 9.000000 1 355.986493
1.799607 2.184664 2.601206 13.000000 14 355.986500
1.821171 2.210837 2.169198 18.000000 12 355.986503
1.210231 1.468658 1.203473 24.000000 10 355.986506
1.233132 1.496446 0.983844 26.000000 8 355.986508
1.159842 1.407005 0.723418 77.000000 6 355.986511
1.162832 1.410130 0.531544 90.000000 4 355.986513
1.250988 1.516495 0.366057 19.000000 2 355.986516
1.243145 1.506452 0.172464 13.000000 0 355.986518
0.146216 0.168323 1.417991 4.000000 28 355.986532
1.423501 1.630106 10.428094 8.000000 27 355.986534
1.077674 1.284941 5.405198 11.000000 25 355.986537
1.063225 1.282058 3.983403 7.000000 23 355.986539
1.134767 1.368801 3.324324 16.000000 21 355.986542
1.458760 1.759604 3.429559 14.000000 19 355.986544
1.748586 2.109192 3.355673 9.000000 17 355.986547
0.107136 0.118036 1.441522 7.000000 29 355.986557
1.743363 2.048734 10.387259 6.000000 26 355.986560
1.444508 1.735635 6.194867 10.000000 24 355.986562
1.070508 1.287174 3.523906 8.000000 22 355.986565
1.259900 1.515423 3.293721 15.000000 20 355.986568
1.573998 1.893215 3.333743 12.000000 18 355.986570
1.799637 2.164608 3.129956 11.000000 16 355.986573
1.798024 2.174222 2.852348 12.000000 15 355.986530
1.817944 2.198306 2.381710 16.000000 13 355.986533
1.216786 1.470850 1.336154 23.000000 11 355.986535
1.223673 1.479171 1.091021 24.000000 9 355.986538
1.165056 1.407814 0.826626 81.000000 7 355.986541
1.162713 1.404484 0.625537 76.000000 5 355.986543
1.155889 1.396241 0.435609 81.000000 3 355.986546
1.232312 1.488026 0.266061 9.000000 1 355.986548
1.809606 2.181242 2.604530 13.000000 14 355.986556
1.831458 2.207577 2.172141 18.000000 12 355.986559
1.218104 1.467742 1.206005 24.000000 10 355.986561
1.241247 1.495625 0.985942 26.000000 8 355.986564
1.167763 1.406582 0.725061 77.000000 6 355.986566
1.167747 1.406062 0.531544 88.000000 4 355.986569
1.256274 1.512119 0.366057 19.000000 2 355.986571
1.248396 1.502104 0.172464 13.000000 0 355.986574
0.147315 0.168396 1.422930 4.000000 28 355.986587
1.082153 1.281172 5.405198 11.000000 25 355.986592
1.068946 1.279838 3.988006 7.000000 23 355.986595
1.138003 1.362992 3.319936 16.000000 21 355.986597
1.466697 1.756661 3.433693 14.000000 19 355.986600
1.757993 2.105537 3.359510 10.000000 17 355.986602
0.107547 0.117661 1.441522 7.000000 29 355.986613
1.752959 2.045501 10.401776 6.000000 26 355.986615
1.450557 1.730582 6.194867 10.000000 24 355.986618
1.077791 1.286768 3.532907 8.000000 22 355.986620
1.263508 1.509017 3.289455 15.000000 20 355.986623
1.596076 1.906196 3.365659 13.000000 18 355.986626
1.809358 2.160913 3.133631 11.000000 16 355.986628
1.807885 2.170673 2.855852 12.000000 15 355.986586
1.828097 2.194937 2.384847 17.000000 13 355.986588
1.224590 1.469806 1.338896 24.000000 11 355.986591
1.231665 1.478294 1.093340 24.000000 9 355.986594
1.169963 1.403739 0.826626 81.000000 7 355.986596
1.170681 1.404102 0.626946 72.000000 5 355.986599
1.207941 1.448792 0.449598 39.000000 3 355.986601
1.240688 1.487540 0.266507 13.000000 1 355.986604
1.819604 2.177778 2.607855 13.000000 14 355.986612
1.839153 2.201171 2.172141 18.000000 12 355.986614
1.223220 1.463481 1.206005 24.000000 10 355.986617
1.246460 1.491283 0.985942 26.000000 8 355.986619
1.172666 1.402497 0.725061 75.000000 6 355.986622
1.172648 1.401978 0.531544 86.000000 4 355.986624
1.258367 1.503927 0.365368 20.000000 2 355.986627
1.256839 1.501568 0.172666 15.000000 0 355.986629
0.148417 0.168462 1.427870 4.000000 28 355.986643
1.086618 1.277387 5.405198 12.000000 25 355.986648
1.077180 1.280584 4.001813 9.000000 23 355.986650
1.142753 1.359012 3.319936 15.000000 21 355.986653
1.474631 1.753684 3.437826 14.000000 19 355.986655
1.765332 2.099387 3.359510 10.000000 17 355.986658
0.107957 0.117285 1.441522 7.000000 29 355.986668
1.760910 2.040322 10.406615 5.000000 26 355.986671
1.455476 1.724190 6.190174 11.000000 24 355.986673
1.083681 1.284663 3.537408 9.000000 22 355.986676
1.267087 1.502603 3.285189 15.000000 20 355.986679
1.600778 1.898309 3.361669 13.000000 18 355.986681
1.819076 2.157175 3.137306 11.000000 16 355.986684
1.817742 2.167081 2.859357 12.000000 15 355.986641
1.838250 2.191525 2.387985 16.000000 13 355.986644
1.229713 1.465523 1.338896 24.000000 11 355.986646
1.236818 1.473986 1.093340 24.000000 9 355.986649
1.174856 1.399647 0.826626 82.000000 7 355.986652
1.175575 1.400007 0.626946 71.000000 5 355.986654
1.257215 1.497233 0.462655 20.000000 3 355.986657
1.249076 1.487013 0.266953 14.000000 1 355.986659
1.827195 2.171413 2.607855 13.000000 14 355.986667
1.846825 2.194738 2.172141 18.000000 12 355.986670
1.231097 1.462501 1.208538 24.000000 10 355.986672
1.254581 1.490395 0.988040 26.000000 8 355.986675
1.180596 1.402007 0.726704 79.000000 6 355.986677
1.174403 1.394158 0.530372 86.000000 4 355.986680
1.260418 1.495738 0.364678 15.000000 2 355.986682
1.262072 1.497171 0.172666 14.000000 0 355.986685
0.150037 0.169104 1.437748 5.000000 28 355.986698
1.234420 1.384143 8.939945 3.000000 27 355.986701
1.091071 1.273586 5.405198 11.000000 25 355.986703
1.085432 1.281288 4.015621 8.000000 23 355.986706
1.147490 1.355014 3.319936 15.000000 21 355.986708
1.482562 1.750673 3.441958 14.000000 19 355.986711
1.772649 2.093213 3.359510 10.000000 17 355.986714
0.108366 0.116908 1.441522 7.000000 29 355.986724
1.772148 2.038909 10.430811 5.000000 26 355.986726
1.461486 1.719099 6.190174 11.000000 24 355.986729
1.089568 1.282532 3.541909 9.000000 22 355.986732
1.270636 1.496183 3.280923 14.000000 20 355.986734
1.605443 1.890412 3.357679 13.000000 18 355.986737
1.828789 2.153397 3.140981 11.000000 16 355.986739
1.827597 2.163447 2.862861 11.000000 15 355.986697
1.845888 2.185095 2.387985 16.000000 13 355.986699
1.237520 1.464415 1.341637 25.000000 11 355.986702
1.244815 1.473044 1.095657 24.000000 9 355.986705
1.179734 1.395537 0.826626 81.000000 7 355.986707
1.183552 1.399558 0.628355 72.000000 5 355.986710
1.275122 1.507839 0.466385 19.000000 3 355.986712
1.257476 1.486446 0.267399 14.000000 1 355.986715
1.837177 2.167871 2.611180 13.000000 14 355.986723
1.857088 2.191361 2.175084 18.000000 12 355.986725
1.238983 1.461483 1.211070 25.000000 10 355.986728
1.262711 1.489468 0.990138 26.000000 8 355.986730
1.185483 1.397877 0.726704 79.000000 6 355.986733
1.182407 1.393757 0.531544 92.000000 4 355.986735
1.259223 1.483778 0.363298 13.000000 2 355.986738
1.267291 1.492757 0.172666 14.000000 0 355.986740
0.151664 0.169736 1.447627 6.000000 28 355.986754
1.237883 1.378311 8.930155 4.000000 27 355.986756
1.095510 1.269770 5.405198 11.000000 25 355.986759
1.094970 1.283437 4.034031 7.000000 23 355.986761
1.152213 1.351001 3.319936 17.000000 21 355.986764
1.490490 1.747629 3.446091 14.000000 19 355.986766
1.779945 2.087012 3.359510 10.000000 17 355.986769
0.108773 0.116529 1.441522 7.000000 29 355.986779
1.774283 2.027032 10.401776 5.000000 26 355.986782
1.466355 1.712676 6.185481 11.000000 24 355.986784
1.096870 1.282030 3.550910 9.000000 22 355.986787
1.275850 1.491739 3.280923 14.000000 20 355.986790
1.610073 1.882506 3.353690 13.000000 18 355.986792
1.838498 2.149576 3.144657 11.000000 16 355.986795
1.837449 2.159770 2.866366 11.000000 15 355.986752
1.856027 2.181603 2.391123 16.000000 13 355.986755
1.242624 1.460086 1.341637 25.000000 11 355.986758
1.249949 1.468689 1.095657 24.000000 9 355.986760
1.184599 1.391411 0.826626 80.000000 7 355.986763
1.188431 1.395418 0.628355 72.000000 5 355.986765
1.274007 1.495899 0.464520 19.000000 3 355.986768
1.265886 1.485838 0.267846 15.000000 1 355.986770
1.847158 2.164285 2.614505 14.000000 14 355.986778
1.864726 2.184865 2.175084 18.000000 12 355.986781
1.244076 1.457149 1.211070 24.000000 10 355.986783
1.267902 1.485052 0.990138 26.000000 8 355.986786
1.193422 1.397322 0.728346 79.000000 6 355.986788
1.184108 1.385926 0.530372 90.000000 4 355.986791
1.257959 1.471844 0.361919 13.000000 2 355.986793
1.272494 1.488324 0.172666 13.000000 0 355.986796
0.153297 0.170359 1.457505 7.000000 28 355.986809
1.236538 1.367186 8.886098 3.000000 27 355.986812
1.099935 1.265938 5.405198 10.000000 25 355.986814
1.104536 1.285534 4.052441 7.000000 23 355.986817
1.155361 1.345153 3.315547 17.000000 21 355.986819
1.500249 1.746685 3.454357 14.000000 19 355.986822
1.787219 2.080786 3.359510 10.000000 17 355.986825
0.109180 0.116148 1.441522 7.000000 29 355.986835
1.776357 2.015165 10.372742 4.000000 26 355.986837
1.472325 1.707547 6.185481 11.000000 24 355.986840
1.102760 1.279843 3.555411 9.000000 22 355.986843
1.279348 1.485300 3.276657 14.000000 20 355.986845
1.616634 1.876875 3.353690 13.000000 18 355.986848
1.848203 2.145714 3.148332 11.000000 16 355.986850
1.847297 2.156052 2.869870 11.000000 15 355.986808
1.863631 2.175112 2.391123 16.000000 13 355.986810
1.250434 1.458915 1.344379 25.000000 11 355.986813
1.255068 1.464317 1.095657 24.000000 9 355.986816
1.192466 1.390786 0.828499 81.000000 7 355.986818
1.193294 1.391261 0.628355 74.000000 5 355.986821
1.279221 1.491443 0.464520 23.000000 3 355.986823
1.274308 1.485190 0.268292 16.000000 1 355.986826
1.857135 2.160656 2.617830 14.000000 14 355.986834
1.874976 2.181408 2.178028 17.000000 12 355.986836
1.251966 1.456067 1.213603 24.000000 10 355.986839
1.276037 1.484058 0.992236 26.000000 8 355.986841
1.201372 1.396728 0.729989 79.000000 6 355.986844
1.198449 1.392837 0.533889 85.000000 4 355.986846
1.279242 1.486211 0.365368 18.000000 2 355.986849
1.277681 1.483873 0.172666 13.000000 0 355.986852
0.154936 0.170973 1.467384 8.000000 28 355.986865
1.104348 1.262091 5.405198 10.000000 25 355.986870
1.111573 1.284625 4.061646 6.000000 23 355.986872
1.160049 1.341112 3.315547 17.000000 21 355.986875
1.508178 1.743566 3.458490 14.000000 19 355.986878
1.794471 2.074535 3.359510 10.000000 17 355.986880
0.109216 0.115380 1.436551 7.000000 29 355.986890
1.477145 1.701094 6.180788 10.000000 24 355.986896
1.108648 1.277631 3.559912 9.000000 22 355.986898
1.284525 1.480825 3.276657 15.000000 20 355.986901
1.623176 1.871220 3.353690 13.000000 18 355.986903
1.857903 2.141810 3.152007 11.000000 16 355.986906
1.854812 2.149590 2.869870 11.000000 15 355.986863
1.873755 2.171540 2.394261 15.000000 13 355.986866
1.255519 1.454541 1.344379 25.000000 11 355.986869
1.263067 1.463281 1.097975 24.000000 9 355.986871
1.197313 1.386615 0.828499 77.000000 7 355.986874
1.198143 1.387087 0.628355 74.000000 5 355.986876
1.284419 1.486969 0.464520 25.000000 3 355.986879
1.282741 1.484501 0.268738 16.000000 1 355.986881
1.867110 2.156984 2.621155 14.000000 14 355.986889
1.882579 2.174850 2.178028 17.000000 12 355.986892
1.257041 1.451688 1.213603 24.000000 10 355.986894
1.284181 1.483026 0.994335 26.000000 8 355.986897
1.209332 1.396095 0.731632 77.000000 6 355.986899
1.273331 1.469459 0.559680 27.000000 4 355.986902
1.287666 1.485478 0.366057 20.000000 2 355.986904
1.282853 1.479404 0.172666 13.000000 0 355.986907
0.156581 0.171577 1.477262 10.000000 28 355.986920
1.108746 1.258228 5.405198 10.000000 25 355.986925
1.112200 1.276319 4.047839 6.000000 23 355.986928
1.164724 1.337054 3.315547 17.000000 21 355.986930
1.516103 1.740412 3.462623 14.000000 19 355.986933
1.801702 2.068258 3.359510 10.000000 17 355.986936
0.109618 0.114998 1.436551 7.000000 29 355.986946
1.483074 1.695928 6.180788 10.000000 24 355.986951
1.115967 1.277033 3.568914 9.000000 22 355.986954
1.289686 1.476332 3.276657 15.000000 20 355.986956
1.629698 1.865543 3.353690 14.000000 18 355.986959
1.865368 2.135312 3.152007 11.000000 16 355.986961
1.864643 2.145795 2.873375 12.000000 15 355.986919
1.883877 2.167925 2.397398 15.000000 13 355.986922
1.260589 1.450149 1.344379 26.000000 11 355.986924
1.268167 1.458863 1.097975 24.000000 9 355.986927
1.205188 1.385926 0.830372 75.000000 7 355.986929
1.202978 1.382897 0.628355 74.000000 5 355.986932
1.289602 1.482476 0.464520 16.000000 3 355.986934
1.291184 1.483771 0.269184 15.000000 1 355.986937
1.874628 2.150453 2.621155 14.000000 14 355.986945
1.892815 2.171312 2.180971 17.000000 12 355.986947
1.264934 1.450540 1.216135 24.000000 10 355.986950
1.289350 1.478534 0.994335 26.000000 8 355.986952
1.214198 1.391865 0.731632 77.000000 6 355.986955
1.288041 1.475992 0.563197 27.000000 4 355.986957
1.299357 1.488436 0.367437 21.000000 2 355.986960
1.291296 1.478680 0.172867 13.000000 0 355.986963
0.158233 0.172172 1.487141 11.000000 28 355.986976
1.236967 1.339206 8.788194 3.000000 27 355.986978
1.114123 1.255467 5.409969 11.000000 25 355.986981
1.169384 1.332981 3.315547 16.000000 21 355.986986
1.522169 1.735109 3.462623 14.000000 19 355.986989
1.808911 2.061957 3.359510 10.000000 17 355.986991
0.110018 0.114615 1.436551 6.000000 29 355.987001
1.488985 1.690740 6.180788 10.000000 24 355.987007
1.121857 1.274765 3.573415 9.000000 22 355.987009
1.294831 1.471822 3.276657 15.000000 20 355.987012
1.636200 1.859843 3.353690 14.000000 18 355.987014
1.875050 2.131333 3.155682 11.000000 16 355.987017
1.874471 2.141957 2.876880 12.000000 15 355.986974
1.893997 2.164265 2.400536 15.000000 13 355.986977
1.268397 1.448886 1.347120 26.000000 11 355.986980
1.276170 1.457761 1.100294 24.000000 9 355.986982
1.210019 1.381711 0.830372 75.000000 7 355.986985
1.204637 1.375080 0.626946 76.000000 5 355.986987
1.294769 1.477965 0.464520 16.000000 3 355.986990
1.296355 1.479255 0.269184 15.000000 1 355.986992
1.884587 2.146703 2.624480 14.000000 14 355.987000
1.903050 2.167730 2.183914 18.000000 12 355.987003
1.269990 1.446116 1.216135 24.000000 10 355.987005
1.297498 1.477434 0.996432 25.000000 8 355.987008
1.222166 1.391166 0.733274 81.000000 6 355.987010
1.286768 1.464185 0.560852 26.000000 4 355.987013
1.307815 1.487610 0.368127 22.000000 2 355.987016
1.296449 1.474164 0.172867 13.000000 0 355.987018
0.159362 0.172188 1.492080 13.000000 28 355.987031
1.240940 1.334135 8.783298 4.000000 27 355.987034
1.118499 1.251570 5.409969 10.000000 25 355.987036
1.172443 1.327095 3.311158 16.000000 21 355.987042
1.530079 1.731894 3.466756 15.000000 19 355.987044
1.816097 2.055630 3.359510 10.000000 17 355.987047
0.110418 0.114230 1.436551 6.000000 29 355.987057
1.497167 1.688115 6.190174 10.000000 24 355.987062
1.127744 1.272471 3.577915 9.000000 22 355.987065
1.298231 1.465341 3.272391 14.000000 20 355.987067
1.642682 1.854120 3.353690 14.000000 18 355.987070
1.884726 2.127313 3.159357 11.000000 16 355.987072
1.884294 2.138076 2.880384 12.000000 15 355.987030
1.901540 2.157641 2.400536 15.000000 13 355.987033
1.273447 1.444450 1.347120 26.000000 11 355.987035
1.284180 1.456621 1.102612 24.000000 9 355.987038
1.217901 1.380955 0.832245 75.000000 7 355.987040
1.212603 1.374465 0.628355 76.000000 5 355.987043
1.299920 1.473437 0.464520 18.000000 3 355.987045
1.304806 1.478455 0.269630 16.000000 1 355.987048
1.894542 2.142909 2.627805 14.000000 14 355.987056
1.913282 2.164102 2.186857 17.000000 12 355.987058
1.277886 1.444904 1.218667 24.000000 10 355.987061
1.302647 1.472896 0.996432 25.000000 8 355.987063
1.227015 1.386892 0.733274 81.000000 6 355.987066
1.295092 1.463324 0.562025 26.000000 4 355.987068
1.312999 1.483036 0.368127 22.000000 2 355.987071
1.304899 1.473369 0.173069 13.000000 0 355.987074
0.159962 0.171631 1.492080 14.000000 28 355.987087
1.244197 1.328309 8.773507 5.000000 27 355.987089
1.123860 1.248769 5.414742 9.000000 25 355.987092
1.511268 1.698030 5.414788 9.000000 23 355.987094
1.177069 1.322994 3.311158 16.000000 21 355.987097
1.537986 1.728645 3.470889 14.000000 19 355.987099
1.823261 2.049278 3.359510 10.000000 17 355.987102
0.110442 0.113463 1.431580 6.000000 29 355.987112
1.500752 1.680304 6.180788 10.000000 24 355.987117
1.132179 1.268526 3.577915 9.000000 22 355.987120
1.303339 1.460800 3.272391 14.000000 20 355.987122
1.649144 1.848374 3.353690 14.000000 18 355.987125
1.896654 2.125780 3.166708 11.000000 16 355.987128
1.894113 2.134153 2.883889 12.000000 15 355.987085
1.911644 2.153902 2.403674 15.000000 13 355.987088
1.281258 1.443123 1.349862 26.000000 11 355.987090
1.292198 1.455442 1.104930 24.000000 9 355.987093
1.222714 1.376696 0.832245 75.000000 7 355.987096
1.217393 1.370223 0.628355 77.000000 5 355.987098
1.305056 1.468890 0.464520 24.000000 3 355.987101
1.309959 1.473891 0.269630 16.000000 1 355.987103
1.904494 2.139072 2.631129 15.000000 14 355.987111
1.923513 2.160429 2.189800 17.000000 12 355.987114
1.285789 1.443653 1.221200 24.000000 10 355.987116
1.310799 1.471729 0.998531 26.000000 8 355.987119
1.228707 1.379074 0.731632 77.000000 6 355.987121
1.303426 1.462423 0.563197 25.000000 4 355.987124
1.318168 1.478444 0.368127 23.000000 2 355.987126
1.313360 1.472534 0.173270 13.000000 0 355.987129
0.160560 0.171071 1.492080 14.000000 28 355.987142
1.250224 1.325439 8.783298 5.000000 27 355.987145
1.130218 1.247051 5.424285 9.000000 25 355.987147
1.518490 1.694199 5.419391 9.000000 23 355.987150
1.181679 1.318878 3.311158 16.000000 21 355.987152
1.545889 1.725362 3.475022 14.000000 19 355.987155
1.830404 2.042901 3.359510 10.000000 17 355.987157
0.110837 0.113077 1.431580 6.000000 29 355.987168
1.504300 1.672489 6.171402 10.000000 24 355.987173
1.138056 1.266186 3.582416 9.000000 22 355.987175
1.306687 1.454302 3.268125 15.000000 20 355.987178
1.655586 1.842607 3.353690 14.000000 18 355.987181
1.906329 2.121668 3.170383 11.000000 16 355.987183
1.906304 2.132846 2.890898 12.000000 15 355.987141
1.919151 2.147216 2.403674 15.000000 13 355.987143
1.289074 1.441759 1.352603 25.000000 11 355.987146
1.300224 1.454225 1.107248 24.000000 9 355.987148
1.227512 1.372419 0.832245 75.000000 7 355.987151
1.263753 1.412443 0.646675 38.000000 5 355.987154
1.310175 1.464326 0.464520 25.000000 3 355.987156
1.318417 1.473020 0.270077 15.000000 1 355.987159
1.914442 2.135191 2.634454 14.000000 14 355.987166
1.933740 2.156711 2.192743 17.000000 12 355.987169
1.290821 1.439156 1.221200 24.000000 10 355.987172
1.318959 1.470523 1.000629 26.000000 8 355.987174
1.233513 1.374777 0.731632 77.000000 6 355.987177
1.311770 1.461482 0.564369 15.000000 4 355.987179
1.323321 1.473834 0.368127 23.000000 2 355.987182
1.318492 1.467940 0.173270 13.000000 0 355.987184
0.160621 0.169946 1.487141 18.000000 28 355.987198
1.255544 1.321805 8.788194 4.000000 27 355.987200
1.135571 1.244201 5.429056 9.000000 25 355.987203
1.517850 1.681637 5.396378 8.000000 23 355.987205
1.184671 1.312966 3.306770 16.000000 21 355.987208
1.553787 1.722044 3.479155 14.000000 19 355.987210
1.837524 2.036500 3.359510 10.000000 17 355.987213
0.110854 0.112311 1.426608 6.000000 29 355.987223
0.238905 0.258270 1.391177 5.000000 26 355.987226
1.505495 1.662112 6.152632 7.000000 24 355.987228
1.143930 1.263820 3.586917 9.000000 22 355.987231
1.310005 1.447798 3.263859 14.000000 20 355.987234
1.662008 1.836816 3.353690 14.000000 18 355.987236
1.918272 2.120028 3.177733 12.000000 16 355.987239
1.916124 2.128829 2.894403 12.000000 15 355.987196
1.929239 2.143397 2.406812 14.000000 13 355.987199
1.294099 1.437250 1.352603 25.000000 11 355.987201
1.305292 1.449678 1.107248 24.000000 9 355.987204
1.235398 1.371571 0.834118 72.000000 7 355.987207
1.304000 1.447226 0.662176 23.000000 5 355.987209
1.315279 1.459744 0.464520 25.000000 3 355.987212
1.323551 1.468409 0.270077 15.000000 1 355.987214
1.924386 2.131267 2.637779 14.000000 14 355.987222
1.943966 2.152947 2.195687 17.000000 12 355.987225
1.298727 1.437841 1.223732 25.000000 10 355.987227
1.324084 1.465910 1.000629 26.000000 8 355.987230
1.235139 1.366959 0.729989 79.000000 6 355.987232
1.320123 1.460500 0.565542 15.000000 4 355.987235
1.328457 1.469205 0.368127 23.000000 2 355.987237
1.326960 1.467034 0.173472 14.000000 0 355.987240
0.160677 0.168822 1.482201 21.000000 28 355.987253
1.260855 1.318150 8.793089 4.000000 27 355.987256
1.143950 1.244628 5.448143 8.000000 25 355.987258
1.494801 1.644524 5.295123 6.000000 23 355.987261
1.189247 1.308823 3.306770 17.000000 21 355.987263
1.561681 1.718693 3.483288 14.000000 19 355.987266
1.844621 2.030073 3.359510 10.000000 17 355.987268
0.111246 0.111924 1.426608 6.000000 29 355.987279
0.241521 0.259275 1.400855 8.000000 26 355.987281
1.150022 1.261228 3.591418 9.000000 22 355.987286
1.315303 1.442987 3.263859 14.000000 20 355.987289
1.668729 1.830712 3.353690 14.000000 18 355.987292
1.928314 2.115489 3.181408 11.000000 16 355.987294
1.928333 2.127412 2.901412 11.000000 15 355.987252
1.936709 2.136649 2.406812 14.000000 13 355.987254
1.301917 1.435822 1.355344 25.000000 11 355.987257
1.313320 1.448394 1.109566 25.000000 9 355.987260
1.243293 1.370684 0.835991 68.000000 7 355.987262
1.318715 1.453324 0.666403 23.000000 5 355.987265
1.323921 1.458550 0.465453 26.000000 3 355.987267
1.332272 1.467235 0.270523 15.000000 1 355.987270
1.934698 2.126962 2.641104 14.000000 14 355.987278
1.954563 2.148798 2.198630 18.000000 12 355.987280
1.306889 1.436260 1.226265 25.000000 10 355.987283
1.332502 1.464404 1.002727 26.000000 8 355.987285
1.246498 1.369407 0.733274 85.000000 6 355.987288
1.325467 1.455652 0.565542 23.000000 4 355.987290
1.333833 1.464327 0.368127 23.000000 2 355.987293
1.332072 1.462393 0.173472 13.000000 0 355.987295
0.160756 0.167672 1.477262 23.000000 28 355.987309
1.265677 1.313520 8.793089 4.000000 27 355.987311
1.145460 1.237139 5.433828 7.000000 25 355.987314
1.458598 1.592927 5.147842 6.000000 23 355.987316
1.192419 1.302688 3.302381 17.000000 21 355.987319
1.569870 1.715033 3.487421 14.000000 19 355.987321
1.852049 2.023299 3.359510 10.000000 17 355.987324
0.111276 0.111140 1.421637 6.000000 29 355.987334
0.248498 0.264805 1.434730 12.000000 26 355.987337
1.287328 1.400975 5.228157 3.000000 24 355.987339
1.155890 1.258810 3.595919 9.000000 22 355.987342
1.318568 1.436465 3.259593 15.000000 20 355.987345
1.677147 1.827097 3.357679 14.000000 18 355.987347
1.937979 2.111243 3.185083 11.000000 16 355.987350
1.938522 2.122964 2.904916 11.000000 15 355.987307
1.947152 2.132411 2.409950 14.000000 13 355.987310
1.309991 1.434128 1.358086 25.000000 11 355.987312
1.318620 1.443571 1.109566 25.000000 9 355.987315
1.257690 1.376385 0.841610 53.000000 7 355.987318
1.324033 1.448481 0.666403 23.000000 5 355.987320
1.329005 1.453920 0.465453 28.000000 3 355.987323
1.337385 1.462576 0.270523 16.000000 1 355.987325
1.944633 2.122950 2.644428 14.000000 14 355.987333
1.964782 2.144943 2.201573 18.000000 12 355.987336
1.311895 1.431690 1.226265 25.000000 10 355.987338
1.337606 1.459744 1.002727 25.000000 8 355.987341
1.251271 1.365048 0.733274 85.000000 6 355.987343
1.330540 1.451016 0.565542 28.000000 4 355.987346
1.338937 1.459662 0.368127 23.000000 2 355.987348
1.340801 1.461182 0.173673 12.000000 0 355.987351
0.160800 0.166552 1.472323 26.000000 28 355.987364
1.268127 1.306902 8.778402 4.000000 27 355.987367
1.149772 1.233134 5.433828 7.000000 25 355.987369
1.370118 1.485853 4.821063 9.000000 23 355.987372
1.196959 1.298518 3.302381 17.000000 21 355.987374
1.577754 1.711612 3.491554 15.000000 19 355.987377
1.859101 2.016821 3.359510 10.000000 17 355.987380
0.111663 0.110750 1.421637 6.000000 29 355.987390
0.250285 0.264850 1.439569 6.000000 26 355.987392
1.292211 1.396472 5.228157 4.000000 24 355.987395
1.161756 1.256367 3.600420 9.000000 22 355.987398
1.323575 1.431854 3.259593 15.000000 20 355.987400
1.683515 1.821231 3.357679 14.000000 18 355.987403
1.947638 2.106954 3.188759 11.000000 16 355.987405
1.950749 2.121435 2.911925 11.000000 15 355.987363
1.957219 2.128467 2.413087 14.000000 13 355.987365
1.314989 1.429547 1.358086 25.000000 11 355.987368
1.326651 1.442220 1.111884 25.000000 9 355.987371
1.293878 1.406100 0.860340 34.000000 7 355.987373
1.329081 1.443850 0.666403 22.000000 5 355.987376
1.334072 1.449272 0.465453 28.000000 3 355.987378
1.342483 1.457898 0.270523 16.000000 1 355.987381
1.954564 2.118894 2.647753 14.000000 14 355.987389
1.974998 2.141043 2.204516 18.000000 12 355.987391
1.319808 1.430270 1.228797 24.000000 10 355.987394
1.345771 1.458402 1.004825 26.000000 8 355.987396
1.256028 1.360672 0.733274 75.000000 6 355.987399
1.338894 1.449934 0.566714 28.000000 4 355.987401
1.347384 1.458617 0.368817 23.000000 2 355.987404
1.345893 1.456493 0.173673 12.000000 0 355.987406
0.160837 0.165433 1.467384 26.000000 28 355.987420
1.278375 1.308292 8.817565 4.000000 27 355.987422
1.173495 1.249799 5.524491 7.000000 25 355.987425
1.375296 1.481062 4.821063 9.000000 23 355.987427
1.199854 1.292576 3.297992 17.000000 21 355.987430
1.585634 1.708157 3.495687 15.000000 19 355.987432
1.863948 2.007970 3.355673 10.000000 17 355.987435
0.111667 0.109987 1.416665 7.000000 29 355.987445
0.252943 0.265796 1.449247 6.000000 26 355.987448
1.473547 1.581326 5.932071 15.000000 24 355.987450
1.167618 1.253898 3.604920 9.000000 22 355.987453
1.328565 1.427225 3.259593 15.000000 20 355.987456
1.689862 1.815343 3.357679 14.000000 18 355.987458
1.957291 2.102624 3.192434 11.000000 16 355.987461
1.960565 2.117229 2.915430 11.000000 15 355.987418
1.967282 2.124478 2.416225 14.000000 13 355.987421
1.322813 1.428015 1.360827 25.000000 11 355.987424
1.334687 1.440831 1.114202 25.000000 9 355.987426
1.333439 1.438979 0.880944 29.000000 7 355.987429
1.334113 1.439202 0.666403 13.000000 5 355.987431
1.339122 1.444606 0.465453 28.000000 3 355.987434
1.350950 1.456855 0.270969 16.000000 1 355.987436
1.964490 2.114794 2.651078 14.000000 14 355.987444
1.985211 2.137097 2.207459 18.000000 12 355.987447
1.327727 1.428812 1.231329 23.000000 10 355.987449
1.353943 1.457020 1.006923 26.000000 8 355.987452
1.305784 1.404703 0.756272 31.000000 6 355.987454
1.343947 1.445251 0.566714 28.000000 4 355.987457
1.355840 1.457530 0.369507 23.000000 2 355.987459
1.354373 1.455443 0.173875 12.000000 0 355.987462
0.161414 0.164871 1.467384 27.000000 28 355.987475
1.290792 1.311804 8.871412 3.000000 27 355.987478
1.188112 1.256546 5.572208 7.000000 25 355.987480
1.204358 1.288380 3.297992 16.000000 21 355.987485
1.593508 1.704667 3.499820 14.000000 19 355.987488
1.870946 2.001451 3.355673 10.000000 17 355.987491
0.112050 0.109597 1.416665 6.000000 29 355.987501
0.254740 0.265819 1.454087 8.000000 26 355.987503
1.370419 1.460403 5.500337 8.000000 24 355.987506
1.173478 1.251403 3.609421 9.000000 22 355.987509
1.331755 1.420676 3.255327 16.000000 20 355.987511
1.696188 1.809434 3.357679 14.000000 18 355.987514
1.964618 2.095779 3.192434 11.000000 16 355.987516
1.970376 2.112981 2.918934 11.000000 15 355.987474
1.977340 2.120445 2.419363 14.000000 13 355.987476
1.327789 1.423389 1.360827 24.000000 11 355.987479
1.339709 1.436163 1.114202 25.000000 9 355.987482
1.338454 1.434316 0.880944 29.000000 7 355.987484
1.342402 1.438043 0.667813 13.000000 5 355.987487
1.344157 1.439923 0.465453 28.000000 3 355.987489
1.359426 1.455770 0.271415 16.000000 1 355.987492
1.974411 2.110651 2.654403 14.000000 14 355.987500
1.992659 2.130154 2.207459 18.000000 12 355.987502
1.335653 1.427317 1.233862 23.000000 10 355.987505
1.359020 1.452285 1.006923 26.000000 8 355.987507
1.352635 1.444955 0.777627 27.000000 6 355.987510
1.352306 1.444099 0.567886 28.000000 4 355.987512
1.364305 1.456403 0.370196 23.000000 2 355.987515
1.359445 1.450707 0.173875 13.000000 0 355.987518
0.161988 0.164307 1.467384 27.000000 28 355.987531
1.288911 1.300782 8.827355 3.000000 27 355.987533
1.193521 1.253473 5.576980 7.000000 25 355.987536
1.207206 1.282423 3.293604 16.000000 21 355.987541
1.603307 1.703192 3.508086 14.000000 19 355.987544
1.875723 1.992574 3.351836 10.000000 17 355.987546
0.112432 0.109205 1.416665 6.000000 29 355.987556
0.256541 0.265833 1.458926 12.000000 26 355.987559
1.278318 1.352762 5.115530 11.000000 24 355.987562
1.179334 1.248882 3.613922 9.000000 22 355.987564
1.336706 1.416019 3.255327 15.000000 20 355.987567
1.702494 1.803502 3.357679 14.000000 18 355.987569
1.969595 2.086444 3.188759 11.000000 16 355.987572
1.980181 2.108689 2.922439 11.000000 15 355.987529
1.987395 2.116368 2.422501 14.000000 13 355.987532
1.335613 1.421793 1.363569 24.000000 11 355.987535
1.347747 1.434706 1.116520 24.000000 9 355.987537
1.349802 1.436392 0.884690 28.000000 7 355.987540
1.347413 1.433349 0.667813 21.000000 5 355.987542
1.349175 1.435223 0.465453 27.000000 3 355.987545
1.364499 1.451016 0.271415 16.000000 1 355.987547
1.984327 2.106464 2.657728 13.000000 14 355.987555
2.002854 2.126128 2.210402 18.000000 12 355.987558
1.340627 1.422646 1.233862 23.000000 10 355.987560
1.367194 1.450835 1.009021 26.000000 8 355.987563
1.357670 1.440225 0.777627 27.000000 6 355.987565
1.357339 1.439370 0.567886 29.000000 4 355.987568
1.372779 1.455234 0.370886 22.000000 2 355.987570
1.367929 1.449586 0.174076 13.000000 0 355.987573
0.162561 0.163740 1.467384 28.000000 28 355.987586
1.302076 1.304922 8.886098 3.000000 27 355.987589
1.220631 1.273015 5.681958 7.000000 25 355.987591
1.568180 1.653702 5.428596 7.000000 23 355.987594
1.211676 1.278202 3.293604 16.000000 21 355.987596
1.611178 1.699628 3.512218 14.000000 19 355.987599
1.882667 1.986014 3.351836 10.000000 17 355.987602
0.112812 0.108812 1.416665 6.000000 29 355.987612
0.257467 0.264936 1.458926 14.000000 26 355.987614
1.278273 1.343292 5.096759 10.000000 24 355.987617
1.186688 1.247914 3.622924 9.000000 22 355.987620
1.341640 1.411344 3.255327 15.000000 20 355.987622
1.708779 1.797548 3.357679 14.000000 18 355.987625
1.974530 2.077098 3.185083 11.000000 16 355.987627
1.987529 2.101765 2.922439 11.000000 15 355.987585
1.997445 2.112246 2.425639 14.000000 13 355.987588
1.340567 1.417122 1.363569 22.000000 11 355.987590
1.352747 1.429993 1.116520 24.000000 9 355.987593
1.357994 1.435039 0.886563 28.000000 7 355.987595
1.355707 1.432121 0.669222 25.000000 5 355.987598
1.354177 1.430504 0.465453 26.000000 3 355.987600
1.372980 1.449861 0.271862 16.000000 1 355.987603
1.994238 2.102234 2.661053 13.000000 14 355.987611
2.013045 2.122056 2.213346 18.000000 12 355.987613
1.348552 1.421085 1.236394 24.000000 10 355.987616
1.372250 1.446054 1.009021 26.000000 8 355.987618
1.365941 1.438902 0.779270 26.000000 6 355.987621
1.365702 1.438148 0.569059 29.000000 4 355.987623
1.377850 1.450433 0.370886 22.000000 2 355.987626
1.372981 1.444802 0.174076 13.000000 0 355.987629
0.163682 0.163720 1.472323 28.000000 28 355.987642
1.303736 1.297497 8.866517 3.000000 27 355.987644
1.239593 1.283787 5.748762 7.000000 25 355.987647
1.575292 1.649631 5.433198 7.000000 23 355.987649
1.214476 1.272231 3.289215 17.000000 21 355.987652
1.619044 1.696028 3.516351 14.000000 19 355.987655
1.889588 1.979430 3.351836 10.000000 17 355.987657
0.113191 0.108417 1.416665 6.000000 29 355.987667
0.258390 0.264035 1.458926 16.000000 26 355.987670
1.286537 1.342559 5.110837 9.000000 24 355.987673
1.194049 1.246910 3.631925 9.000000 22 355.987675
1.344755 1.404768 3.251061 15.000000 20 355.987678
1.715043 1.791572 3.357679 14.000000 18 355.987680
1.977080 2.065296 3.177733 11.000000 16 355.987683
1.997313 2.097397 2.925943 11.000000 15 355.987640
2.007491 2.108080 2.428777 14.000000 13 355.987643
1.348390 1.415462 1.366310 22.000000 11 355.987646
1.360786 1.428470 1.118838 24.000000 9 355.987648
1.366193 1.433646 0.888436 28.000000 7 355.987651
1.364007 1.430852 0.670631 25.000000 5 355.987653
1.362551 1.429324 0.466385 26.000000 3 355.987656
1.378033 1.445059 0.271862 16.000000 1 355.987658
2.004143 2.097960 2.664378 13.000000 14 355.987666
2.023232 2.117939 2.216289 17.000000 12 355.987669
1.353504 1.416369 1.236394 24.000000 10 355.987671
1.380425 1.444536 1.011119 25.000000 8 355.987674
1.370955 1.434125 0.779270 18.000000 6 355.987676
1.370714 1.433372 0.569059 29.000000 4 355.987679
1.386328 1.449193 0.371576 23.000000 2 355.987682
1.381470 1.443611 0.174278 13.000000 0 355.987684
0.164252 0.163148 1.472323 28.000000 28 355.987697
1.260726 1.296584 5.825109 7.000000 25 355.987702
1.566145 1.628632 5.382571 7.000000 23 355.987705
1.218909 1.267984 3.289215 17.000000 21 355.987708
1.626905 1.692395 3.520484 14.000000 19 355.987710
1.896486 1.972822 3.351836 10.000000 17 355.987713
0.113181 0.107655 1.411694 6.000000 29 355.987723
0.258427 0.262236 1.454087 18.000000 26 355.987726
1.292413 1.339302 5.115530 9.000000 24 355.987728
1.201417 1.245870 3.640927 9.000000 22 355.987731
1.349651 1.400066 3.251061 16.000000 20 355.987733
1.721287 1.785575 3.357679 14.000000 18 355.987736
1.977218 2.051059 3.166708 11.000000 16 355.987738
2.007091 2.092986 2.929448 11.000000 15 355.987696
2.017531 2.103870 2.431914 14.000000 13 355.987699
1.356218 1.413764 1.369052 22.000000 11 355.987701
1.368831 1.426908 1.121156 24.000000 9 355.987704
1.374400 1.432213 0.890309 28.000000 7 355.987706
1.372316 1.429543 0.672040 25.000000 5 355.987709
1.367532 1.424559 0.466385 27.000000 3 355.987711
1.386518 1.443832 0.272308 16.000000 1 355.987714
2.014043 2.093643 2.667703 13.000000 14 355.987722
2.033415 2.113777 2.219232 17.000000 12 355.987724
1.361430 1.414742 1.238927 24.000000 10 355.987727
1.385459 1.439709 1.011119 25.000000 8 355.987729
1.379228 1.432733 0.780912 18.000000 6 355.987732
1.375709 1.428578 0.569059 30.000000 4 355.987734
1.394814 1.447912 0.372266 22.000000 2 355.987737
1.389968 1.442377 0.174479 13.000000 0 355.987740
0.164821 0.162573 1.472323 28.000000 28 355.987753
1.289279 1.316719 5.934859 8.000000 25 355.987758
1.560947 1.611928 5.345750 8.000000 23 355.987760
1.221661 1.262001 3.284827 17.000000 21 355.987763
1.636717 1.690750 3.528750 14.000000 19 355.987765
1.905591 1.968494 3.355673 10.000000 17 355.987768
0.113556 0.107260 1.411694 6.000000 29 355.987778
0.258454 0.260440 1.449247 23.000000 26 355.987781
1.303094 1.340970 5.138994 10.000000 24 355.987783
1.207276 1.243231 3.645428 9.000000 22 355.987786
1.354530 1.395346 3.251061 16.000000 20 355.987788
1.727509 1.779556 3.357679 14.000000 18 355.987791
2.000895 2.061173 3.192434 10.000000 16 355.987794
2.016862 2.088532 2.932952 11.000000 15 355.987751
2.027567 2.099615 2.435052 14.000000 13 355.987754
1.364049 1.412029 1.371793 22.000000 11 355.987756
1.373803 1.422122 1.121156 24.000000 9 355.987759
1.379390 1.427407 0.890309 28.000000 7 355.987762
1.377298 1.424744 0.672040 26.000000 5 355.987764
1.375911 1.423309 0.467318 27.000000 3 355.987767
1.391549 1.438983 0.272308 16.000000 1 355.987769
2.026536 2.091964 2.674352 13.000000 14 355.987777
2.043593 2.109569 2.222175 17.000000 12 355.987780
1.366360 1.409981 1.238927 25.000000 10 355.987782
1.393635 1.438123 1.013217 25.000000 8 355.987785
1.387508 1.431301 0.782555 24.000000 6 355.987787
1.380687 1.423768 0.569059 30.000000 4 355.987790
1.403308 1.446589 0.372956 22.000000 2 355.987792
1.398473 1.441102 0.174681 13.000000 0 355.987795
0.164831 0.161454 1.467384 28.000000 28 355.987808
1.299111 1.317528 5.958718 7.000000 25 355.987813
1.554289 1.593881 5.304327 8.000000 23 355.987816
1.226059 1.257728 3.284827 16.000000 21 355.987818
1.644573 1.687041 3.532883 14.000000 19 355.987821
1.912451 1.961830 3.355673 10.000000 17 355.987823
0.113147 0.106136 1.401751 6.000000 29 355.987834
0.259362 0.259537 1.449247 27.000000 26 355.987836
1.310181 1.338880 5.148379 10.000000 24 355.987839
1.214654 1.242123 3.654430 9.000000 22 355.987841
1.357569 1.388744 3.246795 16.000000 20 355.987844
1.733710 1.773515 3.357679 14.000000 18 355.987847
2.019927 2.066297 3.210809 10.000000 16 355.987849
2.026626 2.084036 2.936457 11.000000 15 355.987807
2.037598 2.095315 2.438190 14.000000 13 355.987809
1.371886 1.410256 1.374535 22.000000 11 355.987812
1.381848 1.420493 1.123474 24.000000 9 355.987814
1.387598 1.425905 0.892182 28.000000 7 355.987817
1.385609 1.423365 0.673449 26.000000 5 355.987820
1.384297 1.422017 0.468251 27.000000 3 355.987822
1.400038 1.437685 0.272754 14.000000 1 355.987825
2.036433 2.087551 2.677677 13.000000 14 355.987832
2.050945 2.102422 2.222175 17.000000 12 355.987835
1.374284 1.408289 1.241459 25.000000 10 355.987838
1.401816 1.436498 1.015315 25.000000 8 355.987840
1.392495 1.426448 0.782555 27.000000 6 355.987843
1.389045 1.422417 0.570231 27.000000 4 355.987845
1.408349 1.441682 0.372956 20.000000 2 355.987848
1.403495 1.436211 0.174681 13.000000 0 355.987850
0.165394 0.160878 1.467384 28.000000 28 355.987864
1.310016 1.319343 5.987348 7.000000 25 355.987869
1.547523 1.575900 5.262905 8.000000 23 355.987871
1.228764 1.251731 3.280438 16.000000 21 355.987874
1.652423 1.683298 3.537016 14.000000 19 355.987876
1.917041 1.952854 3.351836 10.000000 17 355.987879
0.113125 0.105378 1.396780 6.000000 29 355.987889
0.259373 0.257743 1.444408 29.000000 26 355.987892
1.318480 1.337986 5.162458 10.000000 24 355.987894
1.220510 1.239427 3.658930 9.000000 22 355.987897
1.362408 1.383997 3.246795 16.000000 20 355.987900
1.739890 1.767452 3.357679 14.000000 18 355.987902
2.039019 2.071313 3.229185 10.000000 16 355.987905
2.036383 2.079497 2.939961 11.000000 15 355.987862
2.047623 2.090971 2.441328 14.000000 13 355.987865
1.382652 1.411433 1.380018 21.000000 11 355.987867
1.389898 1.418826 1.125792 24.000000 9 355.987870
1.392567 1.421053 0.892182 27.000000 7 355.987873
1.390569 1.418519 0.673449 26.000000 5 355.987875
1.389252 1.417176 0.468251 27.000000 3 355.987878
1.405048 1.432789 0.272754 14.000000 1 355.987880
2.046325 2.083093 2.681002 13.000000 14 355.987888
2.061104 2.098134 2.225118 17.000000 12 355.987891
1.382213 1.406558 1.243992 25.000000 10 355.987893
1.410003 1.434833 1.017413 25.000000 8 355.987896
1.400777 1.424947 0.784198 27.000000 6 355.987898
1.394001 1.417560 0.570231 27.000000 4 355.987901
1.416845 1.440287 0.373645 20.000000 2 355.987903
1.412004 1.434864 0.174882 15.000000 0 355.987906
0.165395 0.159761 1.462444 28.000000 28 355.987919
1.326231 1.326380 6.039837 7.000000 25 355.987924
1.540651 1.557987 5.221482 8.000000 23 355.987927
1.231441 1.245731 3.276049 16.000000 21 355.987929
1.660267 1.679522 3.541149 14.000000 19 355.987932
1.923846 1.946151 3.351836 10.000000 17 355.987934
1.022429 0.937870 12.875767 9.000000 29 355.987945
0.260272 0.256837 1.444408 31.000000 26 355.987947
1.325573 1.335825 5.171844 10.000000 24 355.987950
1.226362 1.236705 3.663431 9.000000 22 355.987952
1.365395 1.377381 3.242529 16.000000 20 355.987955
1.746049 1.761368 3.357679 14.000000 18 355.987958
2.051011 2.068999 3.236536 10.000000 16 355.987960
2.046134 2.074916 2.943466 11.000000 15 355.987918
2.057643 2.086583 2.444465 14.000000 13 355.987920
1.411063 1.430412 1.401949 17.000000 11 355.987923
1.397954 1.417119 1.128110 24.000000 9 355.987926
1.400775 1.419483 0.894055 18.000000 7 355.987928
1.398882 1.417071 0.674859 25.000000 5 355.987931
1.397642 1.415814 0.469183 26.000000 3 355.987933
1.413540 1.431419 0.273200 16.000000 1 355.987936
2.056210 2.078593 2.684327 12.000000 14 355.987944
2.071258 2.093800 2.228061 17.000000 12 355.987946
1.390147 1.404789 1.246524 25.000000 10 355.987949
1.418195 1.433128 1.019511 25.000000 8 355.987951
1.409064 1.423405 0.785840 28.000000 6 355.987954
1.402361 1.416139 0.571403 28.000000 4 355.987956
1.421864 1.435332 0.373645 23.000000 2 355.987959
1.420520 1.433475 0.175084 15.000000 0 355.987961
0.165951 0.159183 1.462444 24.000000 28 355.987975
0.224032 0.214273 1.513886 4.000000 27 355.987977
1.344629 1.335423 6.101870 6.000000 25 355.987980
1.535052 1.541525 5.184662 8.000000 23 355.987982
1.234092 1.239727 3.271661 16.000000 21 355.987985
1.668105 1.675710 3.545282 14.000000 19 355.987987
1.930628 1.939424 3.351836 10.000000 17 355.987990
1.027276 0.935732 12.895653 11.000000 29 355.988000
0.261167 0.255926 1.444408 32.000000 26 355.988003
1.332668 1.333632 5.181229 10.000000 24 355.988005
1.232211 1.233958 3.667932 9.000000 22 355.988008
1.368352 1.370760 3.238263 16.000000 20 355.988011
1.752187 1.755262 3.357679 14.000000 18 355.988013
2.060615 2.064226 3.240211 10.000000 16 355.988016
2.058390 2.072822 2.950475 11.000000 15 355.987973
2.067657 2.082150 2.447603 14.000000 13 355.987976
1.395419 1.404712 1.382759 12.000000 11 355.987978
1.402892 1.412231 1.128110 24.000000 9 355.987981
1.405721 1.414585 0.894055 18.000000 7 355.987984
1.407202 1.415581 0.676268 25.000000 5 355.987986
1.406039 1.414411 0.470116 26.000000 3 355.987989
1.422040 1.430008 0.273646 16.000000 1 355.987991
2.066089 2.074048 2.687652 13.000000 14 355.987999
2.081406 2.089421 2.231004 17.000000 12 355.988002
1.395042 1.399928 1.246524 25.000000 10 355.988004
1.426393 1.431384 1.021609 25.000000 8 355.988007
1.414024 1.418477 0.785840 28.000000 6 355.988009
1.407296 1.411235 0.571403 28.000000 4 355.988012
1.430364 1.433866 0.374335 22.000000 2 355.988014
1.425516 1.428508 0.175084 15.000000 0 355.988017
0.166506 0.158602 1.462444 24.000000 28 355.988030
0.225517 0.214190 1.518781 6.000000 27 355.988033
1.356727 1.338062 6.135272 6.000000 25 355.988035
1.526590 1.522362 5.138637 8.000000 23 355.988038
1.236716 1.233719 3.267272 15.000000 21 355.988040
1.675936 1.671865 3.549415 15.000000 19 355.988043
1.939656 1.934937 3.355673 10.000000 17 355.988046
1.028159 0.929993 12.865824 13.000000 29 355.988056
0.261156 0.254137 1.439569 33.000000 26 355.988058
1.338539 1.330188 5.185922 11.000000 24 355.988061
1.238055 1.231185 3.672433 9.000000 22 355.988064
1.373129 1.365976 3.238263 16.000000 20 355.988066
1.758303 1.749135 3.357679 14.000000 18 355.988069
2.070212 2.059411 3.243886 10.000000 16 355.988071
2.068135 2.068146 2.953980 12.000000 15 355.988029
2.080418 2.080425 2.453879 12.000000 13 355.988031
1.410946 1.410457 1.130428 24.000000 9 355.988037
1.410650 1.409670 0.894055 23.000000 7 355.988039
1.412135 1.410661 0.676268 25.000000 5 355.988042
1.414443 1.412966 0.471049 27.000000 3 355.988044
1.430547 1.428554 0.274093 16.000000 1 355.988047
2.075961 2.069460 2.690977 13.000000 14 355.988055
2.091550 2.084996 2.233948 16.000000 12 355.988057
1.402974 1.398093 1.249056 24.000000 10 355.988060
1.431380 1.426396 1.021609 25.000000 8 355.988062
1.422313 1.416866 0.787483 28.000000 6 355.988065
1.415658 1.409744 0.572576 28.000000 4 355.988067
1.435360 1.428865 0.374335 23.000000 2 355.988070
1.434035 1.427047 0.175285 14.000000 0 355.988072
0.167059 0.158020 1.462444 27.000000 28 355.988086
0.224039 0.211309 1.504095 10.000000 27 355.988088
1.360322 1.332273 6.130500 9.000000 25 355.988091
1.523566 1.508776 5.111022 8.000000 23 355.988093
1.241015 1.229395 3.267272 14.000000 21 355.988096
1.685761 1.669965 3.557681 16.000000 19 355.988098
1.944121 1.925898 3.351836 10.000000 17 355.988101
1.033386 0.928181 12.890681 17.000000 29 355.988111
0.261137 0.252350 1.434730 33.000000 26 355.988114
1.345631 1.327932 5.195307 11.000000 24 355.988116
1.243894 1.228386 3.676934 9.000000 22 355.988119
1.376033 1.359341 3.233997 16.000000 20 355.988122
1.764398 1.742987 3.357679 14.000000 18 355.988124
2.079800 2.054555 3.247561 10.000000 16 355.988127
2.077872 2.063427 2.957484 12.000000 15 355.988084
2.090430 2.075893 2.457016 12.000000 13 355.988087
1.419005 1.408645 1.132746 24.000000 9 355.988092
1.418853 1.408002 0.895928 26.000000 7 355.988095
1.420456 1.409101 0.677677 23.000000 5 355.988097
1.422853 1.411479 0.471981 27.000000 3 355.988100
1.439061 1.427059 0.274539 16.000000 1 355.988102
2.085825 2.064828 2.694301 13.000000 14 355.988110
2.101687 2.080526 2.236891 16.000000 12 355.988113
1.407846 1.393187 1.249056 24.000000 10 355.988115
1.439577 1.424584 1.023707 26.000000 8 355.988118
1.427250 1.411892 0.787483 27.000000 6 355.988120
1.424026 1.408211 0.573748 28.000000 4 355.988123
1.440339 1.423846 0.374335 23.000000 2 355.988125
1.442561 1.425545 0.175487 14.000000 0 355.988128
0.167609 0.157436 1.462444 27.000000 28 355.988141
0.224775 0.210525 1.504095 7.000000 27 355.988144
1.389591 1.351465 6.240250 8.000000 25 355.988146
1.512107 1.487010 5.055791 9.000000 23 355.988149
1.243591 1.223375 3.262883 13.000000 21 355.988151
1.693585 1.666044 3.561814 16.000000 19 355.988154
1.957688 1.925845 3.363347 10.000000 17 355.988157
1.037816 0.925634 12.905595 25.000000 29 355.988167
0.261108 0.250566 1.429891 32.000000 26 355.988169
1.351490 1.324434 5.200000 11.000000 24 355.988172
1.251284 1.227086 3.685935 9.000000 22 355.988175
1.378908 1.352703 3.229732 16.000000 20 355.988177
1.770472 1.736818 3.357679 14.000000 18 355.988180
2.089379 2.049657 3.251236 10.000000 16 355.988182
2.090140 2.061169 2.964493 12.000000 15 355.988140
2.100435 2.071317 2.460154 14.000000 13 355.988142
2.100902 2.071055 2.018779 14.000000 11 355.988145
1.427068 1.406793 1.135064 23.000000 9 355.988148
1.427061 1.406295 0.897801 26.000000 7 355.988150
1.428784 1.407501 0.679086 23.000000 5 355.988153
1.431271 1.409951 0.472914 27.000000 3 355.988155
1.447582 1.425521 0.274985 16.000000 1 355.988158
2.095684 2.060152 2.697626 13.000000 14 355.988166
2.111820 2.076011 2.239834 17.000000 12 355.988168
1.415776 1.391286 1.251589 25.000000 10 355.988171
1.447778 1.422731 1.025805 18.000000 8 355.988173
1.432170 1.406901 0.787483 27.000000 6 355.988176
1.432401 1.406638 0.574920 28.000000 4 355.988178
1.448834 1.422278 0.375025 23.000000 2 355.988181
1.447528 1.420500 0.175487 14.000000 0 355.988184
0.168158 0.156850 1.462444 27.000000 28 355.988197
0.225509 0.209740 1.504095 7.000000 27 355.988199
1.429754 1.380844 6.397717 8.000000 25 355.988202
1.494925 1.459884 4.982151 10.000000 23 355.988204
1.247853 1.219027 3.262883 12.000000 21 355.988207
1.703417 1.664055 3.570080 17.000000 19 355.988210
1.943759 1.898837 3.328814 9.000000 17 355.988212
1.042640 0.923421 12.925481 31.000000 29 355.988222
0.261070 0.248786 1.425051 33.000000 26 355.988225
1.358579 1.322115 5.209385 11.000000 24 355.988228
1.257120 1.224230 3.690436 9.000000 22 355.988230
1.383621 1.347882 3.229732 16.000000 20 355.988233
1.776523 1.730627 3.357679 14.000000 18 355.988235
2.098949 2.044716 3.254911 10.000000 16 355.988238
2.099870 2.056356 2.967998 12.000000 15 355.988195
2.110433 2.066696 2.463292 14.000000 13 355.988198
2.108118 2.063709 2.018779 14.000000 11 355.988201
1.435136 1.404902 1.137382 23.000000 9 355.988203
1.435275 1.404547 0.899674 26.000000 7 355.988206
1.433688 1.402505 0.679086 25.000000 5 355.988208
