# .PCD v.7 - Point Cloud Data file format
VERSION .7
FIELDS x y z intensity ring timestamp
SIZE 4 4 4 4 2 8
TYPE F F F F U D
COUNT 1 1 1 1 1 1
WIDTH 906
HEIGHT 1
VIEWPOINT 0 0 0 1 0 0 0
POINTS 906
DATA ascii
-0.812295 -0.853307 1.634216 38.000000 18 357.237690
-0.811910 -0.852898 1.354851 39.000000 16 357.237692
-0.814423 -0.860036 1.243761 40.000000 15 357.237650
-0.810460 -0.855848 1.032465 44.000000 13 357.237653
-0.806684 -0.851562 0.853656 42.000000 11 357.237655
-0.811423 -0.856561 0.703911 40.000000 9 357.237658
-0.810521 -0.855310 0.564401 39.000000 7 357.237660
-0.792333 -0.835825 0.428249 29.000000 5 357.237663
-0.787418 -0.830640 0.308773 9.000000 3 357.237665
-0.812596 -0.855411 1.131623 44.000000 14 357.237676
-0.806327 -0.848809 0.936014 48.000000 12 357.237678
-0.806062 -0.848233 0.772960 45.000000 10 357.237681
-0.810506 -0.852905 0.631371 42.000000 8 357.237683
-0.810560 -0.852664 0.498370 37.000000 6 357.237686
-0.810685 -0.852498 0.374454 17.000000 4 357.237688
-0.035520 -0.025897 3.484141 99.000000 31 357.237705
-0.423161 -0.421796 3.798713 10.000000 28 357.237708
-0.522319 -0.519435 3.564986 8.000000 27 357.237710
-0.731746 -0.756839 3.410618 5.000000 25 357.237713
-0.850014 -0.888897 2.957040 27.000000 23 357.237715
-0.832945 -0.871345 2.275434 36.000000 21 357.237718
-0.824921 -0.862948 1.825976 38.000000 19 357.237720
-0.818760 -0.856498 1.494755 39.000000 17 357.237723
-0.156732 -0.142149 3.488564 69.000000 30 357.237731
-0.300017 -0.285409 3.812885 10.000000 29 357.237733
-0.628411 -0.641085 3.491392 11.000000 26 357.237736
-0.873898 -0.911007 3.487140 26.000000 24 357.237738
-0.846733 -0.882991 2.592233 32.000000 22 357.237741
-0.829563 -0.865381 2.031004 37.000000 20 357.237743
-0.817354 -0.852642 1.638206 38.000000 18 357.237746
-0.817079 -0.852649 1.358527 39.000000 16 357.237749
-0.817420 -0.857188 1.243761 40.000000 15 357.237706
-0.813443 -0.853014 1.032465 44.000000 13 357.237709
-0.812538 -0.851766 0.856398 42.000000 11 357.237711
-0.814408 -0.853724 0.703911 42.000000 9 357.237714
-0.813353 -0.852617 0.564401 39.000000 7 357.237717
-0.798412 -0.836663 0.429659 29.000000 5 357.237719
-0.793705 -0.831439 0.309705 10.000000 3 357.237722
-0.254367 -0.266369 0.125951 4.000000 1 357.237724
-0.815577 -0.852570 1.131623 45.000000 14 357.237732
-0.809285 -0.845989 0.936014 50.000000 12 357.237735
-0.808870 -0.845555 0.772960 47.000000 10 357.237737
-0.816467 -0.853492 0.633469 42.000000 8 357.237740
-0.816648 -0.853384 0.500013 37.000000 6 357.237742
-0.813507 -0.849805 0.374454 17.000000 4 357.237745
-0.035606 -0.025779 3.484141 99.000000 31 357.237761
-0.436711 -0.432410 3.907377 11.000000 28 357.237763
-0.523314 -0.516985 3.560091 10.000000 27 357.237766
-0.734252 -0.754409 3.410618 5.000000 25 357.237768
-0.855667 -0.888889 2.966245 27.000000 23 357.237771
-0.837492 -0.870305 2.279823 36.000000 21 357.237773
-0.829729 -0.862235 1.830108 38.000000 19 357.237776
-0.823818 -0.856089 1.498592 39.000000 17 357.237778
-0.157227 -0.141601 3.488564 68.000000 30 357.237786
-0.299845 -0.283262 3.797971 11.000000 29 357.237789
-0.630645 -0.638887 3.491392 11.000000 26 357.237791
-0.878271 -0.909192 3.491833 26.000000 24 357.237794
-0.851169 -0.881745 2.596734 33.000000 22 357.237796
-0.832428 -0.862626 2.031004 37.000000 20 357.237799
-0.820177 -0.849927 1.638206 38.000000 18 357.237802
-0.820050 -0.849792 1.358527 39.000000 16 357.237804
-0.822728 -0.857045 1.247266 39.000000 15 357.237762
-0.818963 -0.853120 1.035603 42.000000 13 357.237764
-0.815358 -0.849067 0.856398 42.000000 11 357.237767
-0.820303 -0.854214 0.706229 40.000000 9 357.237769
-0.816324 -0.849773 0.564401 39.000000 7 357.237772
-0.801328 -0.833871 0.429659 29.000000 5 357.237775
-0.796458 -0.828803 0.309705 10.000000 3 357.237777
-0.248346 -0.258344 0.125058 7.000000 1 357.237780
-0.818400 -0.849860 1.131623 45.000000 14 357.237787
-0.814890 -0.846212 0.938957 48.000000 12 357.237790
-0.814808 -0.845831 0.775493 45.000000 10 357.237793
-0.819441 -0.850637 0.633469 42.000000 8 357.237795
-0.819622 -0.850528 0.500013 37.000000 6 357.237798
-0.816469 -0.846960 0.374454 17.000000 4 357.237800
-0.035696 -0.025655 3.484141 98.000000 31 357.237816
-0.438218 -0.430883 3.907377 11.000000 28 357.237819
-0.525116 -0.515155 3.560091 10.000000 27 357.237821
-0.735836 -0.750775 3.405846 5.000000 25 357.237824
-0.860125 -0.887299 2.970848 27.000000 23 357.237826
-0.842192 -0.869096 2.284212 36.000000 21 357.237829
-0.832734 -0.859333 1.830108 38.000000 19 357.237831
-0.826802 -0.853208 1.498592 39.000000 17 357.237834
-0.157720 -0.141051 3.488564 67.000000 30 357.237842
-0.300442 -0.281849 3.793000 12.000000 29 357.237844
-0.631984 -0.635790 3.486553 15.000000 26 357.237847
-0.883846 -0.908595 3.501218 27.000000 24 357.237849
-0.855760 -0.880330 2.601234 33.000000 22 357.237852
-0.837252 -0.861585 2.035270 37.000000 20 357.237855
-0.825239 -0.849220 1.642195 38.000000 18 357.237857
-0.825374 -0.849355 1.362202 39.000000 16 357.237860
-0.825715 -0.854168 1.247266 39.000000 15 357.237817
-0.821936 -0.850256 1.035603 44.000000 13 357.237820
-0.818317 -0.846216 0.856398 42.000000 11 357.237822
-0.823280 -0.851345 0.706229 40.000000 9 357.237825
-0.822509 -0.850250 0.566274 39.000000 7 357.237828
-0.807570 -0.834516 0.431068 29.000000 5 357.237830
-0.802762 -0.829548 0.310638 10.000000 3 357.237833
-0.245782 -0.253897 0.124612 13.000000 1 357.237835
-0.821361 -0.846998 1.131623 45.000000 14 357.237843
-0.817839 -0.843362 0.938957 48.000000 12 357.237846
-0.817756 -0.842982 0.775493 45.000000 10 357.237848
-0.822406 -0.847772 0.633469 42.000000 8 357.237851
-0.822586 -0.847662 0.500013 37.000000 6 357.237853
-0.819420 -0.844105 0.374454 18.000000 4 357.237856
-0.035785 -0.025530 3.484141 98.000000 31 357.237872
-0.440832 -0.430436 3.917256 12.000000 28 357.237874
-0.526181 -0.512609 3.555196 11.000000 27 357.237877
-0.738452 -0.748202 3.405846 5.000000 25 357.237879
-0.864581 -0.885689 2.975450 26.000000 23 357.237882
-0.846893 -0.867866 2.288600 36.000000 21 357.237884
-0.837694 -0.858436 1.834242 38.000000 19 357.237887
-0.832014 -0.852611 1.502429 39.000000 17 357.237889
-0.158212 -0.140500 3.488564 72.000000 30 357.237897
-0.300250 -0.279709 3.778085 12.000000 29 357.237900
-0.634200 -0.633580 3.486553 15.000000 26 357.237902
-0.888220 -0.906737 3.505911 26.000000 24 357.237905
-0.858980 -0.877188 2.601234 33.000000 22 357.237907
-0.842229 -0.860374 2.039536 37.000000 20 357.237910
-0.828347 -0.846190 1.642195 38.000000 18 357.237913
-0.828482 -0.846324 1.362202 39.000000 16 357.237915
-0.831179 -0.853836 1.250770 39.000000 15 357.237873
-0.824899 -0.847381 1.035603 46.000000 13 357.237875
-0.824183 -0.846350 0.859139 42.000000 11 357.237878
-0.826247 -0.848466 0.706229 42.000000 9 357.237881
-0.825471 -0.847374 0.566274 39.000000 7 357.237883
-0.810478 -0.831692 0.431068 29.000000 5 357.237886
-0.805797 -0.826600 0.310638 10.000000 3 357.237888
-0.246711 -0.252995 0.124612 8.000000 1 357.237891
-0.827070 -0.846654 1.134948 44.000000 14 357.237899
-0.823749 -0.843251 0.941900 48.000000 12 357.237901
-0.823853 -0.843063 0.778025 45.000000 10 357.237904
-0.828679 -0.847998 0.635568 40.000000 8 357.237906
-0.828988 -0.848018 0.501656 38.000000 6 357.237909
-0.822509 -0.841096 0.374454 18.000000 4 357.237911
-0.035916 -0.025421 3.489141 99.000000 31 357.237927
-0.443523 -0.429898 3.927134 12.000000 28 357.237930
-0.528056 -0.510677 3.555196 8.000000 27 357.237932
-0.740136 -0.744431 3.401074 5.000000 25 357.237935
-0.869192 -0.883908 2.980053 26.000000 23 357.237937
-0.850069 -0.864756 2.288600 36.000000 21 357.237940
-0.840835 -0.855359 1.834242 38.000000 19 357.237942
-0.835133 -0.849556 1.502429 39.000000 17 357.237945
-0.158507 -0.139729 3.483572 78.000000 30 357.237953
-0.301666 -0.278968 3.783057 11.000000 29 357.237955
-0.636518 -0.631251 3.486553 14.000000 26 357.237958
-0.893962 -0.905932 3.515297 26.000000 24 357.237960
-0.863566 -0.875735 2.605735 33.000000 22 357.237963
-0.845227 -0.857429 2.039536 37.000000 20 357.237966
-0.833411 -0.845439 1.646185 38.000000 18 357.237968
-0.833811 -0.845842 1.365877 39.000000 16 357.237971
-0.834303 -0.850784 1.250770 39.000000 15 357.237928
-0.827999 -0.844352 1.035603 44.000000 13 357.237931
-0.827279 -0.843324 0.859139 42.000000 11 357.237933
-0.829351 -0.845432 0.706229 42.000000 9 357.237936
-0.828572 -0.844343 0.566274 39.000000 7 357.237939
-0.816882 -0.832139 0.432477 29.000000 5 357.237941
-0.812118 -0.827287 0.311570 9.000000 3 357.237944
-0.247593 -0.252132 0.124612 8.000000 1 357.237946
-0.830020 -0.843761 1.134948 44.000000 14 357.237954
-0.826688 -0.840370 0.941900 50.000000 12 357.237957
-0.826791 -0.840182 0.778025 45.000000 10 357.237959
-0.831634 -0.845100 0.635568 40.000000 8 357.237962
-0.831944 -0.845119 0.501656 38.000000 6 357.237964
-0.825440 -0.838219 0.374454 18.000000 4 357.237967
-0.036005 -0.025295 3.489141 99.000000 31 357.237983
-0.445021 -0.428347 3.927134 12.000000 28 357.237985
-0.529101 -0.508126 3.550300 8.000000 27 357.237988
-0.742730 -0.741843 3.401074 5.000000 25 357.237990
-0.873646 -0.882256 2.984655 26.000000 23 357.237993
-0.854767 -0.863486 2.292989 36.000000 21 357.237995
-0.845795 -0.854419 1.838374 38.000000 19 357.237998
-0.840349 -0.848914 1.506266 39.000000 17 357.238001
-0.158994 -0.139175 3.483572 73.000000 30 357.238008
-0.302244 -0.277553 3.778085 11.000000 29 357.238011
-0.638717 -0.629026 3.486553 14.000000 26 357.238013
-0.898335 -0.904030 3.519989 26.000000 24 357.238016
-0.868152 -0.874260 2.610236 33.000000 22 357.238019
-0.850052 -0.856324 2.043802 37.000000 20 357.238021
-0.836357 -0.842525 1.646185 38.000000 18 357.238024
-0.836759 -0.842926 1.365877 39.000000 16 357.238026
-0.839773 -0.850404 1.254275 40.000000 15 357.237984
-0.833677 -0.844227 1.038741 40.000000 13 357.237986
-0.833157 -0.843405 0.861880 40.000000 11 357.237989
-0.832297 -0.842532 0.706229 42.000000 9 357.237992
-0.831514 -0.841445 0.566274 39.000000 7 357.237994
-0.819781 -0.829283 0.432477 30.000000 5 357.237997
-0.815001 -0.824448 0.311570 9.000000 3 357.237999
-0.248471 -0.251266 0.124612 8.000000 1 357.238002
-0.835588 -0.843512 1.138272 44.000000 14 357.238010
-0.832461 -0.840351 0.944843 48.000000 12 357.238012
-0.829719 -0.837291 0.778025 45.000000 10 357.238015
-0.837774 -0.845416 0.637666 42.000000 8 357.238017
-0.834888 -0.842210 0.501656 37.000000 6 357.238020
-0.828360 -0.835333 0.374454 18.000000 4 357.238022
-0.036093 -0.025169 3.489141 99.000000 31 357.238038
-0.445952 -0.426254 3.922195 15.000000 28 357.238041
-0.530871 -0.506276 3.550300 6.000000 27 357.238043
-0.743194 -0.737142 3.391531 5.000000 25 357.238046
-0.878100 -0.880585 2.989258 26.000000 23 357.238048
-0.859468 -0.862194 2.297378 36.000000 21 357.238051
-0.848772 -0.851461 1.838374 38.000000 19 357.238053
-0.843307 -0.845975 1.506266 39.000000 17 357.238056
-0.159479 -0.138619 3.483572 65.000000 30 357.238064
-0.303606 -0.276856 3.783057 11.000000 29 357.238066
-0.640909 -0.626792 3.486553 17.000000 26 357.238069
-0.902706 -0.902108 3.524682 26.000000 24 357.238071
-0.871199 -0.871224 2.610236 32.000000 22 357.238074
-0.854880 -0.855196 2.048068 37.000000 20 357.238077
-0.841424 -0.841732 1.650174 38.000000 18 357.238079
-0.842093 -0.842398 1.369552 39.000000 16 357.238082
-0.842737 -0.847467 1.254275 39.000000 15 357.238039
-0.836619 -0.841312 1.038741 40.000000 13 357.238042
-0.836096 -0.840492 0.861880 40.000000 11 357.238045
-0.838358 -0.842762 0.708547 42.000000 9 357.238047
-0.834446 -0.838538 0.566274 39.000000 7 357.238050
-0.822671 -0.826416 0.432477 30.000000 5 357.238052
-0.817874 -0.821598 0.311570 9.000000 3 357.238055
-0.252861 -0.253926 0.125058 6.000000 1 357.238057
-0.838528 -0.840590 1.138272 44.000000 14 357.238065
-0.835389 -0.837440 0.944843 48.000000 12 357.238068
-0.835681 -0.837441 0.780558 47.000000 10 357.238070
-0.843926 -0.845699 0.639764 43.000000 8 357.238073
-0.837823 -0.839290 0.501656 38.000000 6 357.238075
-0.831271 -0.832436 0.374454 18.000000 4 357.238078
-0.036180 -0.025043 3.489141 99.000000 31 357.238094
-0.447437 -0.424695 3.922195 16.000000 28 357.238096
-0.532635 -0.504420 3.550300 6.000000 27 357.238099
-0.748955 -0.737688 3.405846 5.000000 25 357.238101
-0.882553 -0.878893 2.993860 26.000000 23 357.238104
-0.862472 -0.859189 2.297378 35.000000 21 357.238106
-0.853733 -0.850479 1.842507 38.000000 19 357.238109
-0.848526 -0.845289 1.510103 39.000000 17 357.238112
-0.159962 -0.138061 3.483572 66.000000 30 357.238119
-0.304174 -0.275436 3.778085 11.000000 29 357.238122
-0.643093 -0.624551 3.486553 19.000000 26 357.238124
-0.907074 -0.900167 3.529375 26.000000 24 357.238127
-0.875780 -0.869712 2.614737 32.000000 22 357.238130
-0.859710 -0.854045 2.052334 38.000000 20 357.238132
-0.846495 -0.840914 1.654164 37.000000 18 357.238135
-0.845028 -0.839453 1.369552 39.000000 16 357.238137
-0.845690 -0.844521 1.254275 39.000000 15 357.238095
-0.842305 -0.841137 1.041879 44.000000 13 357.238097
-0.839024 -0.837568 0.861880 40.000000 11 357.238100
-0.841294 -0.839831 0.708547 42.000000 9 357.238103
-0.840650 -0.838894 0.568147 39.000000 7 357.238105
-0.828947 -0.826928 0.433886 30.000000 5 357.238108
-0.817259 -0.815269 0.310638 9.000000 3 357.238110
-0.844103 -0.840292 1.141597 45.000000 14 357.238121
-0.838307 -0.834519 0.944843 50.000000 12 357.238123
-0.838600 -0.834519 0.780558 45.000000 10 357.238126
-0.846873 -0.842748 0.639764 43.000000 8 357.238128
-0.840748 -0.836361 0.501656 38.000000 6 357.238131
-0.834172 -0.829530 0.374454 18.000000 4 357.238133
-0.036267 -0.024917 3.489141 99.000000 31 357.238149
-0.448917 -0.423131 3.922195 16.000000 28 357.238152
-0.534393 -0.502557 3.550300 7.000000 27 357.238154
-0.751526 -0.735069 3.405846 5.000000 25 357.238157
-0.887005 -0.877181 2.998463 26.000000 23 357.238159
-0.867169 -0.857858 2.301766 35.000000 21 357.238162
-0.856697 -0.847494 1.842507 38.000000 19 357.238165
-0.851472 -0.842322 1.510103 39.000000 17 357.238167
-0.160443 -0.137502 3.483572 68.000000 30 357.238175
-0.305134 -0.274373 3.778085 11.000000 29 357.238177
-0.644364 -0.621430 3.481714 19.000000 26 357.238180
-0.911440 -0.898207 3.534068 26.000000 24 357.238183
-0.880361 -0.868179 2.619238 32.000000 22 357.238185
-0.862686 -0.851039 2.052334 38.000000 20 357.238188
-0.849425 -0.837954 1.654164 37.000000 18 357.238190
-0.850367 -0.838879 1.373227 39.000000 16 357.238193
-0.848632 -0.841563 1.254275 40.000000 15 357.238150
-0.845236 -0.838192 1.041879 44.000000 13 357.238153
-0.841943 -0.834635 0.861880 39.000000 11 357.238156
-0.844221 -0.836889 0.708547 42.000000 9 357.238158
-0.843573 -0.835955 0.568147 39.000000 7 357.238161
-0.831829 -0.824029 0.433886 30.000000 5 357.238163
-0.830570 -0.822782 0.313436 7.000000 3 357.238166
-0.847031 -0.837341 1.141597 44.000000 14 357.238176
-0.844090 -0.834429 0.947787 48.000000 12 357.238179
-0.841508 -0.831586 0.780558 45.000000 10 357.238181
-0.853037 -0.842977 0.641862 43.000000 8 357.238184
-0.843662 -0.833421 0.501656 38.000000 6 357.238186
-0.837062 -0.826613 0.374454 19.000000 4 357.238189
-0.036354 -0.024790 3.489141 99.000000 31 357.238205
-0.445850 -0.417316 3.882681 15.000000 28 357.238207
-0.536144 -0.500689 3.550300 8.000000 27 357.238210
-0.755158 -0.733481 3.410618 5.000000 25 357.238212
-0.891455 -0.875448 3.003065 26.000000 23 357.238215
-0.871868 -0.856504 2.306155 35.000000 21 357.238217
-0.861657 -0.846471 1.846640 38.000000 19 357.238220
-0.854407 -0.839345 1.510103 39.000000 17 357.238223
-0.160922 -0.136941 3.483572 62.000000 30 357.238230
-0.305292 -0.272596 3.768143 12.000000 29 357.238233
-0.646529 -0.619177 3.481714 22.000000 26 357.238235
-0.914569 -0.895020 3.534068 25.000000 24 357.238238
-0.884942 -0.866625 2.623739 32.000000 22 357.238241
-0.867514 -0.849847 2.056600 37.000000 20 357.238243
-0.854498 -0.837093 1.658153 37.000000 18 357.238246
-0.853290 -0.835906 1.373227 39.000000 16 357.238248
-0.854106 -0.841098 1.257779 40.000000 15 357.238206
-0.848157 -0.835236 1.041879 42.000000 13 357.238209
-0.847831 -0.834624 0.864622 39.000000 11 357.238211
-0.850294 -0.837045 0.710865 42.000000 9 357.238214
-0.846486 -0.833005 0.568147 39.000000 7 357.238216
-0.834700 -0.821121 0.433886 30.000000 5 357.238219
-0.829935 -0.816433 0.312503 6.000000 3 357.238221
-0.852614 -0.836995 1.144922 44.000000 14 357.238232
-0.846997 -0.831478 0.947787 50.000000 12 357.238234
-0.847482 -0.831663 0.783090 45.000000 10 357.238237
-0.855975 -0.839994 0.641862 43.000000 8 357.238239
-0.846566 -0.830471 0.501656 37.000000 6 357.238242
-0.843413 -0.827089 0.375626 19.000000 4 357.238244
-0.036440 -0.024663 3.489141 98.000000 31 357.238260
-0.446165 -0.414700 3.872802 15.000000 28 357.238263
-0.538635 -0.499506 3.555196 8.000000 27 357.238265
-0.777066 -0.749502 3.496508 7.000000 25 357.238268
-0.895904 -0.873695 3.007668 23.000000 23 357.238270
-0.876567 -0.855129 2.310544 36.000000 21 357.238273
-0.864606 -0.843458 1.846640 38.000000 19 357.238276
-0.859626 -0.838596 1.513940 39.000000 17 357.238278
-0.161375 -0.136407 3.483572 55.000000 30 357.238286
-0.305794 -0.271229 3.763171 12.000000 29 357.238288
-0.647667 -0.616162 3.476874 24.000000 26 357.238291
-0.918770 -0.893185 3.538760 25.000000 24 357.238294
-0.889523 -0.865049 2.628239 32.000000 22 357.238296
-0.872345 -0.848633 2.060866 38.000000 20 357.238299
-0.857415 -0.834105 1.658153 37.000000 18 357.238301
-0.858487 -0.835436 1.376902 39.000000 16 357.238304
-0.857037 -0.838112 1.257779 39.000000 15 357.238261
-0.853850 -0.834992 1.045017 42.000000 13 357.238264
-0.850739 -0.831659 0.864622 39.000000 11 357.238267
-0.853211 -0.834072 0.710865 42.000000 9 357.238269
-0.849243 -0.830194 0.568147 39.000000 7 357.238272
-0.840849 -0.821701 0.435295 30.000000 5 357.238274
-0.843321 -0.823829 0.315301 4.000000 3 357.238277
-0.855530 -0.834014 1.144922 44.000000 14 357.238287
-0.849894 -0.828516 0.947787 48.000000 12 357.238290
-0.850236 -0.828849 0.783090 45.000000 10 357.238292
-0.858755 -0.837151 0.641862 42.000000 8 357.238295
-0.849315 -0.827659 0.501656 38.000000 6 357.238297
-0.846151 -0.824288 0.375626 19.000000 4 357.238300
-0.036522 -0.024542 3.489141 99.000000 31 357.238316
-0.439541 -0.405844 3.803653 13.000000 28 357.238318
-0.541038 -0.498407 3.560091 8.000000 27 357.238321
-0.800039 -0.766552 3.587171 12.000000 25 357.238323
-0.900200 -0.872078 3.012270 23.000000 23 357.238326
-0.881118 -0.853884 2.314933 36.000000 21 357.238329
-0.869420 -0.842544 1.850773 38.000000 19 357.238331
-0.862402 -0.835740 1.513940 39.000000 17 357.238334
-0.161850 -0.135843 3.483572 53.000000 30 357.238341
-0.305936 -0.269455 3.753228 13.000000 29 357.238344
-0.649814 -0.613898 3.476874 25.000000 26 357.238347
-0.921882 -0.889972 3.538760 26.000000 24 357.238349
-0.893953 -0.863607 2.632740 32.000000 22 357.238352
-0.875154 -0.845735 2.060866 38.000000 20 357.238354
-0.862344 -0.833352 1.662143 37.000000 18 357.238357
-0.861397 -0.832434 1.376902 39.000000 16 357.238359
-0.862369 -0.837750 1.261284 39.000000 15 357.238317
-0.856614 -0.832156 1.045017 44.000000 13 357.238320
-0.856492 -0.831747 0.867363 39.000000 11 357.238322
-0.859150 -0.834324 0.713183 42.000000 9 357.238325
-0.852136 -0.827224 0.568147 39.000000 7 357.238327
-0.843712 -0.818761 0.435295 31.000000 5 357.238330
-0.858291 -0.831172 1.144922 44.000000 14 357.238343
-0.855541 -0.828505 0.950730 48.000000 12 357.238345
-0.853124 -0.825876 0.783090 47.000000 10 357.238348
-0.864933 -0.837305 0.643960 42.000000 8 357.238350
-0.855593 -0.827973 0.503299 38.000000 6 357.238353
-0.849023 -0.821329 0.375626 19.000000 4 357.238355
-0.036612 -0.024408 3.489141 98.000000 31 357.238371
-0.435867 -0.399509 3.759199 13.000000 28 357.238374
-0.543613 -0.497107 3.564986 6.000000 27 357.238376
-0.832065 -0.791403 3.716008 7.000000 25 357.238379
-0.904798 -0.870127 3.016873 26.000000 23 357.238381
-0.884242 -0.850649 2.314933 35.000000 21 357.238384
-0.874530 -0.841303 1.854906 38.000000 19 357.238386
-0.867770 -0.834796 1.517776 39.000000 17 357.238389
-0.162347 -0.135249 3.483572 55.000000 30 357.238397
-0.306117 -0.267631 3.743285 13.000000 29 357.238399
-0.651142 -0.610652 3.472035 26.000000 26 357.238402
-0.926384 -0.887782 3.543453 23.000000 24 357.238404
-0.898684 -0.861832 2.637241 32.000000 22 357.238407
-0.880130 -0.844327 2.065132 37.000000 20 357.238409
-0.867567 -0.832272 1.666132 37.000000 18 357.238412
-0.864443 -0.829271 1.376902 39.000000 16 357.238415
-0.865434 -0.834584 1.261284 39.000000 15 357.238372
-0.859659 -0.829011 1.045017 44.000000 13 357.238375
-0.859535 -0.828602 0.867363 39.000000 11 357.238377
-0.862202 -0.831170 0.713183 42.000000 9 357.238380
-0.858500 -0.827312 0.570020 39.000000 7 357.238383
-0.850163 -0.818991 0.436705 31.000000 5 357.238385
-0.864024 -0.830609 1.148247 44.000000 14 357.238398
-0.858572 -0.825364 0.950730 48.000000 12 357.238401
-0.859253 -0.825731 0.785622 47.000000 10 357.238403
-0.867996 -0.834129 0.643960 43.000000 8 357.238406
-0.858622 -0.824832 0.503299 38.000000 6 357.238408
-0.852028 -0.818212 0.375626 19.000000 4 357.238411
-0.036697 -0.024280 3.489141 98.000000 31 357.238427
-0.429785 -0.391191 3.694989 14.000000 28 357.238429
-0.546853 -0.496575 3.574776 6.000000 27 357.238432
-0.834822 -0.788494 3.716008 7.000000 25 357.238434
-0.909243 -0.868313 3.021475 26.000000 23 357.238437
-0.888938 -0.849212 2.319321 35.000000 21 357.238439
-0.879496 -0.840189 1.859039 38.000000 19 357.238442
-0.872997 -0.833977 1.521614 39.000000 17 357.238444
-0.162818 -0.134681 3.483572 61.000000 30 357.238452
-0.305838 -0.265513 3.728371 14.000000 29 357.238455
-0.653270 -0.608375 3.472035 23.000000 26 357.238457
-0.929477 -0.884542 3.543453 23.000000 24 357.238460
-0.901687 -0.858690 2.637241 32.000000 22 357.238462
-0.883072 -0.841250 2.065132 37.000000 20 357.238465
-0.870467 -0.829238 1.666132 37.000000 18 357.238468
-0.869787 -0.828587 1.380578 39.000000 16 357.238470
-0.870918 -0.834024 1.264788 40.000000 15 357.238428
-0.865359 -0.828698 1.048154 45.000000 13 357.238430
-0.865443 -0.828488 0.870105 39.000000 11 357.238433
-0.865098 -0.828155 0.713183 40.000000 9 357.238435
-0.861383 -0.824310 0.570020 39.000000 7 357.238438
-0.853016 -0.816019 0.436705 31.000000 5 357.238441
-0.866918 -0.827588 1.148247 44.000000 14 357.238453
-0.864371 -0.825153 0.953673 48.000000 12 357.238456
-0.862130 -0.822726 0.785622 45.000000 10 357.238459
-0.870903 -0.831094 0.643960 43.000000 8 357.238461
-0.861496 -0.821830 0.503299 38.000000 6 357.238464
-0.854879 -0.815233 0.375626 20.000000 4 357.238466
-0.036781 -0.024152 3.489141 99.000000 31 357.238482
-0.426533 -0.385523 3.655475 14.000000 28 357.238485
-0.550096 -0.496026 3.584567 6.000000 27 357.238487
-0.840838 -0.788640 3.730323 12.000000 25 357.238490
-0.913686 -0.866478 3.026078 26.000000 23 357.238492
-0.893635 -0.847753 2.323710 35.000000 21 357.238495
-0.882424 -0.837114 1.859039 38.000000 19 357.238497
-0.878229 -0.833131 1.525450 39.000000 17 357.238500
-0.163287 -0.134112 3.483572 61.000000 30 357.238508
-0.305547 -0.263400 3.713457 14.000000 29 357.238510
-0.655389 -0.606091 3.472035 19.000000 26 357.238513
-0.933813 -0.882478 3.548146 23.000000 24 357.238515
-0.906261 -0.857033 2.641742 32.000000 22 357.238518
-0.887898 -0.839955 2.069398 37.000000 20 357.238521
-0.875546 -0.828266 1.670122 37.000000 18 357.238523
-0.872674 -0.825546 1.380578 39.000000 16 357.238526
-0.873824 -0.830979 1.264788 40.000000 15 357.238483
-0.868246 -0.825672 1.048154 44.000000 13 357.238486
-0.868329 -0.825462 0.870105 40.000000 11 357.238488
-0.871195 -0.828183 0.715501 40.000000 9 357.238491
-0.867616 -0.824492 0.571893 39.000000 7 357.238494
-0.859338 -0.816340 0.438114 31.000000 5 357.238496
-0.872512 -0.827126 1.151572 44.000000 14 357.238509
-0.870180 -0.824911 0.956616 48.000000 12 357.238512
-0.864997 -0.819712 0.785622 47.000000 10 357.238514
-0.877093 -0.831171 0.646058 45.000000 8 357.238517
-0.867788 -0.822065 0.504941 38.000000 6 357.238519
-0.861249 -0.815586 0.376798 21.000000 4 357.238522
-0.036865 -0.024023 3.489141 99.000000 31 357.238538
-0.422669 -0.379364 3.611022 17.000000 28 357.238540
-0.552583 -0.494781 3.589462 7.000000 27 357.238543
-0.855609 -0.796896 3.782812 22.000000 25 357.238545
-0.918127 -0.864623 3.030680 26.000000 23 357.238548
-0.898333 -0.846271 2.328098 35.000000 21 357.238550
-0.887389 -0.835958 1.863172 38.000000 19 357.238553
-0.883465 -0.832258 1.529287 39.000000 17 357.238555
-0.163529 -0.133359 3.478580 65.000000 30 357.238563
-0.304840 -0.260946 3.693571 15.000000 29 357.238566
-0.657501 -0.603800 3.472035 17.000000 26 357.238568
-0.938146 -0.880394 3.552839 22.000000 24 357.238571
-0.910835 -0.855356 2.646243 32.000000 22 357.238573
-0.892725 -0.838636 2.073663 37.000000 20 357.238576
-0.880628 -0.827268 1.674111 37.000000 18 357.238579
-0.878021 -0.824816 1.384253 39.000000 16 357.238581
-0.876719 -0.827924 1.264788 39.000000 15 357.238539
-0.873953 -0.825309 1.051292 45.000000 13 357.238541
-0.874246 -0.825296 0.872846 40.000000 11 357.238544
-0.874080 -0.825136 0.715501 42.000000 9 357.238547
-0.870488 -0.821459 0.571893 39.000000 7 357.238549
-0.862182 -0.813336 0.438114 31.000000 5 357.238552
-0.875394 -0.824075 1.151572 42.000000 14 357.238565
-0.873054 -0.821869 0.956616 48.000000 12 357.238567
-0.870993 -0.819642 0.788155 45.000000 10 357.238570
-0.879989 -0.828104 0.646058 45.000000 8 357.238572
-0.870652 -0.819031 0.504941 38.000000 6 357.238575
-0.864090 -0.812574 0.376798 20.000000 4 357.238577
-0.036949 -0.023894 3.489141 99.000000 31 357.238593
-0.422249 -0.376337 3.596204 17.000000 28 357.238596
-0.555830 -0.494202 3.599253 7.000000 27 357.238598
-0.851806 -0.787821 3.754181 37.000000 25 357.238601
-0.923994 -0.864081 3.039885 25.000000 23 357.238603
-0.903031 -0.844767 2.332487 35.000000 21 357.238606
-0.892356 -0.834778 1.867305 38.000000 19 357.238608
-0.886365 -0.829170 1.529287 38.000000 17 357.238611
-0.163993 -0.132788 3.478580 67.000000 30 357.238619
-0.303712 -0.258155 3.668715 15.000000 29 357.238621
-0.658675 -0.600654 3.467196 14.000000 26 357.238624
-0.942476 -0.878290 3.557531 21.000000 24 357.238626
-0.915408 -0.853656 2.650744 32.000000 22 357.238629
-0.895647 -0.835514 2.073663 37.000000 20 357.238632
-0.883511 -0.824189 1.674111 37.000000 18 357.238634
-0.880895 -0.821746 1.384253 39.000000 16 357.238637
-0.882205 -0.827298 1.268293 39.000000 15 357.238594
-0.876829 -0.822253 1.051292 45.000000 13 357.238597
-0.877121 -0.822240 0.872846 40.000000 11 357.238599
-0.876955 -0.822080 0.715501 42.000000 9 357.238602
-0.873351 -0.818415 0.571893 39.000000 7 357.238605
-0.868517 -0.813601 0.439523 31.000000 5 357.238607
-0.878265 -0.821014 1.151572 42.000000 14 357.238620
-0.878870 -0.821576 0.959559 48.000000 12 357.238623
-0.873849 -0.816597 0.788155 45.000000 10 357.238625
-0.882874 -0.825027 0.646058 43.000000 8 357.238628
-0.873506 -0.815987 0.504941 38.000000 6 357.238630
-0.866921 -0.809553 0.376798 21.000000 4 357.238633
-0.037032 -0.023765 3.489141 99.000000 31 357.238649
-0.424143 -0.375375 3.601143 17.000000 28 357.238651
-0.558315 -0.492932 3.604148 8.000000 27 357.238654
-0.856751 -0.786863 3.763725 75.000000 25 357.238656
-0.928436 -0.862180 3.044488 25.000000 23 357.238659
-0.907730 -0.843240 2.336876 35.000000 21 357.238661
-0.897326 -0.833573 1.871438 38.000000 19 357.238664
-0.891603 -0.828252 1.533124 38.000000 17 357.238667
-0.164683 -0.132395 3.483572 65.000000 30 357.238674
-0.302976 -0.255719 3.648829 16.000000 29 357.238677
-0.660768 -0.598351 3.467196 14.000000 26 357.238679
-0.946803 -0.876167 3.562224 20.000000 24 357.238682
-0.918382 -0.850455 2.650744 32.000000 22 357.238685
-0.900472 -0.834155 2.077929 37.000000 20 357.238687
-0.888593 -0.823149 1.678101 37.000000 18 357.238690
-0.883758 -0.818666 1.384253 39.000000 16 357.238692
-0.885087 -0.824214 1.268293 40.000000 15 357.238650
-0.882543 -0.821840 1.054430 45.000000 13 357.238652
-0.883047 -0.822022 0.875588 42.000000 11 357.238655
-0.883062 -0.822033 0.717819 42.000000 9 357.238658
-0.876202 -0.815361 0.571893 39.000000 7 357.238660
-0.871352 -0.810564 0.439523 32.000000 5 357.238663
-0.881126 -0.817944 1.151572 44.000000 14 357.238676
-0.881733 -0.818503 0.959559 48.000000 12 357.238678
-0.876694 -0.813541 0.788155 45.000000 10 357.238681
-0.889075 -0.825027 0.648156 45.000000 8 357.238683
-0.879811 -0.816145 0.506584 38.000000 6 357.238686
-0.869742 -0.806522 0.376798 21.000000 4 357.238688
-0.037076 -0.023616 3.484141 96.000000 31 357.238704
-0.425450 -0.373893 3.601143 17.000000 28 357.238707
-0.561564 -0.492322 3.613938 8.000000 27 357.238709
-0.858389 -0.782861 3.758953 78.000000 25 357.238712
-0.932876 -0.860259 3.049091 25.000000 23 357.238714
-0.912428 -0.841691 2.341264 35.000000 21 357.238717
-0.900231 -0.830436 1.871438 38.000000 19 357.238719
-0.894488 -0.825135 1.533124 38.000000 17 357.238722
-0.165144 -0.131819 3.483572 62.000000 30 357.238730
-0.300998 -0.252264 3.614029 17.000000 29 357.238732
-0.661917 -0.595200 3.462357 13.000000 26 357.238735
-0.949856 -0.872857 3.562224 20.000000 24 357.238737
-0.922948 -0.848719 2.655245 32.000000 22 357.238740
-0.905297 -0.832773 2.082195 37.000000 20 357.238743
-0.891461 -0.820042 1.678101 37.000000 18 357.238745
-0.889105 -0.817871 1.387928 39.000000 16 357.238748
-0.890578 -0.823540 1.271798 40.000000 15 357.238705
-0.885406 -0.818755 1.054430 44.000000 13 357.238708
-0.885911 -0.818935 0.875588 42.000000 11 357.238711
-0.885926 -0.818945 0.717819 42.000000 9 357.238713
-0.882448 -0.815444 0.573766 39.000000 7 357.238716
-0.874176 -0.807518 0.439523 32.000000 5 357.238718
-0.886721 -0.817394 1.154897 42.000000 14 357.238731
-0.884584 -0.815421 0.959559 48.000000 12 357.238734
-0.882699 -0.813398 0.790687 45.000000 10 357.238736
-0.891950 -0.821919 0.648156 45.000000 8 357.238739
-0.882654 -0.813069 0.506584 38.000000 6 357.238741
-0.872552 -0.803481 0.376798 22.000000 4 357.238744
-0.037197 -0.023506 3.489141 96.000000 31 357.238760
-0.427339 -0.372916 3.606082 22.000000 28 357.238762
-0.564048 -0.491027 3.618834 8.000000 27 357.238765
-0.861116 -0.779860 3.758953 78.000000 25 357.238767
-0.938755 -0.859636 3.058296 25.000000 23 357.238770
-0.917128 -0.840119 2.345653 35.000000 21 357.238772
-0.905199 -0.829189 1.875571 37.000000 19 357.238775
-0.899727 -0.824173 1.536961 38.000000 17 357.238778
-0.165603 -0.131242 3.483572 62.000000 30 357.238785
-0.301466 -0.250871 3.609057 21.000000 29 357.238788
-0.663990 -0.592886 3.462357 10.000000 26 357.238790
-0.954171 -0.870699 3.566917 19.000000 24 357.238793
-0.925905 -0.845492 2.655245 31.000000 22 357.238796
-0.910124 -0.831366 2.086461 37.000000 20 357.238798
-0.896544 -0.818958 1.682090 37.000000 18 357.238801
-0.891955 -0.814763 1.387928 39.000000 16 357.238803
-0.893447 -0.820426 1.271798 39.000000 15 357.238761
-0.891126 -0.818292 1.057568 45.000000 13 357.238763
-0.891844 -0.818665 0.878329 42.000000 11 357.238766
-0.888780 -0.815848 0.717819 40.000000 9 357.238769
-0.885289 -0.812359 0.573766 39.000000 7 357.238771
-0.880525 -0.807704 0.440932 32.000000 5 357.238774
-0.889569 -0.814294 1.154897 42.000000 14 357.238787
-0.890407 -0.815057 0.962502 48.000000 12 357.238789
-0.885532 -0.810311 0.790687 47.000000 10 357.238792
-0.898162 -0.821864 0.650254 45.000000 8 357.238794
-0.888972 -0.813170 0.508227 38.000000 6 357.238797
-0.875351 -0.800430 0.376798 22.000000 4 357.238799
-0.037279 -0.023376 3.489141 99.000000 31 357.238815
-0.426875 -0.369896 3.591265 24.000000 28 357.238818
-0.566529 -0.489720 3.623729 7.000000 27 357.238820
-0.863833 -0.776849 3.758953 81.000000 25 357.238823
-0.943195 -0.857668 3.062898 25.000000 23 357.238825
-0.921827 -0.838525 2.350042 36.000000 21 357.238828
-0.908088 -0.826024 1.875571 37.000000 19 357.238831
-0.902599 -0.821027 1.536961 38.000000 17 357.238833
-0.166037 -0.130692 3.483572 62.000000 30 357.238841
-0.302296 -0.249870 3.609057 22.000000 29 357.238843
-0.665012 -0.589846 3.457517 8.000000 26 357.238846
-0.957053 -0.867530 3.566917 19.000000 24 357.238849
-0.930464 -0.843717 2.659745 31.000000 22 357.238851
-0.913021 -0.828184 2.086461 37.000000 20 357.238854
-0.899397 -0.815823 1.682090 37.000000 18 357.238856
-0.897162 -0.814078 1.391603 39.000000 16 357.238859
-0.898940 -0.819706 1.275302 39.000000 15 357.238816
-0.893977 -0.815176 1.057568 45.000000 13 357.238819
-0.894697 -0.815547 0.878329 42.000000 11 357.238822
-0.894896 -0.815725 0.720137 40.000000 9 357.238824
-0.891404 -0.812542 0.575639 39.000000 7 357.238827
-0.883198 -0.804780 0.440932 32.000000 5 357.238829
-0.895169 -0.813695 1.158221 42.000000 14 357.238842
-0.893246 -0.811944 0.962502 48.000000 12 357.238845
-0.888215 -0.807370 0.790687 47.000000 10 357.238847
-0.900882 -0.818881 0.650254 45.000000 8 357.238850
-0.891663 -0.810217 0.508227 38.000000 6 357.238852
-0.881599 -0.800792 0.377971 22.000000 4 357.238855
-0.037356 -0.023252 3.489141 99.000000 31 357.238871
-0.428688 -0.368985 3.596204 24.000000 28 357.238873
-0.568923 -0.488502 3.628624 7.000000 27 357.238876
-0.867519 -0.774975 3.763725 83.000000 25 357.238878
-0.947484 -0.855845 3.067501 25.000000 23 357.238881
-0.926380 -0.837069 2.354430 35.000000 21 357.238883
-0.912910 -0.824895 1.879704 37.000000 19 357.238886
-0.907695 -0.820179 1.540798 38.000000 17 357.238889
-0.166492 -0.130111 3.483572 63.000000 30 357.238896
-0.302753 -0.248476 3.604086 19.000000 29 357.238899
-0.666123 -0.586690 3.452678 5.000000 26 357.238901
-0.958793 -0.863029 3.562224 18.000000 24 357.238904
-0.935022 -0.841922 2.664246 32.000000 22 357.238907
-0.917844 -0.826738 2.090727 37.000000 20 357.238909
-0.904479 -0.814696 1.686080 37.000000 18 357.238912
-0.902659 -0.813054 1.395278 39.000000 16 357.238914
-0.901654 -0.816720 1.275302 39.000000 15 357.238872
-0.899561 -0.814821 1.060705 40.000000 13 357.238875
-0.900496 -0.815382 0.881071 42.000000 11 357.238877
-0.897596 -0.812753 0.720137 40.000000 9 357.238880
-0.894235 -0.809425 0.575639 39.000000 7 357.238882
-0.889559 -0.804911 0.442341 32.000000 5 357.238885
-0.898004 -0.810566 1.158221 40.000000 14 357.238898
-0.899076 -0.811529 0.965446 46.000000 12 357.238900
-0.894369 -0.806998 0.793220 45.000000 10 357.238903
-0.907247 -0.818614 0.652352 47.000000 8 357.238905
-0.898134 -0.810107 0.509869 38.000000 6 357.238908
-0.884528 -0.797555 0.377971 22.000000 4 357.238910
-0.037402 -0.023096 3.484141 99.000000 31 357.238926
-0.441860 -0.377498 3.694989 15.000000 28 357.238929
-0.572260 -0.487734 3.638414 9.000000 27 357.238931
-0.870353 -0.771791 3.763725 88.000000 25 357.238934
-0.953524 -0.854975 3.076706 25.000000 23 357.238936
-0.931225 -0.835268 2.358819 35.000000 21 357.238939
-0.915927 -0.821543 1.879704 37.000000 19 357.238942
-0.913082 -0.818987 1.544635 38.000000 17 357.238944
-0.166946 -0.129529 3.483572 64.000000 30 357.238952
-0.303619 -0.247417 3.604086 19.000000 29 357.238954
-0.667219 -0.583533 3.447839 4.000000 26 357.238957
-0.961800 -0.859677 3.562224 18.000000 24 357.238960
-0.939578 -0.840104 2.668747 31.000000 22 357.238962
-0.922668 -0.825268 2.094993 37.000000 20 357.238965
-0.909563 -0.813543 1.690069 37.000000 18 357.238967
-0.905350 -0.810056 1.395278 39.000000 16 357.238970
-0.904641 -0.813410 1.275302 39.000000 15 357.238927
-0.902541 -0.811518 1.060705 40.000000 13 357.238930
-0.903478 -0.812076 0.881071 42.000000 11 357.238933
-0.903864 -0.812419 0.722455 40.000000 9 357.238935
-0.897055 -0.806299 0.575639 39.000000 7 357.238938
-0.892363 -0.801801 0.442341 32.000000 5 357.238940
-0.903609 -0.809919 1.161546 40.000000 14 357.238953
-0.901903 -0.808386 0.965446 46.000000 12 357.238956
-0.897040 -0.804027 0.793220 47.000000 10 357.238958
-0.909957 -0.815601 0.652352 49.000000 8 357.238961
-0.900815 -0.807124 0.509869 38.000000 6 357.238963
-0.890789 -0.797860 0.379143 22.000000 4 357.238966
-0.037479 -0.022972 3.484141 99.000000 31 357.238982
-0.449630 -0.381556 3.749321 15.000000 28 357.238984
-0.574651 -0.486491 3.643310 9.000000 27 357.238987
-0.874029 -0.769887 3.768497 91.000000 25 357.238989
-0.957813 -0.853108 3.081308 25.000000 23 357.238992
-0.933990 -0.832175 2.358819 35.000000 21 357.238995
-0.920748 -0.820373 1.883837 37.000000 19 357.238997
-0.915792 -0.815955 1.544635 38.000000 17 357.239000
-0.167397 -0.128946 3.483572 64.000000 30 357.239007
-0.304481 -0.246356 3.604086 19.000000 29 357.239010
-0.667353 -0.579552 3.438161 3.000000 26 357.239013
-0.963504 -0.855169 3.557531 17.000000 24 357.239015
-0.943987 -0.838430 2.673248 31.000000 22 357.239018
-0.927349 -0.823936 2.099259 37.000000 20 357.239020
-0.914509 -0.812524 1.694059 37.000000 18 357.239023
-0.910707 -0.809142 1.398953 39.000000 16 357.239025
-0.909993 -0.812781 1.278807 39.000000 15 357.238983
-0.908130 -0.811114 1.063843 44.000000 13 357.238986
-0.909285 -0.811860 0.883812 40.000000 11 357.238988
-0.906553 -0.809417 0.722455 40.000000 9 357.238991
-0.903322 -0.806249 0.577513 39.000000 7 357.238993
-0.898736 -0.801875 0.443751 32.000000 5 357.238996
-0.906290 -0.806918 1.161546 42.000000 14 357.239009
-0.907598 -0.808079 0.968389 46.000000 12 357.239011
-0.903062 -0.803758 0.795752 47.000000 10 357.239014
-0.916188 -0.815437 0.654450 47.000000 8 357.239016
-0.907155 -0.807114 0.511512 38.000000 6 357.239019
-0.893568 -0.794746 0.379143 22.000000 4 357.239021
-0.037563 -0.022834 3.484141 100.000000 31 357.239038
-0.463512 -0.390409 3.853045 14.000000 28 357.239041
-0.577211 -0.485036 3.648205 8.000000 27 357.239043
-0.876844 -0.766679 3.768497 91.000000 25 357.239046
-0.962397 -0.850885 3.085911 25.000000 23 357.239048
-0.938828 -0.830334 2.363208 36.000000 21 357.239051
-0.925856 -0.818857 1.887970 37.000000 19 357.239053
-0.921178 -0.814717 1.548472 38.000000 17 357.239056
-0.167868 -0.128332 3.483572 63.000000 30 357.239064
-0.305382 -0.245238 3.604086 18.000000 29 357.239066
-0.668519 -0.576281 3.433321 3.000000 26 357.239069
-0.964042 -0.849351 3.548146 17.000000 24 357.239071
-0.948687 -0.836404 2.677749 31.000000 22 357.239074
-0.930363 -0.820531 2.099259 37.000000 20 357.239076
-0.917481 -0.809167 1.694059 37.000000 18 357.239079
-0.913666 -0.805799 1.398953 39.000000 16 357.239082
-0.912966 -0.809440 1.278807 39.000000 15 357.239039
-0.911097 -0.807780 1.063843 44.000000 13 357.239042
-0.912255 -0.808522 0.883812 40.000000 11 357.239044
-0.912829 -0.809028 0.724773 40.000000 9 357.239047
-0.906271 -0.802933 0.577513 39.000000 7 357.239050
-0.901669 -0.798575 0.443751 32.000000 5 357.239052
-0.912039 -0.806064 1.164871 40.000000 14 357.239065
-0.910553 -0.804747 0.968389 46.000000 12 357.239068
-0.906001 -0.800442 0.795752 47.000000 10 357.239070
-0.919171 -0.812074 0.654450 47.000000 8 357.239073
-0.910107 -0.803784 0.511512 38.000000 6 357.239075
-0.900119 -0.794683 0.380315 23.000000 4 357.239078
-0.037642 -0.022703 3.484141 100.000000 31 357.239094
-0.466065 -0.389785 3.862924 12.000000 28 357.239096
-0.578900 -0.483018 3.648205 8.000000 27 357.239099
-0.880643 -0.764592 3.773268 91.000000 25 357.239101
-0.966829 -0.848810 3.090513 25.000000 23 357.239104
-0.943521 -0.828632 2.367596 36.000000 21 357.239106
-0.930823 -0.817478 1.892103 38.000000 19 357.239109
-0.926425 -0.813612 1.552309 38.000000 17 357.239111
-0.168315 -0.127745 3.483572 67.000000 30 357.239119
-0.306654 -0.244503 3.609057 18.000000 29 357.239122
-0.669571 -0.573126 3.428482 3.000000 26 357.239124
-0.965702 -0.844844 3.543453 20.000000 24 357.239127
-0.953240 -0.834522 2.682250 31.000000 22 357.239129
-0.935184 -0.818997 2.103525 37.000000 20 357.239132
-0.922568 -0.807945 1.698048 37.000000 18 357.239135
-0.919024 -0.804838 1.402629 39.000000 16 357.239137
-0.918463 -0.808605 1.282311 39.000000 15 357.239095
-0.916833 -0.807167 1.066981 44.000000 13 357.239097
-0.918211 -0.808095 0.886554 42.000000 11 357.239100
-0.915648 -0.805836 0.724773 40.000000 9 357.239102
-0.909069 -0.799765 0.577513 39.000000 7 357.239105
-0.908054 -0.798591 0.445160 33.000000 5 357.239108
-0.917654 -0.805338 1.168196 40.000000 14 357.239120
-0.913357 -0.801564 0.968389 46.000000 12 357.239123
-0.912031 -0.800118 0.798285 45.000000 10 357.239126
-0.925412 -0.811854 0.656548 47.000000 8 357.239128
-0.916458 -0.803716 0.513155 39.000000 6 357.239131
-0.902887 -0.791536 0.380315 23.000000 4 357.239133
-0.037721 -0.022571 3.484141 99.000000 31 357.239149
-0.467422 -0.388156 3.862924 12.000000 28 357.239152
-0.580583 -0.480994 3.648205 5.000000 27 357.239154
-0.883307 -0.761514 3.773268 94.000000 25 357.239157
-0.971259 -0.846713 3.095116 21.000000 23 357.239159
-0.946408 -0.825334 2.367596 35.000000 21 357.239162
-0.937913 -0.817922 1.900369 38.000000 19 357.239164
-0.929260 -0.810373 1.552309 38.000000 17 357.239167
-0.168760 -0.127156 3.483572 65.000000 30 357.239175
-0.307086 -0.243100 3.604086 18.000000 29 357.239177
-0.673485 -0.572414 3.438161 3.000000 26 357.239180
-0.967343 -0.840336 3.538760 24.000000 24 357.239182
-0.957791 -0.832618 2.686750 31.000000 22 357.239185
-0.940005 -0.817439 2.107791 37.000000 20 357.239188
-0.927656 -0.806697 1.702038 37.000000 18 357.239190
-0.924386 -0.803850 1.406304 39.000000 16 357.239193
-0.921280 -0.805394 1.282311 39.000000 15 357.239150
-0.919645 -0.803962 1.066981 44.000000 13 357.239153
-0.921026 -0.804885 0.886554 42.000000 11 357.239155
-0.921791 -0.805550 0.727091 40.000000 9 357.239158
-0.915346 -0.799637 0.579386 39.000000 7 357.239161
-0.910836 -0.795416 0.445160 33.000000 5 357.239163
-0.920460 -0.802130 1.168196 42.000000 14 357.239176
-0.919197 -0.801026 0.971332 46.000000 12 357.239179
-0.914818 -0.796930 0.798285 47.000000 10 357.239181
-0.928240 -0.808618 0.656548 47.000000 8 357.239184
-0.919258 -0.800512 0.513155 38.000000 6 357.239186
-0.905645 -0.788379 0.380315 24.000000 4 357.239189
-0.037760 -0.022421 3.479141 100.000000 31 357.239205
-0.467575 -0.385534 3.853045 12.000000 28 357.239207
-0.582258 -0.478965 3.648205 5.000000 27 357.239210
-0.885960 -0.758426 3.773268 94.000000 25 357.239212
-0.975685 -0.844597 3.099718 21.000000 23 357.239215
-0.951094 -0.823594 2.371985 35.000000 21 357.239217
-0.942890 -0.816486 1.904502 39.000000 19 357.239220
-0.934507 -0.809223 1.556146 38.000000 17 357.239222
-0.169203 -0.126567 3.483572 61.000000 30 357.239230
-0.307933 -0.242027 3.604086 19.000000 29 357.239233
-0.675479 -0.570060 3.438161 4.000000 26 357.239235
-0.970270 -0.836954 3.538760 27.000000 24 357.239238
-0.962340 -0.830693 2.691251 31.000000 22 357.239240
-0.944826 -0.815857 2.112057 37.000000 20 357.239243
-0.930467 -0.803454 1.702038 37.000000 18 357.239246
-0.927186 -0.800618 1.406304 39.000000 16 357.239248
-0.926778 -0.804511 1.285816 39.000000 15 357.239206
-0.925386 -0.803299 1.070119 44.000000 13 357.239208
-0.926988 -0.804406 0.889295 43.000000 11 357.239211
-0.924597 -0.802328 0.727091 40.000000 9 357.239214
-0.918132 -0.796437 0.579386 39.000000 7 357.239216
-0.917231 -0.795375 0.446569 33.000000 5 357.239219
-0.926078 -0.801356 1.171521 40.000000 14 357.239232
-0.921987 -0.797812 0.971332 46.000000 12 357.239234
-0.917594 -0.793731 0.798285 45.000000 10 357.239237
-0.934490 -0.808342 0.658646 47.000000 8 357.239239
-0.922047 -0.797298 0.513155 38.000000 6 357.239242
-0.912069 -0.788392 0.381488 24.000000 4 357.239244
-0.037838 -0.022289 3.479141 100.000000 31 357.239260
-0.466512 -0.381932 3.833288 11.000000 28 357.239263
-0.583926 -0.476929 3.648205 5.000000 27 357.239265
-0.888602 -0.755328 3.773268 94.000000 25 357.239268
-0.980109 -0.842459 3.104321 24.000000 23 357.239270
-0.955780 -0.821831 2.376374 34.000000 21 357.239273
-0.947868 -0.815024 1.908634 39.000000 19 357.239275
-0.937326 -0.805956 1.556146 38.000000 17 357.239278
-0.169644 -0.125975 3.483572 58.000000 30 357.239286
-0.307933 -0.240295 3.594143 25.000000 29 357.239288
-0.677465 -0.567698 3.438161 5.000000 26 357.239291
-0.973186 -0.833562 3.538760 29.000000 24 357.239293
-0.966887 -0.828746 2.695752 31.000000 22 357.239296
-0.949648 -0.814252 2.116323 37.000000 20 357.239299
-0.935554 -0.802163 1.706027 37.000000 18 357.239301
-0.932549 -0.799584 1.409979 39.000000 16 357.239304
-0.929581 -0.801271 1.285816 39.000000 15 357.239261
-0.928184 -0.800064 1.070119 44.000000 13 357.239264
-0.929790 -0.801165 0.889295 43.000000 11 357.239266
-0.927392 -0.799096 0.727091 40.000000 9 357.239269
-0.920906 -0.793227 0.579386 39.000000 7 357.239272
-0.920002 -0.792168 0.446569 33.000000 5 357.239274
-0.928870 -0.798118 1.171521 40.000000 14 357.239287
-0.924766 -0.794589 0.971332 46.000000 12 357.239290
-0.923630 -0.793333 0.800817 45.000000 10 357.239292
-0.937306 -0.805076 0.658646 47.000000 8 357.239295
-0.928407 -0.797151 0.514797 38.000000 6 357.239297
-0.914815 -0.785203 0.381488 24.000000 4 357.239300
-0.037916 -0.022157 3.479141 100.000000 31 357.239316
-0.465429 -0.378343 3.813531 11.000000 28 357.239318
-0.585588 -0.474888 3.648205 6.000000 27 357.239321
-0.891233 -0.752222 3.773268 94.000000 25 357.239323
-0.984530 -0.840301 3.108923 24.000000 23 357.239326
-0.960465 -0.820045 2.380762 33.000000 21 357.239328
-0.952847 -0.813537 1.912768 38.000000 19 357.239331
-0.942571 -0.804761 1.559983 38.000000 17 357.239334
-0.170082 -0.125382 3.483572 46.000000 30 357.239341
-0.308347 -0.238893 3.589172 27.000000 29 357.239344
-0.682343 -0.567743 3.452678 7.000000 26 357.239346
-0.976090 -0.830160 3.538760 29.000000 24 357.239349
-0.973091 -0.828189 2.704754 31.000000 22 357.239352
-0.954471 -0.812622 2.120589 37.000000 20 357.239354
-0.940643 -0.800847 1.710017 37.000000 18 357.239357
-0.937916 -0.798521 1.413654 39.000000 16 357.239359
-0.935082 -0.800340 1.289320 39.000000 15 357.239317
-0.933929 -0.799350 1.073256 44.000000 13 357.239319
-0.935758 -0.800633 0.892037 43.000000 11 357.239322
-0.933542 -0.798734 0.729409 40.000000 9 357.239325
-0.923670 -0.790008 0.579386 39.000000 7 357.239327
-0.922762 -0.788952 0.446569 33.000000 5 357.239330
-0.934491 -0.797295 1.174846 40.000000 14 357.239343
-0.930609 -0.793980 0.974275 46.000000 12 357.239345
-0.926394 -0.790104 0.800817 45.000000 10 357.239348
-0.940110 -0.801799 0.658646 47.000000 8 357.239350
-0.931184 -0.793905 0.514797 39.000000 6 357.239353
-0.917550 -0.782005 0.381488 24.000000 4 357.239355
-0.037993 -0.022024 3.479141 100.000000 31 357.239371
-0.464932 -0.375253 3.798713 10.000000 28 357.239374
-0.588035 -0.473479 3.653100 6.000000 27 357.239376
-0.894998 -0.750066 3.778040 95.000000 25 357.239379
-0.988948 -0.838122 3.113526 24.000000 23 357.239381
-0.965149 -0.818236 2.385151 36.000000 21 357.239384
-0.957827 -0.812026 1.916900 39.000000 19 357.239386
-0.945375 -0.801466 1.559983 38.000000 17 357.239389
-0.170519 -0.124788 3.483572 46.000000 30 357.239397
-0.308331 -0.237165 3.579229 29.000000 29 357.239399
-0.700809 -0.578973 3.534945 10.000000 26 357.239402
-0.980300 -0.827862 3.543453 30.000000 24 357.239404
-0.977639 -0.826193 2.709255 31.000000 22 357.239407
-0.959293 -0.810969 2.124855 37.000000 20 357.239410
-0.943433 -0.797558 1.710017 38.000000 18 357.239412
-0.940697 -0.795242 1.413654 39.000000 16 357.239415
-0.937870 -0.797072 1.289320 39.000000 15 357.239372
-0.939680 -0.798606 1.076394 44.000000 13 357.239375
-0.938547 -0.797362 0.892037 43.000000 11 357.239378
-0.936324 -0.795470 0.729409 40.000000 9 357.239380
-0.929955 -0.789780 0.581259 39.000000 7 357.239383
-0.925510 -0.785726 0.446569 32.000000 5 357.239385
-0.940118 -0.796442 1.178171 40.000000 14 357.239398
-0.933375 -0.790726 0.974275 46.000000 12 357.239401
-0.932436 -0.789651 0.803349 45.000000 10 357.239403
-0.942903 -0.798512 0.658646 47.000000 8 357.239406
-0.937554 -0.793701 0.516440 39.000000 6 357.239408
-0.923985 -0.781937 0.382660 25.000000 4 357.239411
-0.038070 -0.021891 3.479141 100.000000 31 357.239427
-0.463813 -0.371686 3.778957 10.000000 28 357.239429
-0.589684 -0.471424 3.653100 7.000000 27 357.239432
-0.897611 -0.746937 3.778040 95.000000 25 357.239434
-0.994857 -0.837181 3.122731 24.000000 23 357.239437
