# .PCD v.7 - Point Cloud Data file format
VERSION .7
FIELDS x y z intensity ring timestamp
SIZE 4 4 4 4 2 8
TYPE F F F F U D
COUNT 1 1 1 1 1 1
WIDTH 908
HEIGHT 1
VIEWPOINT 0 0 0 1 0 0 0
POINTS 908
DATA ascii
-0.003258 -1.070656 3.467878 4.000000 25 357.125379
0.003078 -1.251390 3.007668 22.000000 23 357.125382
0.003259 -1.238958 2.336876 34.000000 21 357.125384
0.003256 -1.238826 1.892103 37.000000 19 357.125387
0.003255 -1.239383 1.559983 38.000000 17 357.125390
-0.014937 -0.216289 3.578413 103.000000 30 357.125397
-0.019309 -0.428068 3.947114 11.000000 29 357.125400
-0.009186 -0.910245 3.539784 4.000000 26 357.125402
0.000923 -1.288275 3.557531 24.000000 24 357.125405
0.001317 -1.240789 2.628239 29.000000 22 357.125408
0.001528 -1.240502 2.099259 37.000000 20 357.125410
0.001512 -1.229351 1.702038 37.000000 18 357.125413
0.001508 -1.228405 1.409979 39.000000 16 357.125415
0.004747 -1.234379 1.292825 39.000000 15 357.125373
0.004740 -1.233186 1.076394 42.000000 13 357.125375
0.004519 -1.231518 0.892037 42.000000 11 357.125378
0.004538 -1.237459 0.734045 42.000000 9 357.125381
0.004294 -1.229333 0.585005 39.000000 7 357.125383
0.004060 -1.223645 0.449387 34.000000 5 357.125386
0.004059 -1.223137 0.323695 14.000000 3 357.125388
0.003819 -1.214916 0.201807 14.000000 1 357.125391
0.002795 -1.228391 1.174846 40.000000 14 357.125399
0.002799 -1.231370 0.980161 44.000000 12 357.125401
0.002573 -1.226187 0.805882 44.000000 10 357.125404
0.002600 -1.240128 0.660744 47.000000 8 357.125406
0.002370 -1.233121 0.518083 39.000000 6 357.125409
0.002115 -1.210442 0.382660 27.000000 4 357.125411
0.001916 -1.218110 0.261895 9.000000 2 357.125414
0.001739 -1.243729 0.143847 28.000000 0 357.125416
-0.008211 -0.044688 3.654134 31.000000 31 357.125427
-0.014877 -0.594958 3.783896 10.000000 28 357.125430
-0.019510 -0.745543 3.609043 8.000000 27 357.125432
-0.007005 -1.072132 3.472650 4.000000 25 357.125435
-0.001290 -1.251393 3.007668 20.000000 23 357.125437
-0.001064 -1.236566 2.332487 34.000000 21 357.125440
-0.001066 -1.236016 1.887970 37.000000 19 357.125442
-0.001068 -1.236181 1.556146 38.000000 17 357.125445
-0.015692 -0.216235 3.578413 103.000000 30 357.125453
-0.020803 -0.427998 3.947114 11.000000 29 357.125455
-0.012294 -0.905177 3.520427 3.000000 26 357.125458
-0.003570 -1.286545 3.552839 25.000000 24 357.125460
-0.003009 -1.238609 2.623739 29.000000 22 357.125463
-0.002802 -1.240499 2.099259 37.000000 20 357.125466
-0.002772 -1.226335 1.698048 37.000000 18 357.125468
-0.002779 -1.228403 1.409979 39.000000 16 357.125471
0.000439 -1.234388 1.292825 39.000000 15 357.125428
0.000436 -1.233195 1.076394 42.000000 13 357.125431
0.000220 -1.231526 0.892037 42.000000 11 357.125434
0.000218 -1.233037 0.731727 40.000000 9 357.125436
0.000003 -1.229341 0.585005 39.000000 7 357.125439
-0.000211 -1.223652 0.449387 34.000000 5 357.125441
-0.000211 -1.223144 0.323695 14.000000 3 357.125444
-0.000420 -1.209942 0.201360 14.000000 1 357.125446
-0.001493 -1.228393 1.174846 40.000000 14 357.125454
-0.001494 -1.227331 0.977218 44.000000 12 357.125457
-0.001701 -1.221877 0.803349 45.000000 10 357.125459
-0.001723 -1.235591 0.658646 47.000000 8 357.125462
-0.001934 -1.233122 0.518083 39.000000 6 357.125464
-0.002110 -1.210442 0.382660 27.000000 4 357.125467
-0.002336 -1.218109 0.261895 9.000000 2 357.125469
-0.002602 -1.243728 0.143847 28.000000 0 357.125472
-0.008355 -0.044617 3.649134 31.000000 31 357.125483
-0.016931 -0.594126 3.778957 10.000000 28 357.125485
-0.022112 -0.745471 3.609043 8.000000 27 357.125488
-0.010763 -1.073594 3.477422 4.000000 25 357.125490
-0.005649 -1.249428 3.003065 20.000000 23 357.125493
-0.005370 -1.234159 2.328098 34.000000 21 357.125495
-0.005368 -1.233191 1.883837 37.000000 19 357.125498
-0.005384 -1.236170 1.556146 38.000000 17 357.125501
-0.016470 -0.216468 3.583404 103.000000 30 357.125508
-0.022326 -0.428456 3.952085 10.000000 29 357.125511
-0.015366 -0.900098 3.501070 3.000000 26 357.125513
-0.008050 -1.284799 3.548146 25.000000 24 357.125516
-0.007319 -1.236413 2.619238 29.000000 22 357.125519
-0.007117 -1.237874 2.094993 37.000000 20 357.125521
-0.007053 -1.226318 1.698048 37.000000 18 357.125524
-0.007048 -1.224996 1.406304 39.000000 16 357.125526
-0.003859 -1.230816 1.289320 39.000000 15 357.125484
-0.003857 -1.229296 1.073256 42.000000 13 357.125486
-0.004065 -1.227338 0.889295 42.000000 11 357.125489
-0.004086 -1.233031 0.731727 40.000000 9 357.125492
-0.004272 -1.224697 0.583132 39.000000 7 357.125494
-0.004465 -1.218846 0.447978 34.000000 5 357.125497
-0.004462 -1.218224 0.322762 14.000000 3 357.125499
-0.004643 -1.209933 0.201360 14.000000 1 357.125502
-0.005763 -1.224646 1.171521 40.000000 14 357.125510
-0.005779 -1.227318 0.977218 44.000000 12 357.125512
-0.005966 -1.221864 0.803349 45.000000 10 357.125515
-0.006036 -1.235578 0.658646 49.000000 8 357.125517
-0.006215 -1.228385 0.516440 39.000000 6 357.125520
-0.006310 -1.205567 0.381488 26.000000 4 357.125522
-0.006588 -1.218093 0.261895 9.000000 2 357.125525
-0.006916 -1.238715 0.143645 28.000000 0 357.125528
-0.008511 -0.044588 3.649134 32.000000 31 357.125538
-0.018979 -0.593287 3.774017 11.000000 28 357.125541
-0.024748 -0.746407 3.613938 8.000000 27 357.125543
-0.014510 -1.073550 3.477422 4.000000 25 357.125546
-0.010010 -1.249400 3.003065 24.000000 23 357.125548
-0.009659 -1.231737 2.323710 33.000000 21 357.125551
-0.009673 -1.233165 1.883837 37.000000 19 357.125554
-0.009673 -1.232938 1.552309 38.000000 17 357.125556
-0.017250 -0.216698 3.588396 103.000000 30 357.125564
-0.023852 -0.428908 3.957056 11.000000 29 357.125566
-0.018325 -0.891236 3.467196 3.000000 26 357.125569
-0.012501 -1.281312 3.538760 25.000000 24 357.125572
-0.011594 -1.232025 2.610236 29.000000 22 357.125574
-0.011414 -1.235234 2.090727 37.000000 20 357.125577
-0.011306 -1.223272 1.694059 37.000000 18 357.125579
-0.011292 -1.221574 1.402629 39.000000 16 357.125582
-0.008132 -1.227229 1.285816 39.000000 15 357.125539
-0.008148 -1.229275 1.073256 42.000000 13 357.125542
-0.008349 -1.227316 0.889295 42.000000 11 357.125545
-0.008360 -1.228579 0.729409 40.000000 9 357.125547
-0.008547 -1.224675 0.583132 39.000000 7 357.125550
-0.008719 -1.218823 0.447978 34.000000 5 357.125552
-0.008680 -1.213288 0.321829 14.000000 3 357.125555
-0.008830 -1.204929 0.200914 14.000000 1 357.125557
-0.010038 -1.224619 1.171521 40.000000 14 357.125565
-0.010029 -1.223248 0.974275 44.000000 12 357.125568
-0.010195 -1.217524 0.800817 45.000000 10 357.125570
-0.010349 -1.235549 0.658646 49.000000 8 357.125573
-0.010503 -1.228356 0.516440 39.000000 6 357.125575
-0.010518 -1.205537 0.381488 26.000000 4 357.125578
-0.010796 -1.213111 0.261205 8.000000 2 357.125580
-0.011240 -1.238683 0.143645 27.000000 0 357.125583
-0.008666 -0.044558 3.649134 32.000000 31 357.125594
-0.021022 -0.592440 3.769078 11.000000 28 357.125596
-0.027354 -0.746316 3.613938 10.000000 27 357.125599
-0.018258 -1.073493 3.477422 4.000000 25 357.125601
-0.014327 -1.245451 2.993860 24.000000 23 357.125604
-0.013931 -1.229300 2.319321 33.000000 21 357.125606
-0.013945 -1.230309 1.879704 37.000000 19 357.125609
-0.013977 -1.232896 1.552309 38.000000 17 357.125612
-0.018007 -0.216636 3.588396 105.000000 30 357.125619
-0.025414 -0.429888 3.966999 11.000000 29 357.125622
-0.021528 -0.894939 3.481714 3.000000 26 357.125624
-0.016927 -1.277810 3.529375 25.000000 24 357.125627
-0.015866 -1.229799 2.605735 29.000000 22 357.125630
-0.015692 -1.232579 2.086461 37.000000 20 357.125632
-0.015537 -1.220212 1.690069 37.000000 18 357.125635
-0.015513 -1.218137 1.398953 39.000000 16 357.125637
-0.012415 -1.227193 1.285816 39.000000 15 357.125595
-0.012399 -1.225346 1.070119 42.000000 13 357.125598
-0.012590 -1.223099 0.886554 40.000000 11 357.125600
-0.012649 -1.228542 0.729409 40.000000 9 357.125603
-0.012774 -1.220002 0.581259 39.000000 7 357.125605
-0.012923 -1.213988 0.446569 33.000000 5 357.125608
-0.012863 -1.208339 0.320897 13.000000 3 357.125610
-0.013036 -1.204891 0.200914 13.000000 1 357.125613
-0.014269 -1.220842 1.168196 40.000000 14 357.125621
-0.014252 -1.219164 0.971332 44.000000 12 357.125623
-0.014445 -1.217481 0.800817 45.000000 10 357.125626
-0.014608 -1.230967 0.656548 49.000000 8 357.125628
-0.014734 -1.223590 0.514797 39.000000 6 357.125631
-0.014667 -1.200633 0.380315 26.000000 4 357.125633
-0.015030 -1.213066 0.261205 8.000000 2 357.125636
-0.015501 -1.233641 0.143444 27.000000 0 357.125639
-0.008822 -0.044527 3.649134 32.000000 31 357.125649
-0.023059 -0.591587 3.764139 12.000000 28 357.125652
-0.030000 -0.747233 3.618834 10.000000 27 357.125654
-0.022005 -1.073423 3.477422 4.000000 25 357.125657
-0.018645 -1.243440 2.989258 24.000000 23 357.125659
-0.018187 -1.226848 2.314933 34.000000 21 357.125662
-0.018198 -1.227440 1.875571 37.000000 19 357.125665
-0.018233 -1.229634 1.548472 38.000000 17 357.125667
-0.018751 -0.216863 3.593387 106.000000 30 357.125675
-0.026703 -0.427671 3.947114 10.000000 29 357.125677
-0.024530 -0.896120 3.486553 5.000000 26 357.125680
-0.021107 -1.274296 3.519989 24.000000 24 357.125683
-0.020123 -1.227559 2.601234 29.000000 22 357.125685
-0.019952 -1.229909 2.082195 36.000000 20 357.125688
-0.019747 -1.217136 1.686080 37.000000 18 357.125690
-0.019553 -1.218079 1.398953 39.000000 16 357.125693
-0.016651 -1.223576 1.282311 39.000000 15 357.125650
-0.016677 -1.225296 1.070119 44.000000 13 357.125653
-0.016859 -1.223047 0.886554 40.000000 11 357.125656
-0.016876 -1.224061 0.727091 40.000000 9 357.125658
-0.016819 -1.219953 0.581259 39.000000 7 357.125661
-0.016948 -1.213939 0.446569 33.000000 5 357.125663
-0.017080 -1.208286 0.320897 13.000000 3 357.125666
-0.017171 -1.199859 0.200468 13.000000 1 357.125668
-0.018531 -1.220785 1.168196 40.000000 14 357.125676
-0.018508 -1.219107 0.971332 46.000000 12 357.125679
-0.018417 -1.213116 0.798285 45.000000 10 357.125681
-0.018689 -1.230912 0.656548 50.000000 8 357.125684
-0.018791 -1.223534 0.514797 39.000000 6 357.125686
-0.018648 -1.200578 0.380315 26.000000 4 357.125689
-0.019053 -1.213009 0.261205 8.000000 2 357.125692
-0.019591 -1.233583 0.143444 27.000000 0 357.125694
-0.008970 -0.044498 3.649134 32.000000 31 357.125705
-0.024954 -0.589955 3.754260 12.000000 28 357.125707
-0.032478 -0.747129 3.618834 11.000000 27 357.125710
-0.025564 -1.073344 3.477422 5.000000 25 357.125712
-0.022732 -1.241418 2.984655 25.000000 23 357.125715
-0.022255 -1.226781 2.314933 34.000000 21 357.125718
-0.022217 -1.224559 1.871438 37.000000 19 357.125720
-0.022252 -1.226362 1.544635 38.000000 17 357.125723
-0.019508 -0.216797 3.593387 108.000000 30 357.125730
-0.028051 -0.425444 3.927228 10.000000 29 357.125733
-0.027697 -0.897286 3.491392 6.000000 26 357.125736
-0.025452 -1.269038 3.505911 24.000000 24 357.125738
-0.024151 -1.225308 2.596734 29.000000 22 357.125741
-0.023980 -1.227228 2.077929 36.000000 20 357.125743
-0.023784 -1.217064 1.686080 37.000000 18 357.125746
-0.023738 -1.214614 1.395278 39.000000 16 357.125748
-0.020708 -1.223514 1.282311 39.000000 15 357.125706
-0.020674 -1.221341 1.066981 44.000000 13 357.125709
-0.020915 -1.222985 0.886554 42.000000 11 357.125711
-0.020935 -1.223998 0.727091 40.000000 9 357.125714
-0.020998 -1.215252 0.579386 39.000000 7 357.125716
-0.021186 -1.213872 0.446569 34.000000 5 357.125719
-0.021001 -1.203312 0.319964 13.000000 3 357.125721
-0.021149 -1.199795 0.200468 13.000000 1 357.125724
-0.022510 -1.216983 1.164871 40.000000 14 357.125732
-0.022475 -1.214998 0.968389 46.000000 12 357.125734
-0.022651 -1.213044 0.798285 45.000000 10 357.125737
-0.022901 -1.226301 0.654450 50.000000 8 357.125739
-0.023062 -1.223461 0.514797 39.000000 6 357.125742
-0.022839 -1.200505 0.380315 25.000000 4 357.125744
-0.023192 -1.207984 0.260516 8.000000 2 357.125747
-0.023897 -1.233507 0.143444 27.000000 0 357.125750
-0.009125 -0.044466 3.649134 32.000000 31 357.125761
-0.026941 -0.588312 3.744382 11.000000 28 357.125764
-0.035134 -0.748029 3.623729 11.000000 27 357.125766
-0.029311 -1.073248 3.477422 5.000000 25 357.125769
-0.026980 -1.237424 2.975450 25.000000 23 357.125771
-0.026485 -1.224301 2.310544 34.000000 21 357.125774
-0.026491 -1.224474 1.871438 37.000000 19 357.125776
-0.026464 -1.223071 1.540798 38.000000 17 357.125779
-0.020265 -0.216727 3.593387 108.000000 30 357.125787
-0.029384 -0.423213 3.907342 9.000000 29 357.125789
-0.030829 -0.897184 3.491392 5.000000 26 357.125792
-0.029800 -1.265491 3.496526 22.000000 24 357.125794
-0.028428 -1.225216 2.596734 29.000000 22 357.125797
-0.028203 -1.224530 2.073663 37.000000 20 357.125799
-0.027962 -1.213961 1.682090 37.000000 18 357.125802
-0.027900 -1.211134 1.391603 39.000000 16 357.125805
-0.024906 -1.219869 1.278807 39.000000 15 357.125762
-0.024937 -1.221262 1.066981 44.000000 13 357.125765
-0.025098 -1.218724 0.883812 42.000000 11 357.125767
-0.025116 -1.219488 0.724773 40.000000 9 357.125770
-0.025239 -1.215171 0.579386 39.000000 7 357.125773
-0.025322 -1.208995 0.445160 34.000000 5 357.125775
-0.025202 -1.203231 0.319964 13.000000 3 357.125778
-0.025232 -1.194735 0.200022 13.000000 1 357.125780
-0.026758 -1.216897 1.164871 40.000000 14 357.125788
-0.026716 -1.214912 0.968389 44.000000 12 357.125791
-0.026885 -1.212958 0.798285 45.000000 10 357.125793
-0.027182 -1.226214 0.654450 50.000000 8 357.125796
-0.027227 -1.218652 0.513155 39.000000 6 357.125798
-0.026920 -1.195559 0.379143 25.000000 4 357.125801
-0.027408 -1.207896 0.260516 8.000000 2 357.125803
-0.028203 -1.233416 0.143444 27.000000 0 357.125806
-0.009280 -0.044434 3.649134 32.000000 31 357.125817
-0.028917 -0.586662 3.734503 10.000000 28 357.125819
-0.037745 -0.747901 3.623729 12.000000 27 357.125822
-0.033057 -1.073139 3.477422 5.000000 25 357.125824
-0.031250 -1.235370 2.970848 25.000000 23 357.125827
-0.030759 -1.224201 2.310544 34.000000 21 357.125829
-0.030695 -1.221561 1.867305 37.000000 19 357.125832
-0.030733 -1.222972 1.540798 38.000000 17 357.125834
-0.021051 -0.216943 3.598379 109.000000 30 357.125842
-0.030663 -0.420446 3.882485 8.000000 29 357.125845
-0.033961 -0.897071 3.491392 5.000000 26 357.125847
-0.034077 -1.260205 3.482447 19.000000 24 357.125850
-0.032646 -1.222933 2.592233 29.000000 22 357.125852
-0.032478 -1.224424 2.073663 37.000000 20 357.125855
-0.032120 -1.210843 1.678101 37.000000 18 357.125858
-0.032037 -1.207640 1.387928 39.000000 16 357.125860
-0.029164 -1.219774 1.278807 39.000000 15 357.125818
-0.029107 -1.217276 1.063843 44.000000 13 357.125820
-0.029352 -1.218629 0.883812 40.000000 11 357.125823
-0.029373 -1.219393 0.724773 40.000000 9 357.125825
-0.029369 -1.210441 0.577513 39.000000 7 357.125828
-0.029542 -1.208899 0.445160 34.000000 5 357.125831
-0.029281 -1.198225 0.319031 13.000000 3 357.125833
-0.029402 -1.194640 0.200022 11.000000 1 357.125836
-0.030910 -1.213063 1.161546 40.000000 14 357.125843
-0.030854 -1.210770 0.965446 46.000000 12 357.125846
-0.031009 -1.208547 0.795752 45.000000 10 357.125849
-0.031345 -1.221574 0.652352 49.000000 8 357.125851
-0.031481 -1.218550 0.513155 39.000000 6 357.125854
-0.031093 -1.195457 0.379143 25.000000 4 357.125856
-0.031495 -1.202843 0.259826 8.000000 2 357.125859
-0.032508 -1.233310 0.143444 26.000000 0 357.125861
-0.009435 -0.044401 3.649134 26.000000 31 357.125872
-0.030840 -0.584230 3.719685 10.000000 28 357.125875
-0.040355 -0.747765 3.623729 12.000000 27 357.125877
-0.036803 -1.073017 3.477422 5.000000 25 357.125880
-0.035506 -1.233300 2.966245 25.000000 23 357.125882
-0.034963 -1.221692 2.306155 34.000000 21 357.125885
-0.034878 -1.218634 1.863172 37.000000 19 357.125887
-0.034910 -1.219652 1.536961 38.000000 17 357.125890
-0.021808 -0.216869 3.598379 108.000000 30 357.125898
-0.031922 -0.417675 3.857628 8.000000 29 357.125900
-0.037092 -0.896947 3.491392 5.000000 26 357.125903
-0.038318 -1.254903 3.468369 19.000000 24 357.125905
-0.036849 -1.220634 2.587732 30.000000 22 357.125908
-0.036673 -1.221696 2.069398 37.000000 20 357.125911
-0.036346 -1.210723 1.678101 37.000000 18 357.125913
-0.036253 -1.207521 1.387928 39.000000 16 357.125916
-0.033324 -1.216100 1.275302 39.000000 15 357.125873
-0.033356 -1.217167 1.063843 44.000000 13 357.125876
-0.033490 -1.214339 0.881071 40.000000 11 357.125878
-0.033507 -1.214855 0.722455 40.000000 9 357.125881
-0.033594 -1.210331 0.577513 39.000000 7 357.125884
-0.033628 -1.203993 0.443751 34.000000 5 357.125886
-0.033464 -1.198115 0.319031 13.000000 3 357.125889
-0.033432 -1.189552 0.199576 11.000000 1 357.125891
-0.035144 -1.212948 1.161546 40.000000 14 357.125899
-0.035080 -1.210655 0.965446 44.000000 12 357.125902
-0.035227 -1.208431 0.795752 47.000000 10 357.125904
-0.035609 -1.221458 0.652352 47.000000 8 357.125907
-0.035734 -1.218432 0.513155 39.000000 6 357.125909
-0.035266 -1.195342 0.379143 25.000000 4 357.125912
-0.035693 -1.202725 0.259826 8.000000 2 357.125914
-0.036813 -1.233189 0.143444 26.000000 0 357.125917
-0.009590 -0.044368 3.649134 26.000000 31 357.125928
-0.032747 -0.581791 3.704868 10.000000 28 357.125930
-0.042965 -0.747620 3.623729 15.000000 27 357.125933
-0.040548 -1.072882 3.477422 5.000000 25 357.125935
-0.039747 -1.231216 2.961643 25.000000 23 357.125938
-0.039150 -1.219167 2.301766 34.000000 21 357.125940
-0.039041 -1.215692 1.859039 37.000000 19 357.125943
-0.039167 -1.219523 1.536961 38.000000 17 357.125945
-0.022527 -0.216795 3.598379 108.000000 30 357.125953
-0.033177 -0.415970 3.842714 8.000000 29 357.125956
-0.040122 -0.898076 3.496231 5.000000 26 357.125958
-0.042420 -1.253045 3.463676 20.000000 24 357.125961
-0.041037 -1.218322 2.583231 30.000000 22 357.125963
-0.040850 -1.218954 2.065132 37.000000 20 357.125966
-0.040471 -1.207577 1.674111 37.000000 18 357.125969
-0.040144 -1.204006 1.384253 39.000000 16 357.125971
-0.037569 -1.215977 1.275302 39.000000 15 357.125929
-0.037484 -1.213152 1.060705 42.000000 13 357.125931
-0.037729 -1.214214 0.881071 40.000000 11 357.125934
-0.037747 -1.214730 0.722455 42.000000 9 357.125937
-0.037607 -1.210213 0.577513 39.000000 7 357.125939
-0.037620 -1.203875 0.443751 33.000000 5 357.125942
-0.037492 -1.193081 0.318099 12.000000 3 357.125944
-0.037585 -1.189428 0.199576 13.000000 1 357.125947
-0.039257 -1.209085 1.158221 40.000000 14 357.125955
-0.039175 -1.206486 0.962502 46.000000 12 357.125957
-0.039094 -1.203998 0.793220 47.000000 10 357.125960
-0.039512 -1.216797 0.650254 49.000000 8 357.125962
-0.039620 -1.213587 0.511512 39.000000 6 357.125965
-0.039070 -1.190360 0.377971 24.000000 4 357.125967
-0.039518 -1.197651 0.259136 8.000000 2 357.125970
-0.040737 -1.228067 0.143242 28.000000 0 357.125972
-0.009737 -0.044336 3.649134 32.000000 31 357.125983
-0.034536 -0.579353 3.690050 8.000000 28 357.125986
-0.045444 -0.747473 3.623729 22.000000 27 357.125988
-0.044106 -1.072742 3.477422 6.000000 25 357.125991
-0.043830 -1.231077 2.961643 25.000000 23 357.125993
-0.043108 -1.216637 2.297378 34.000000 21 357.125996
-0.043073 -1.215556 1.859039 38.000000 19 357.125998
-0.043097 -1.216183 1.533124 38.000000 17 357.126001
-0.023284 -0.216715 3.598379 108.000000 30 357.126009
-0.034584 -0.415320 3.837742 8.000000 29 357.126011
-0.043257 -0.897930 3.496231 5.000000 26 357.126014
-0.046665 -1.249440 3.454291 20.000000 24 357.126016
-0.044996 -1.216003 2.578730 30.000000 22 357.126019
-0.044892 -1.218812 2.065132 37.000000 20 357.126022
-0.044364 -1.204424 1.670122 37.000000 18 357.126024
-0.044346 -1.203859 1.384253 39.000000 16 357.126027
-0.041479 -1.212281 1.271798 39.000000 15 357.125984
-0.041507 -1.213021 1.060705 44.000000 13 357.125987
-0.041611 -1.209904 0.878329 40.000000 11 357.125989
-0.041623 -1.210171 0.720137 40.000000 9 357.125992
-0.041671 -1.205441 0.575639 39.000000 7 357.125995
-0.041656 -1.198942 0.442341 33.000000 5 357.125997
-0.041277 -1.188041 0.317166 12.000000 3 357.126000
-0.041529 -1.189297 0.199576 13.000000 1 357.126002
-0.043266 -1.208948 1.158221 40.000000 14 357.126010
-0.043176 -1.206349 0.962502 46.000000 12 357.126013
-0.043297 -1.203855 0.793220 45.000000 10 357.126015
-0.043760 -1.216651 0.650254 47.000000 8 357.126018
-0.043856 -1.213441 0.511512 39.000000 6 357.126020
-0.043225 -1.190217 0.377971 24.000000 4 357.126023
-0.043699 -1.197506 0.259136 8.000000 2 357.126025
-0.045023 -1.227917 0.143242 27.000000 0 357.126028
-0.009892 -0.044302 3.649134 32.000000 31 357.126039
-0.036410 -0.576902 3.675232 8.000000 28 357.126041
-0.048053 -0.747310 3.623729 30.000000 27 357.126044
-0.047850 -1.072582 3.477422 6.000000 25 357.126046
-0.048051 -1.228965 2.957040 25.000000 23 357.126049
-0.047262 -1.214085 2.292989 34.000000 21 357.126051
-0.047206 -1.212586 1.854906 37.000000 19 357.126054
-0.047218 -1.212821 1.529287 38.000000 17 357.126057
-0.024040 -0.216632 3.598379 108.000000 30 357.126064
-0.036174 -0.416792 3.852657 8.000000 29 357.126067
-0.046391 -0.897774 3.496231 5.000000 26 357.126069
-0.050885 -1.245821 3.444905 20.000000 24 357.126072
-0.049240 -1.215838 2.578730 30.000000 22 357.126075
-0.049041 -1.216042 2.060866 37.000000 20 357.126077
-0.048447 -1.201250 1.666132 37.000000 18 357.126080
-0.048548 -1.203696 1.384253 39.000000 16 357.126082
-0.045710 -1.212129 1.271798 40.000000 15 357.126040
-0.045594 -1.208978 1.057568 40.000000 13 357.126042
-0.045834 -1.209751 0.878329 40.000000 11 357.126045
-0.045847 -1.210018 0.720137 42.000000 9 357.126048
-0.045879 -1.205289 0.575639 39.000000 7 357.126050
-0.045841 -1.198789 0.442341 33.000000 5 357.126053
-0.045236 -1.182981 0.316234 12.000000 3 357.126055
-0.045680 -1.189145 0.199576 13.000000 1 357.126058
-0.047339 -1.205059 1.154897 42.000000 14 357.126066
-0.047228 -1.202152 0.959559 46.000000 12 357.126068
-0.047329 -1.199388 0.790687 44.000000 10 357.126071
-0.048006 -1.216491 0.650254 47.000000 8 357.126073
-0.047904 -1.208562 0.509869 39.000000 6 357.126076
-0.047379 -1.190058 0.377971 24.000000 4 357.126078
-0.047681 -1.192397 0.258446 8.000000 2 357.126081
-0.049109 -1.222761 0.143040 26.000000 0 357.126083
-0.010060 -0.044309 3.654134 32.000000 31 357.126094
-0.038319 -0.575221 3.665354 11.000000 28 357.126097
-0.050661 -0.747137 3.623729 35.000000 27 357.126099
-0.051594 -1.072408 3.477422 5.000000 25 357.126102
-0.052257 -1.226838 2.952438 25.000000 23 357.126104
-0.051398 -1.211519 2.288600 34.000000 21 357.126107
-0.051319 -1.209602 1.850773 38.000000 19 357.126109
-0.051451 -1.212649 1.529287 38.000000 17 357.126112
-0.024796 -0.216547 3.598379 108.000000 30 357.126120
-0.037678 -0.417195 3.857628 9.000000 29 357.126122
-0.049525 -0.897606 3.496231 5.000000 26 357.126125
-0.055157 -1.243912 3.440212 20.000000 24 357.126127
-0.053388 -1.213484 2.574229 29.000000 22 357.126130
-0.053285 -1.215863 2.060866 37.000000 20 357.126133
-0.052640 -1.201074 1.666132 37.000000 18 357.126135
-0.052601 -1.200133 1.380578 39.000000 16 357.126138
-0.049794 -1.208399 1.268293 40.000000 15 357.126095
-0.049814 -1.208812 1.057568 40.000000 13 357.126098
-0.049884 -1.205406 0.875588 42.000000 11 357.126101
-0.049887 -1.205424 0.717819 42.000000 9 357.126103
-0.049893 -1.200489 0.573766 39.000000 7 357.126106
-0.049825 -1.193829 0.440932 33.000000 5 357.126108
-0.049160 -1.177908 0.315301 12.000000 3 357.126111
-0.049622 -1.184002 0.199129 13.000000 1 357.126113
-0.051545 -1.204886 1.154897 42.000000 14 357.126121
-0.051424 -1.201980 0.959559 46.000000 12 357.126124
-0.051515 -1.199216 0.790687 45.000000 10 357.126126
-0.052057 -1.211782 0.648156 47.000000 8 357.126129
-0.052123 -1.208387 0.509869 38.000000 6 357.126131
-0.051323 -1.185030 0.376798 24.000000 4 357.126134
-0.051627 -1.187276 0.257756 9.000000 2 357.126136
-0.053377 -1.222582 0.143040 26.000000 0 357.126139
-0.010214 -0.044273 3.654134 32.000000 31 357.126150
-0.040217 -0.573534 3.655475 11.000000 28 357.126152
-0.053196 -0.745941 3.618834 35.000000 27 357.126155
-0.055337 -1.072221 3.477422 5.000000 25 357.126157
-0.056449 -1.224696 2.947835 25.000000 23 357.126160
-0.055516 -1.208939 2.284212 34.000000 21 357.126162
-0.055412 -1.206605 1.846640 38.000000 19 357.126165
-0.055536 -1.209260 1.525450 39.000000 17 357.126168
-0.025552 -0.216459 3.598379 108.000000 30 357.126175
-0.039185 -0.417592 3.862599 10.000000 29 357.126178
-0.052658 -0.897428 3.496231 5.000000 26 357.126180
-0.059334 -1.240264 3.430827 21.000000 24 357.126183
-0.057520 -1.211115 2.569729 29.000000 22 357.126186
-0.057406 -1.213065 2.056600 37.000000 20 357.126188
-0.056689 -1.197872 1.662143 37.000000 18 357.126191
-0.056790 -1.199942 1.380578 39.000000 16 357.126193
-0.053853 -1.204655 1.264788 40.000000 15 357.126151
-0.053859 -1.204742 1.054430 44.000000 13 357.126153
-0.054091 -1.205225 0.875588 40.000000 11 357.126156
-0.054095 -1.205243 0.717819 42.000000 9 357.126159
-0.054083 -1.200308 0.573766 39.000000 7 357.126161
-0.053992 -1.193647 0.440932 33.000000 5 357.126164
-0.053272 -1.177729 0.315301 12.000000 3 357.126166
-0.053754 -1.183822 0.199129 13.000000 1 357.126169
-0.055578 -1.200968 1.151572 42.000000 14 357.126177
-0.055432 -1.197755 0.956616 46.000000 12 357.126179
-0.055701 -1.199029 0.790687 45.000000 10 357.126182
-0.056287 -1.211593 0.648156 47.000000 8 357.126184
-0.056121 -1.203481 0.508227 38.000000 6 357.126187
-0.055459 -1.184843 0.376798 24.000000 4 357.126189
-0.055771 -1.187089 0.257756 9.000000 2 357.126192
-0.057408 -1.217398 0.142839 26.000000 0 357.126195
-0.010369 -0.044237 3.654134 33.000000 31 357.126205
-0.042103 -0.571840 3.645597 12.000000 28 357.126208
-0.055799 -0.745750 3.618834 54.000000 27 357.126210
-0.059079 -1.072022 3.477422 5.000000 25 357.126213
-0.060627 -1.222540 2.943233 25.000000 23 357.126215
-0.059736 -1.208738 2.284212 35.000000 21 357.126218
-0.059623 -1.206404 1.846640 38.000000 19 357.126221
-0.059599 -1.205856 1.521614 38.000000 17 357.126223
-0.026307 -0.216369 3.598379 108.000000 30 357.126231
-0.040695 -0.417984 3.867571 10.000000 29 357.126233
-0.055790 -0.897239 3.496231 5.000000 26 357.126236
-0.063575 -1.238326 3.426134 22.000000 24 357.126239
-0.061748 -1.210906 2.569729 29.000000 22 357.126241
-0.061508 -1.210252 2.052334 37.000000 20 357.126244
-0.060870 -1.197667 1.662143 37.000000 18 357.126246
-0.060806 -1.196350 1.376902 39.000000 16 357.126249
-0.058057 -1.204460 1.264788 39.000000 15 357.126206
-0.058064 -1.204546 1.054430 44.000000 13 357.126209
-0.058096 -1.200852 0.872846 40.000000 11 357.126212
-0.058087 -1.200622 0.715501 40.000000 9 357.126214
-0.058273 -1.200111 0.573766 39.000000 7 357.126217
-0.058158 -1.193452 0.440932 32.000000 5 357.126219
-0.057143 -1.172630 0.314368 12.000000 3 357.126222
-0.057643 -1.178653 0.198683 13.000000 1 357.126224
-0.059770 -1.200767 1.151572 42.000000 14 357.126232
-0.059613 -1.197555 0.956616 46.000000 12 357.126235
-0.059671 -1.194521 0.788155 45.000000 10 357.126237
-0.060289 -1.206856 0.646058 47.000000 8 357.126240
-0.060321 -1.203278 0.508227 38.000000 6 357.126242
-0.059350 -1.179788 0.375626 24.000000 4 357.126245
-0.059665 -1.181941 0.257067 9.000000 2 357.126247
-0.061658 -1.217190 0.142839 26.000000 0 357.126250
-0.010523 -0.044201 3.654134 33.000000 31 357.126261
-0.043979 -0.570141 3.635718 15.000000 28 357.126263
-0.058402 -0.745551 3.618834 62.000000 27 357.126266
-0.062821 -1.071809 3.477422 5.000000 25 357.126268
-0.064791 -1.220370 2.938630 25.000000 23 357.126271
-0.063828 -1.206130 2.279823 35.000000 21 357.126273
-0.063685 -1.203378 1.842507 38.000000 19 357.126276
-0.063638 -1.202439 1.517776 38.000000 17 357.126279
-0.027062 -0.216276 3.598379 108.000000 30 357.126286
-0.042208 -0.418371 3.872542 10.000000 29 357.126289
-0.058921 -0.897038 3.496231 5.000000 26 357.126291
-0.067708 -1.234651 3.416749 22.000000 24 357.126294
-0.065856 -1.208509 2.565228 30.000000 22 357.126297
-0.065590 -1.207426 2.048068 37.000000 20 357.126299
-0.065051 -1.197447 1.662143 37.000000 18 357.126302
-0.064982 -1.196131 1.376902 39.000000 16 357.126304
-0.062077 -1.200688 1.261284 39.000000 15 357.126262
-0.062067 -1.200449 1.051292 44.000000 13 357.126265
-0.062287 -1.200642 0.872846 40.000000 11 357.126267
-0.062278 -1.200411 0.715501 40.000000 9 357.126270
-0.062221 -1.195271 0.571893 39.000000 7 357.126272
-0.062073 -1.188451 0.439523 33.000000 5 357.126275
-0.061236 -1.172423 0.314368 12.000000 3 357.126277
-0.061757 -1.178445 0.198683 13.000000 1 357.126280
-0.063762 -1.196822 1.148247 42.000000 14 357.126288
-0.063577 -1.193303 0.953673 46.000000 12 357.126290
-0.063840 -1.194306 0.788155 45.000000 10 357.126293
-0.064502 -1.206638 0.646058 47.000000 8 357.126295
-0.064268 -1.198344 0.506584 38.000000 6 357.126298
-0.063468 -1.179574 0.375626 23.000000 4 357.126300
-0.063791 -1.181726 0.257067 8.000000 2 357.126303
-0.065636 -1.211979 0.142637 26.000000 0 357.126306
-0.010677 -0.044164 3.654134 32.000000 31 357.126316
-0.046094 -0.571532 3.645597 25.000000 28 357.126319
-0.061004 -0.745343 3.618834 54.000000 27 357.126321
-0.066562 -1.071583 3.477422 5.000000 25 357.126324
-0.068940 -1.218186 2.934027 23.000000 23 357.126326
-0.068038 -1.205899 2.279823 35.000000 21 357.126329
-0.067886 -1.203149 1.842507 38.000000 19 357.126332
-0.067654 -1.199009 1.513940 39.000000 17 357.126334
-0.027817 -0.216180 3.598379 107.000000 30 357.126342
-0.043725 -0.418752 3.877514 10.000000 29 357.126344
-0.062052 -0.896827 3.496231 5.000000 26 357.126347
-0.071916 -1.232684 3.412056 21.000000 24 357.126350
-0.070074 -1.208272 2.565228 30.000000 22 357.126352
-0.069654 -1.204586 2.043802 37.000000 20 357.126355
-0.069056 -1.194204 1.658153 37.000000 18 357.126357
-0.068961 -1.192512 1.373227 39.000000 16 357.126360
-0.066268 -1.200464 1.261284 39.000000 15 357.126317
-0.066257 -1.200225 1.051292 44.000000 13 357.126320
-0.066247 -1.196242 0.870105 40.000000 11 357.126323
-0.066468 -1.200187 0.715501 40.000000 9 357.126325
-0.066392 -1.195047 0.571893 39.000000 7 357.126328
-0.066222 -1.188227 0.439523 33.000000 5 357.126330
-0.065328 -1.172203 0.314368 12.000000 3 357.126333
-0.065870 -1.178222 0.198683 13.000000 1 357.126335
-0.067940 -1.196592 1.148247 42.000000 14 357.126343
-0.067742 -1.193074 0.953673 46.000000 12 357.126346
-0.068008 -1.194075 0.788155 45.000000 10 357.126348
-0.068713 -1.206406 0.646058 45.000000 8 357.126351
-0.068451 -1.198113 0.506584 38.000000 6 357.126353
-0.067585 -1.179345 0.375626 23.000000 4 357.126356
-0.067915 -1.181496 0.257067 9.000000 2 357.126359
-0.069866 -1.211742 0.142637 27.000000 0 357.126361
-0.010831 -0.044126 3.654134 32.000000 31 357.126372
-0.048023 -0.570594 3.640657 27.000000 28 357.126374
-0.063693 -0.746140 3.623729 54.000000 27 357.126377
-0.070204 -1.069854 3.472650 5.000000 25 357.126379
-0.073074 -1.215988 2.929425 23.000000 23 357.126382
-0.072104 -1.203263 2.275434 35.000000 21 357.126385
-0.071917 -1.200095 1.838374 38.000000 19 357.126387
-0.071839 -1.198766 1.513940 39.000000 17 357.126390
-0.028571 -0.216081 3.598379 107.000000 30 357.126397
-0.045186 -0.418597 3.877514 10.000000 29 357.126400
-0.065182 -0.896605 3.496231 5.000000 26 357.126403
-0.076112 -1.230703 3.407363 20.000000 24 357.126405
-0.074291 -1.208020 2.565228 30.000000 22 357.126408
-0.073699 -1.201733 2.039536 37.000000 20 357.126410
-0.073224 -1.193956 1.658153 37.000000 18 357.126413
-0.073123 -1.192264 1.373227 39.000000 16 357.126415
-0.070249 -1.196666 1.257779 39.000000 15 357.126373
-0.070218 -1.196100 1.048154 45.000000 13 357.126376
-0.070422 -1.196003 0.870105 42.000000 11 357.126378
-0.070657 -1.199947 0.715501 40.000000 9 357.126381
-0.070564 -1.194808 0.571893 39.000000 7 357.126383
-0.070085 -1.183199 0.438114 32.000000 5 357.126386
-0.069129 -1.167064 0.313436 11.000000 3 357.126388
-0.069687 -1.173013 0.198237 13.000000 1 357.126391
-0.071891 -1.192620 1.144922 44.000000 14 357.126399
-0.071663 -1.188795 0.950730 46.000000 12 357.126401
-0.071916 -1.189527 0.785622 45.000000 10 357.126404
-0.072924 -1.206159 0.646058 45.000000 8 357.126406
-0.072347 -1.193153 0.504941 38.000000 6 357.126409
-0.071701 -1.179102 0.375626 23.000000 4 357.126411
-0.072039 -1.181251 0.257067 8.000000 2 357.126414
-0.074095 -1.211491 0.142637 26.000000 0 357.126417
-0.010985 -0.044088 3.654134 32.000000 31 357.126427
-0.050562 -0.576615 3.680171 17.000000 28 357.126430
-0.066297 -0.745913 3.623729 70.000000 27 357.126432
-0.073938 -1.069602 3.472650 5.000000 25 357.126435
-0.077070 -1.211826 2.920220 26.000000 23 357.126437
-0.076152 -1.200613 2.271046 34.000000 21 357.126440
-0.076105 -1.199837 1.838374 38.000000 19 357.126442
-0.075820 -1.195308 1.510103 39.000000 17 357.126445
-0.029288 -0.215986 3.598379 107.000000 30 357.126453
-0.046634 -0.418975 3.882485 10.000000 29 357.126455
-0.068155 -0.896384 3.496231 6.000000 26 357.126458
-0.080081 -1.228722 3.402670 20.000000 24 357.126460
-0.078366 -1.205580 2.560727 30.000000 22 357.126463
-0.077893 -1.201468 2.039536 37.000000 20 357.126465
-0.077197 -1.190685 1.654164 38.000000 18 357.126468
-0.076858 -1.188632 1.369552 39.000000 16 357.126471
-0.074426 -1.196413 1.257779 39.000000 15 357.126428
-0.074393 -1.195847 1.048154 44.000000 13 357.126431
-0.074597 -1.195750 0.870105 42.000000 11 357.126433
-0.074845 -1.199694 0.715501 42.000000 9 357.126436
-0.074237 -1.189940 0.570020 39.000000 7 357.126439
-0.074008 -1.182961 0.438114 32.000000 5 357.126441
-0.073203 -1.166815 0.313436 11.000000 3 357.126444
-0.073781 -1.172763 0.198237 13.000000 1 357.126446
-0.076054 -1.192362 1.144922 44.000000 14 357.126454
-0.075813 -1.188538 0.950730 46.000000 12 357.126457
-0.075860 -1.189282 0.785622 45.000000 10 357.126459
-0.076635 -1.201381 0.643960 45.000000 8 357.126462
-0.076303 -1.192906 0.504941 38.000000 6 357.126464
-0.075300 -1.174007 0.374454 22.000000 4 357.126467
-0.075956 -1.181006 0.257067 9.000000 2 357.126469
-0.078112 -1.211239 0.142637 26.000000 0 357.126472
-0.011117 -0.044010 3.649134 32.000000 31 357.126483
-0.052758 -0.579539 3.699928 17.000000 28 357.126485
-0.068770 -0.745689 3.623729 54.000000 27 357.126488
-0.077484 -1.069351 3.472650 5.000000 25 357.126490
-0.080958 -1.209615 2.915617 25.000000 23 357.126493
-0.079973 -1.197963 2.266657 34.000000 21 357.126495
-0.079896 -1.196771 1.834242 38.000000 19 357.126498
-0.079784 -1.195050 1.510103 39.000000 17 357.126500
-0.030042 -0.215882 3.598379 107.000000 30 357.126508
-0.048096 -0.418810 3.882485 10.000000 29 357.126511
-0.071284 -0.896141 3.496231 5.000000 26 357.126513
-0.084251 -1.226713 3.397978 20.000000 24 357.126516
-0.082363 -1.205313 2.560727 30.000000 22 357.126518
-0.081700 -1.198601 2.035270 37.000000 20 357.126521
-0.080940 -1.187416 1.650174 38.000000 18 357.126524
-0.081006 -1.188357 1.369552 39.000000 16 357.126526
-0.078393 -1.196160 1.257779 39.000000 15 357.126484
-0.078104 -1.191710 1.045017 42.000000 13 357.126486
-0.078287 -1.191324 0.867363 40.000000 11 357.126489
-0.078533 -1.195018 0.713183 42.000000 9 357.126491
-0.078390 -1.189674 0.570020 39.000000 7 357.126494
-0.078137 -1.182695 0.438114 32.000000 5 357.126497
-0.077072 -1.166566 0.313436 11.000000 3 357.126499
-0.077341 -1.167543 0.197791 14.000000 1 357.126502
-0.080008 -1.192103 1.144922 44.000000 14 357.126509
-0.079483 -1.184247 0.947787 46.000000 12 357.126512
-0.079722 -1.184709 0.783090 44.000000 10 357.126515
-0.080828 -1.201106 0.643960 43.000000 8 357.126517
-0.080467 -1.192632 0.504941 38.000000 6 357.126520
-0.079397 -1.173737 0.374454 22.000000 4 357.126522
-0.080078 -1.180734 0.257067 8.000000 2 357.126525
-0.082340 -1.210959 0.142637 26.000000 0 357.126527
-0.011271 -0.043971 3.649134 32.000000 31 357.126538
-0.055296 -0.584766 3.734503 19.000000 28 357.126541
-0.071373 -0.745444 3.623729 37.000000 27 357.126543
-0.081217 -1.069074 3.472650 5.000000 25 357.126546
-0.084905 -1.205427 2.906412 25.000000 23 357.126548
-0.084154 -1.197677 2.266657 35.000000 21 357.126551
-0.084073 -1.196484 1.834242 38.000000 19 357.126553
-0.083730 -1.191566 1.506266 39.000000 17 357.126556
-0.030795 -0.215776 3.598379 107.000000 30 357.126564
-0.049558 -0.418639 3.882485 10.000000 29 357.126566
-0.074412 -0.895886 3.496231 5.000000 26 357.126569
-0.088408 -1.224690 3.393285 20.000000 24 357.126571
-0.086414 -1.202846 2.556226 30.000000 22 357.126574
-0.085696 -1.195707 2.031004 37.000000 20 357.126577
-0.085084 -1.187126 1.650174 38.000000 18 357.126579
-0.084912 -1.184685 1.365877 39.000000 16 357.126582
-0.082322 -1.192321 1.254275 39.000000 15 357.126539
-0.082263 -1.191430 1.045017 42.000000 13 357.126542
-0.082445 -1.191043 0.867363 40.000000 11 357.126544
-0.082703 -1.194737 0.713183 40.000000 9 357.126547
-0.082542 -1.189393 0.570020 39.000000 7 357.126550
-0.081932 -1.177629 0.436705 32.000000 5 357.126552
-0.081143 -1.166290 0.313436 11.000000 3 357.126555
-0.081416 -1.167266 0.197791 14.000000 1 357.126557
-0.083905 -1.188092 1.141597 44.000000 14 357.126565
-0.083616 -1.183962 0.947787 46.000000 12 357.126568
-0.083857 -1.184423 0.783090 44.000000 10 357.126570
-0.085020 -1.200817 0.643960 45.000000 8 357.126573
-0.084295 -1.187634 0.503299 38.000000 6 357.126575
-0.083494 -1.173453 0.374454 22.000000 4 357.126578
-0.083846 -1.175507 0.256377 8.000000 2 357.126580
-0.086567 -1.210664 0.142637 26.000000 0 357.126583
-0.011424 -0.043932 3.649134 32.000000 31 357.126594
-0.057184 -0.583023 3.724625 14.000000 28 357.126596
-0.073974 -0.745190 3.623729 36.000000 27 357.126599
-0.084948 -1.068784 3.472650 5.000000 25 357.126601
-0.088824 -1.201227 2.897207 24.000000 23 357.126604
-0.088158 -1.194987 2.262269 35.000000 21 357.126606
-0.088042 -1.193377 1.830108 38.000000 19 357.126609
-0.087653 -1.188070 1.502429 39.000000 17 357.126611
-0.031548 -0.215667 3.598379 107.000000 30 357.126619
-0.050953 -0.417934 3.877514 10.000000 29 357.126622
-0.077538 -0.895621 3.496231 5.000000 26 357.126624
-0.092422 -1.220933 3.383899 20.000000 24 357.126627
-0.090449 -1.200366 2.551725 31.000000 22 357.126629
-0.089674 -1.192800 2.026738 37.000000 20 357.126632
-0.089001 -1.183816 1.646185 38.000000 18 357.126635
-0.089046 -1.184381 1.365877 39.000000 16 357.126637
-0.086483 -1.192026 1.254275 39.000000 15 357.126595
-0.086421 -1.191135 1.045017 42.000000 13 357.126597
-0.086299 -1.186578 0.864622 40.000000 11 357.126600
-0.086873 -1.194441 0.713183 40.000000 9 357.126603
-0.086356 -1.184474 0.568147 39.000000 7 357.126605
-0.086042 -1.177336 0.436705 32.000000 5 357.126608
-0.085214 -1.166000 0.313436 11.000000 3 357.126610
-0.085126 -1.162008 0.197344 14.000000 1 357.126613
-0.088052 -1.187791 1.141597 44.000000 14 357.126621
-0.087450 -1.179632 0.944843 46.000000 12 357.126623
-0.087990 -1.184123 0.783090 45.000000 10 357.126626
-0.088875 -1.195986 0.641862 43.000000 8 357.126628
-0.088440 -1.187332 0.503299 38.000000 6 357.126631
-0.087590 -1.173154 0.374454 22.000000 4 357.126633
-0.087949 -1.175207 0.256377 10.000000 2 357.126636
-0.090792 -1.210354 0.142637 26.000000 0 357.126638
-0.011563 -0.043851 3.644135 32.000000 31 357.126649
-0.059140 -0.582046 3.719685 10.000000 28 357.126652
-0.076680 -0.745940 3.628624 36.000000 27 357.126654
-0.088678 -1.068481 3.472650 5.000000 25 357.126657
-0.092715 -1.197013 2.888002 23.000000 23 357.126659
-0.092144 -1.192283 2.257880 35.000000 21 357.126662
-0.092207 -1.193063 1.830108 38.000000 19 357.126664
-0.091800 -1.187756 1.502429 39.000000 17 357.126667
-0.032301 -0.215556 3.598379 107.000000 30 357.126675
-0.052412 -0.417753 3.877514 10.000000 29 357.126677
-0.080664 -0.895345 3.496231 5.000000 26 357.126680
-0.096547 -1.218883 3.379206 20.000000 24 357.126682
-0.094467 -1.197872 2.547225 31.000000 22 357.126685
-0.093837 -1.192480 2.026738 37.000000 20 357.126688
-0.093133 -1.183498 1.646185 38.000000 18 357.126690
-0.092914 -1.180684 1.362202 39.000000 16 357.126693
-0.090373 -1.188161 1.250770 39.000000 15 357.126650
-0.090283 -1.186945 1.041879 42.000000 13 357.126653
-0.090440 -1.186269 0.864622 40.000000 11 357.126655
-0.090705 -1.189713 0.710865 40.000000 9 357.126658
-0.090490 -1.184165 0.568147 39.000000 7 357.126661
-0.090152 -1.177028 0.436705 32.000000 5 357.126663
-0.089283 -1.165695 0.313436 11.000000 3 357.126666
-0.089182 -1.161703 0.197344 13.000000 1 357.126668
-0.091909 -1.183754 1.138272 44.000000 14 357.126676
-0.091567 -1.179320 0.944843 48.000000 12 357.126679
-0.092123 -1.183809 0.783090 47.000000 10 357.126681
-0.093049 -1.195669 0.641862 43.000000 8 357.126684
-0.092217 -1.182308 0.501656 38.000000 6 357.126686
-0.091684 -1.172841 0.374454 21.000000 4 357.126689
-0.091664 -1.169956 0.255687 10.000000 2 357.126691
-0.094625 -1.205049 0.142436 26.000000 0 357.126694
-0.011716 -0.043810 3.644135 32.000000 31 357.126705
-0.060681 -0.577200 3.690050 8.000000 28 357.126707
-0.079283 -0.745668 3.628624 34.000000 27 357.126710
-0.092536 -1.069653 3.477422 5.000000 25 357.126712
-0.096577 -1.192788 2.878797 23.000000 23 357.126715
-0.096113 -1.189566 2.253491 35.000000 21 357.126717
-0.096145 -1.189928 1.825976 38.000000 19 357.126720
-0.095687 -1.184233 1.498592 39.000000 17 357.126723
-0.033015 -0.215447 3.598379 108.000000 30 357.126730
-0.053797 -0.417577 3.877514 10.000000 29 357.126733
-0.083633 -0.895073 3.496231 5.000000 26 357.126735
-0.100305 -1.215116 3.369821 20.000000 24 357.126738
-0.098648 -1.197535 2.547225 32.000000 22 357.126741
-0.097786 -1.189546 2.022472 37.000000 20 357.126743
-0.097017 -1.180162 1.642195 38.000000 18 357.126746
-0.096829 -1.180369 1.362202 39.000000 16 357.126748
-0.094520 -1.187838 1.250770 39.000000 15 357.126706
-0.094426 -1.186622 1.041879 44.000000 13 357.126708
-0.094581 -1.185946 0.864622 42.000000 11 357.126711
-0.094858 -1.189389 0.710865 40.000000 9 357.126714
-0.094417 -1.183859 0.568147 39.000000 7 357.126716
-0.093672 -1.171941 0.435295 32.000000 5 357.126719
-0.092960 -1.160480 0.312503 11.000000 3 357.126721
-0.093236 -1.161385 0.197344 12.000000 1 357.126724
-0.096040 -1.183426 1.138272 45.000000 14 357.126732
-0.095356 -1.174964 0.941900 46.000000 12 357.126734
-0.096048 -1.183497 0.783090 45.000000 10 357.126737
-0.096646 -1.190830 0.639764 43.000000 8 357.126739
-0.096137 -1.181996 0.501656 38.000000 6 357.126742
-0.095178 -1.167686 0.373282 21.000000 4 357.126744
-0.095543 -1.169646 0.255687 9.000000 2 357.126747
-0.098621 -1.204729 0.142436 26.000000 0 357.126749
-0.011861 -0.043771 3.644135 26.000000 31 357.126760
-0.062257 -0.573906 3.670293 8.000000 28 357.126763
-0.081867 -0.746413 3.633519 32.000000 27 357.126765
-0.096217 -1.070828 3.482193 5.000000 25 357.126768
-0.100204 -1.188568 2.869592 23.000000 23 357.126770
-0.100057 -1.189241 2.253491 35.000000 21 357.126773
-0.100090 -1.189603 1.825976 38.000000 19 357.126775
-0.099613 -1.183909 1.498592 39.000000 17 357.126778
-0.033767 -0.215331 3.598379 107.000000 30 357.126786
-0.055254 -0.417387 3.877514 9.000000 29 357.126788
-0.086757 -0.894775 3.496231 5.000000 26 357.126791
-0.104397 -1.213039 3.365128 20.000000 24 357.126793
-0.102432 -1.195031 2.542724 31.000000 22 357.126796
-0.101507 -1.186616 2.018206 37.000000 20 357.126799
-0.100930 -1.179834 1.642195 38.000000 18 357.126801
-0.100949 -1.180024 1.362202 39.000000 16 357.126804
-0.098459 -1.187518 1.250770 39.000000 15 357.126761
-0.098039 -1.182423 1.038741 44.000000 13 357.126764
-0.098167 -1.181459 0.861880 40.000000 11 357.126767
-0.098801 -1.189068 0.710865 40.000000 9 357.126769
-0.098548 -1.183522 0.568147 39.000000 7 357.126772
-0.097762 -1.171607 0.435295 32.000000 5 357.126774
-0.096807 -1.160165 0.312503 11.000000 3 357.126777
-0.097087 -1.161069 0.197344 12.000000 1 357.126779
-0.099964 -1.183101 1.138272 44.000000 14 357.126787
-0.099252 -1.174642 0.941900 46.000000 12 357.126790
-0.099815 -1.178859 0.780558 45.000000 10 357.126792
-0.100802 -1.190485 0.639764 42.000000 8 357.126795
-0.100262 -1.181653 0.501656 38.000000 6 357.126797
-0.099253 -1.167347 0.373282 21.000000 4 357.126800
-0.099626 -1.169305 0.255687 9.000000 2 357.126802
-0.102400 -1.199399 0.142234 26.000000 0 357.126805
-0.012014 -0.043729 3.644135 26.000000 31 357.126816
-0.063825 -0.569825 3.645597 9.000000 28 357.126818
-0.084587 -0.747135 3.638414 16.000000 27 357.126821
-0.099954 -1.070486 3.482193 5.000000 25 357.126823
-0.104181 -1.186265 2.864990 23.000000 23 357.126826
-0.103998 -1.186498 2.249103 35.000000 21 357.126828
-0.103996 -1.186443 1.821843 38.000000 19 357.126831
-0.103745 -1.183555 1.498592 39.000000 17 357.126834
-0.034519 -0.215212 3.598379 108.000000 30 357.126841
-0.056711 -0.417192 3.877514 9.000000 29 357.126844
-0.089879 -0.894467 3.496231 5.000000 26 357.126846
-0.108477 -1.210949 3.360435 21.000000 24 357.126849
-0.106409 -1.192497 2.538223 31.000000 22 357.126852
-0.105649 -1.186255 2.018206 37.000000 20 357.126854
-0.104780 -1.176473 1.638206 38.000000 18 357.126857
-0.104766 -1.176288 1.358527 39.000000 16 357.126859
-0.102296 -1.183615 1.247266 39.000000 15 357.126817
-0.102166 -1.182074 1.038741 42.000000 13 357.126819
-0.102290 -1.181109 0.861880 42.000000 11 357.126822
-0.102569 -1.184302 0.708547 40.000000 9 357.126825
-0.102679 -1.183170 0.568147 39.000000 7 357.126827
-0.101436 -1.166479 0.433886 32.000000 5 357.126830
-0.100857 -1.159820 0.312503 11.000000 3 357.126832
-0.100707 -1.155762 0.196898 14.000000 1 357.126835
-0.103766 -1.179025 1.134948 44.000000 14 357.126843
-0.103351 -1.174288 0.941900 46.000000 12 357.126845
-0.103930 -1.178503 0.780558 45.000000 10 357.126848
-0.104957 -1.190126 0.639764 43.000000 8 357.126850
-0.104386 -1.181296 0.501656 38.000000 6 357.126853
-0.103328 -1.166993 0.373282 21.000000 4 357.126855
-0.103269 -1.164018 0.254997 9.000000 2 357.126858
-0.106144 -1.194059 0.142033 27.000000 0 357.126861
-0.012181 -0.043728 3.649134 33.000000 31 357.126871
-0.065365 -0.565740 3.620900 13.000000 28 357.126874
-0.087432 -0.748857 3.648205 14.000000 27 357.126876
-0.103834 -1.071617 3.486965 5.000000 25 357.126879
-0.108144 -1.183948 2.860387 23.000000 23 357.126881
-0.108139 -1.186128 2.249103 35.000000 21 357.126884
-0.108137 -1.186073 1.821843 38.000000 19 357.126887
-0.107876 -1.183185 1.498592 39.000000 17 357.126889
-0.035270 -0.215090 3.598379 107.000000 30 357.126897
-0.058241 -0.417520 3.882485 9.000000 29 357.126899
-0.092871 -0.892897 3.491392 5.000000 26 357.126902
-0.112543 -1.208844 3.355742 21.000000 24 357.126905
-0.110571 -1.192119 2.538223 32.000000 22 357.126907
-0.109549 -1.183282 2.013940 37.000000 20 357.126910
-0.108886 -1.176100 1.638206 38.000000 18 357.126912
-0.108872 -1.175915 1.358527 39.000000 16 357.126915
-0.106427 -1.183250 1.247266 39.000000 15 357.126872
-0.106291 -1.181710 1.038741 42.000000 13 357.126875
-0.106037 -1.176581 0.859139 42.000000 11 357.126878
-0.106702 -1.183937 0.708547 40.000000 9 357.126880
-0.106809 -1.182805 0.568147 39.000000 7 357.126883
-0.105507 -1.166118 0.433886 32.000000 5 357.126885
-0.104462 -1.154569 0.311570 10.000000 3 357.126888
-0.104741 -1.155404 0.196898 13.000000 1 357.126890
-0.107881 -1.178655 1.134948 44.000000 14 357.126898
-0.107081 -1.169895 0.938957 44.000000 12 357.126901
-0.107649 -1.173840 0.778025 45.000000 10 357.126903
-0.108696 -1.185233 0.637666 43.000000 8 357.126906
-0.108077 -1.176222 0.500013 38.000000 6 357.126908
-0.107401 -1.166625 0.373282 21.000000 4 357.126911
-0.106877 -1.158719 0.254307 11.000000 2 357.126913
-0.110312 -1.193681 0.142033 27.000000 0 357.126916
-0.012334 -0.043685 3.649134 33.000000 31 357.126927
-0.066970 -0.562422 3.601143 13.000000 28 357.126929
-0.090289 -0.750569 3.657995 8.000000 27 357.126932
-0.107574 -1.071248 3.486965 5.000000 25 357.126934
-0.112091 -1.181619 2.855785 23.000000 23 357.126937
-0.112053 -1.183358 2.244714 35.000000 21 357.126939
-0.112011 -1.182887 1.817710 38.000000 19 357.126942
-0.111703 -1.179610 1.494755 39.000000 17 357.126945
-0.036020 -0.214965 3.598379 107.000000 30 357.126952
-0.059775 -0.417842 3.887456 9.000000 29 357.126955
-0.095987 -0.892567 3.491392 5.000000 26 357.126957
-0.116596 -1.206727 3.351050 21.000000 24 357.126960
-0.114523 -1.189558 2.533722 32.000000 22 357.126963
-0.113429 -1.180296 2.009674 37.000000 20 357.126965
-0.112991 -1.175712 1.638206 38.000000 18 357.126968
