# .PCD v.7 - Point Cloud Data file format
VERSION .7
FIELDS x y z intensity ring timestamp
SIZE 4 4 4 4 2 8
TYPE F F F F U D
COUNT 1 1 1 1 1 1
WIDTH 930
HEIGHT 1
VIEWPOINT 0 0 0 1 0 0 0
POINTS 930
DATA ascii
-3.516917 3.698286 3.430634 9.000000 11 358.862449
-3.304251 3.474656 2.595421 10.000000 9 358.862451
-3.149941 3.313545 1.935461 11.000000 7 358.862454
-0.436452 0.459278 0.276056 4.000000 5 358.862456
-0.422980 0.445101 0.208050 4.000000 3 358.862459
-0.411449 0.433118 0.146477 6.000000 1 358.862461
-2.122363 2.238057 2.827296 79.000000 14 358.862469
-3.417243 3.603534 3.699642 10.000000 12 358.862472
-3.406237 3.593184 2.993898 10.000000 10 358.862474
-3.104422 3.274807 2.173440 9.000000 8 358.862477
-3.131780 3.304822 1.672890 10.000000 6 358.862479
-0.417948 0.441192 0.237293 4.000000 4 358.862482
-0.428957 0.452972 0.179117 7.000000 2 358.862484
-0.408536 0.431558 0.117648 5.000000 0 358.862487
-0.023681 0.036206 3.404144 95.000000 31 358.862498
-0.355059 0.395413 3.378876 82.000000 28 358.862500
-0.465005 0.519109 3.374072 51.000000 27 358.862503
-1.073947 1.152722 5.080721 89.000000 25 358.862505
-1.455549 1.545101 5.060394 95.000000 23 358.862508
-1.124104 1.192848 3.069782 28.000000 21 358.862510
-1.187356 1.259973 2.615369 32.000000 19 358.862513
-1.410663 1.496944 2.538404 8.000000 17 358.862516
-0.130297 0.159675 3.393723 96.000000 30 358.862523
-0.239860 0.280017 3.390315 87.000000 29 358.862526
-0.887210 0.965909 5.083490 87.000000 26 358.862528
-1.263229 1.345639 5.073295 85.000000 24 358.862531
-1.650235 1.756681 5.045187 91.000000 22 358.862534
-1.149552 1.223274 2.815936 11.000000 20 358.862536
-1.300069 1.383449 2.587706 27.000000 18 358.862539
-1.553946 1.653616 2.538254 8.000000 16 358.862541
-1.922767 2.035391 2.831321 77.000000 15 358.862499
-2.597828 2.750002 3.131638 86.000000 13 358.862501
-3.498245 3.704460 3.425151 8.000000 11 358.862504
-3.298186 3.492611 2.600057 10.000000 9 358.862507
-3.112896 3.297552 1.920477 11.000000 7 358.862509
-0.418052 0.443002 0.207117 4.000000 3 358.862514
-0.409934 0.434552 0.146477 6.000000 1 358.862517
-2.114538 2.245451 2.827296 79.000000 14 358.862525
-3.385246 3.594841 3.679039 11.000000 12 358.862527
-3.402539 3.614470 3.001495 10.000000 10 358.862530
-3.071196 3.262491 2.158754 9.000000 8 358.862532
-3.094335 3.288221 1.659749 9.000000 6 358.862535
-0.429727 0.456810 0.241982 4.000000 4 358.862537
-0.423981 0.450859 0.178428 7.000000 2 358.862540
-0.407027 0.432981 0.117648 5.000000 0 358.862543
-0.023555 0.036289 3.404144 94.000000 31 358.862553
-0.353677 0.396650 3.378876 82.000000 28 358.862556
-0.463190 0.520729 3.374072 53.000000 27 358.862558
-1.069916 1.156463 5.080721 89.000000 25 358.862561
-1.451481 1.551599 5.064997 95.000000 23 358.862563
-1.121571 1.198514 3.074171 29.000000 21 358.862566
-1.184874 1.266165 2.619502 33.000000 19 358.862569
-1.405429 1.501859 2.538404 8.000000 17 358.862571
-0.129738 0.160129 3.393723 96.000000 30 358.862579
-0.238881 0.280853 3.390315 88.000000 29 358.862581
-0.883833 0.969000 5.083490 87.000000 26 358.862584
-1.257347 1.348778 5.068602 85.000000 24 358.862587
-1.650035 1.768801 5.063191 96.000000 22 358.862589
-1.147055 1.229186 2.820202 11.000000 20 358.862592
-1.295232 1.387979 2.587706 30.000000 18 358.862594
-1.548165 1.659031 2.538254 8.000000 16 358.862597
-1.915650 2.042090 2.831321 77.000000 15 358.862554
-2.588213 2.759053 3.131638 86.000000 13 358.862557
-3.462410 3.692247 3.403219 7.000000 11 358.862560
-3.289005 3.507334 2.602375 10.000000 9 358.862562
-3.076002 3.281340 1.905493 8.000000 7 358.862565
-0.416503 0.444459 0.207117 5.000000 3 358.862570
-0.408415 0.435980 0.146477 6.000000 1 358.862572
-2.109237 2.255546 2.830620 81.000000 14 358.862580
-3.364395 3.597780 3.670210 11.000000 12 358.862583
-3.392846 3.629474 3.004028 10.000000 10 358.862585
-3.038093 3.249983 2.144067 9.000000 8 358.862588
-3.060267 3.274849 1.648250 9.000000 6 358.862590
-0.428130 0.458307 0.241982 4.000000 4 358.862593
-0.419024 0.448716 0.177738 7.000000 2 358.862595
-0.405513 0.434399 0.117648 5.000000 0 358.862598
-0.023408 0.036332 3.399144 95.000000 31 358.862609
-0.352290 0.397882 3.378876 82.000000 28 358.862611
-0.461369 0.522343 3.374072 50.000000 27 358.862614
-1.065873 1.160191 5.080721 89.000000 25 358.862616
-1.446056 1.556656 5.064997 95.000000 23 358.862619
-1.119011 1.204177 3.078559 29.000000 21 358.862621
-1.182362 1.272355 2.623635 33.000000 19 358.862624
-1.402361 1.509104 2.542241 8.000000 17 358.862627
-0.129179 0.160580 3.393723 96.000000 30 358.862634
-0.237899 0.281685 3.390315 88.000000 29 358.862637
-0.880445 0.972079 5.083490 87.000000 26 358.862639
-1.252631 1.353158 5.068602 86.000000 24 358.862642
-1.643851 1.774550 5.063191 97.000000 22 358.862645
-1.146302 1.237008 2.828734 11.000000 20 358.862647
-1.292427 1.394703 2.591696 33.000000 18 358.862650
-1.544669 1.666911 2.541929 6.000000 16 358.862652
-1.910941 2.051374 2.834825 78.000000 15 358.862610
-2.581220 2.770919 3.134776 86.000000 13 358.862613
-3.369713 3.618628 3.326459 7.000000 11 358.862615
-3.282780 3.525278 2.607011 10.000000 9 358.862618
-3.042418 3.268304 1.892381 8.000000 7 358.862620
-0.411602 0.442314 0.206184 5.000000 3 358.862625
-0.403499 0.433757 0.146030 7.000000 1 358.862628
-2.101351 2.262895 2.830620 81.000000 14 358.862636
-3.343565 3.600616 3.661381 9.000000 12 358.862638
-3.388955 3.650774 3.011625 10.000000 10 358.862641
-2.998941 3.230632 2.125185 10.000000 8 358.862643
-3.023119 3.257818 1.635108 10.000000 6 358.862646
-0.423222 0.456235 0.240810 4.000000 4 358.862648
-0.417456 0.450176 0.177738 7.000000 2 358.862651
-0.403994 0.435812 0.117648 5.000000 0 358.862654
-0.023281 0.036413 3.399144 85.000000 31 358.862664
-0.350899 0.399109 3.378876 82.000000 28 358.862667
-0.459543 0.523950 3.374072 50.000000 27 358.862669
-1.061817 1.163905 5.080721 89.000000 25 358.862672
-1.440614 1.561695 5.064997 95.000000 23 358.862674
-1.114801 1.208075 3.078559 28.000000 21 358.862677
-1.179822 1.278542 2.627768 33.000000 19 358.862680
-1.397084 1.513991 2.542241 8.000000 17 358.862682
-0.128617 0.161030 3.393723 95.000000 30 358.862690
-0.237257 0.282924 3.395287 87.000000 29 358.862692
-0.877047 0.975147 5.083490 86.000000 26 358.862695
-1.247900 1.357523 5.068602 87.000000 24 358.862698
-1.639121 1.781880 5.067692 98.000000 22 358.862700
-1.145509 1.244841 2.837266 17.000000 20 358.862703
-1.287551 1.399205 2.591696 34.000000 18 358.862705
-1.550319 1.684767 2.560305 5.000000 16 358.862708
-1.903769 2.058032 2.834825 78.000000 15 358.862665
-2.571532 2.779912 3.134776 86.000000 13 358.862668
-3.277571 3.544408 3.249697 10.000000 11 358.862671
-3.276470 3.543221 2.611647 11.000000 9 358.862673
-3.002670 3.248266 1.875524 8.000000 7 358.862676
-0.410056 0.443748 0.206184 5.000000 3 358.862681
-0.401982 0.435163 0.146030 7.000000 1 358.862683
-2.093439 2.270216 2.830620 81.000000 14 358.862691
-3.322756 3.603351 3.652551 9.000000 12 358.862694
-3.379113 3.665751 3.014158 10.000000 10 358.862696
-2.959961 3.211047 2.106302 11.000000 8 358.862699
-2.982928 3.237096 1.620324 9.000000 6 358.862701
-0.418334 0.454135 0.239637 4.000000 4 358.862704
-0.412527 0.447988 0.177048 7.000000 2 358.862707
-0.402470 0.437220 0.117648 5.000000 0 358.862709
-0.023154 0.036495 3.399144 87.000000 31 358.862720
-0.349504 0.400331 3.378876 82.000000 28 358.862722
-0.457712 0.525551 3.374072 51.000000 27 358.862725
-1.057747 1.167604 5.080721 88.000000 25 358.862727
-1.435153 1.566714 5.064997 95.000000 23 358.862730
-1.112196 1.213726 3.082948 28.000000 21 358.862733
-1.175352 1.282653 2.627768 32.000000 19 358.862735
-1.393957 1.521222 2.546078 8.000000 17 358.862738
-0.128055 0.161478 3.393723 95.000000 30 358.862745
-0.236268 0.283750 3.395287 87.000000 29 358.862748
-0.873637 0.978202 5.083490 85.000000 26 358.862751
-1.243154 1.361870 5.068602 87.000000 24 358.862753
-1.632891 1.787590 5.067692 97.000000 22 358.862756
-1.144675 1.252682 2.845798 25.000000 20 358.862758
-1.284692 1.405916 2.595685 34.000000 18 358.862761
-1.896573 2.064665 2.834825 77.000000 15 358.862721
-2.561813 2.788872 3.134776 87.000000 13 358.862724
-3.248210 3.537348 3.233249 11.000000 11 358.862726
-3.270075 3.561162 2.616283 10.000000 9 358.862729
-2.966233 3.231405 1.860540 9.000000 7 358.862731
-0.421883 0.459756 0.273238 3.000000 5 358.862734
-0.408505 0.445176 0.206184 5.000000 3 358.862736
-0.397094 0.432893 0.145584 6.000000 1 358.862739
-2.085502 2.277510 2.830620 79.000000 14 358.862747
-3.252833 3.552326 3.590745 8.000000 12 358.862749
-3.343009 3.652084 2.993898 9.000000 10 358.862752
-2.921154 3.191230 2.087420 10.000000 8 358.862754
-2.946106 3.219616 1.607183 9.000000 6 358.862757
-0.413465 0.452006 0.238465 5.000000 4 358.862759
-0.407619 0.445771 0.176358 7.000000 2 358.862762
-0.397571 0.434934 0.117446 5.000000 0 358.862765
-0.023026 0.036575 3.399144 94.000000 31 358.862776
-0.347596 0.400961 3.373937 73.000000 28 358.862779
-0.455874 0.527145 3.374072 51.000000 27 358.862781
-1.053665 1.171289 5.080721 88.000000 25 358.862784
-1.429676 1.571714 5.064997 95.000000 23 358.862786
-1.109564 1.219373 3.087337 28.000000 21 358.862789
-1.172761 1.288829 2.631901 32.000000 19 358.862791
-1.390796 1.528449 2.549915 8.000000 17 358.862794
-0.127490 0.161924 3.393723 96.000000 30 358.862802
-0.235276 0.284573 3.395287 87.000000 29 358.862804
-0.870217 0.981246 5.083490 82.000000 26 358.862807
-1.238393 1.366202 5.068602 87.000000 24 358.862809
-1.626641 1.793279 5.067692 97.000000 22 358.862812
-1.142048 1.258602 2.850064 31.000000 20 358.862814
-1.281802 1.412624 2.599675 34.000000 18 358.862817
-1.791389 1.974231 2.968249 21.000000 16 358.862820
-1.889355 2.071273 2.834825 77.000000 15 358.862777
-2.552062 2.797797 3.134776 87.000000 13 358.862780
-3.224573 3.536306 3.222283 11.000000 11 358.862782
-3.263594 3.579102 2.620919 10.000000 9 358.862785
-2.926828 3.210905 1.843683 9.000000 7 358.862788
-0.413814 0.454134 0.270419 4.000000 5 358.862790
-0.406948 0.446600 0.206184 5.000000 3 358.862793
-0.392227 0.430595 0.145138 7.000000 1 358.862795
-2.075027 2.282013 2.827296 81.000000 14 358.862803
-3.194186 3.512820 3.540711 8.000000 12 358.862806
-3.295442 3.625448 2.963509 7.000000 10 358.862808
-2.885575 3.174540 2.070636 9.000000 8 358.862811
-2.906267 3.198425 1.592399 10.000000 6 358.862813
-0.408617 0.449848 0.237293 5.000000 4 358.862816
-0.406060 0.447191 0.176358 7.000000 2 358.862818
-0.396050 0.436319 0.117446 5.000000 0 358.862821
-0.022918 0.036694 3.404144 94.000000 31 358.862832
-0.346194 0.402172 3.373937 73.000000 28 358.862834
-0.454031 0.528734 3.374072 50.000000 27 358.862837
-1.049570 1.174960 5.080721 89.000000 25 358.862839
-1.424181 1.576695 5.064997 95.000000 23 358.862842
-1.105301 1.223238 3.087337 28.000000 21 358.862844
-1.170142 1.295003 2.636034 32.000000 19 358.862847
-1.385452 1.533295 2.549915 8.000000 17 358.862849
-0.127101 0.162598 3.398715 96.000000 30 358.862857
-0.234281 0.285393 3.395287 87.000000 29 358.862860
-0.866787 0.984277 5.083490 82.000000 26 358.862862
-1.233616 1.370516 5.068602 87.000000 24 358.862865
-1.620372 1.798947 5.067692 98.000000 22 358.862867
-1.139394 1.264518 2.854329 31.000000 20 358.862870
-1.278881 1.419329 2.603664 34.000000 18 358.862873
-1.786757 1.982991 2.971924 35.000000 16 358.862875
-1.882113 2.077855 2.834825 78.000000 15 358.862833
-2.544894 2.809574 3.137914 76.000000 13 358.862835
-3.217823 3.553739 3.227766 10.000000 11 358.862838
-3.257028 3.597041 2.625555 10.000000 9 358.862840
-2.887603 3.190168 1.826825 9.000000 7 358.862843
-0.412226 0.455576 0.270419 4.000000 5 358.862846
-0.405387 0.448017 0.206184 5.000000 3 358.862848
-0.390722 0.431962 0.145138 7.000000 1 358.862851
-2.067049 2.289243 2.827296 79.000000 14 358.862858
-3.133146 3.469948 3.487734 10.000000 12 358.862861
-3.170108 3.512115 2.864744 8.000000 10 358.862864
-2.850149 3.157640 2.053851 9.000000 8 358.862866
-2.879267 3.191019 1.584185 10.000000 6 358.862869
-0.407044 0.451272 0.237293 5.000000 4 358.862871
-0.401181 0.444928 0.175668 7.000000 2 358.862874
-0.391180 0.433988 0.117245 5.000000 0 358.862876
-0.022790 0.036774 3.404144 95.000000 31 358.862887
-0.344788 0.403378 3.373937 81.000000 28 358.862890
-0.452183 0.530315 3.374072 41.000000 27 358.862892
-1.046454 1.179734 5.085493 89.000000 25 358.862895
-1.418668 1.581656 5.064997 96.000000 23 358.862897
-1.102625 1.228872 3.091726 28.000000 21 358.862900
-1.167494 1.301174 2.640166 32.000000 19 358.862902
-1.382232 1.540508 2.553752 8.000000 17 358.862905
-0.126533 0.163040 3.398715 96.000000 30 358.862913
-0.233284 0.286209 3.395287 87.000000 29 358.862915
-0.863346 0.987297 5.083490 81.000000 26 358.862918
-1.228825 1.374814 5.068602 86.000000 24 358.862920
-1.614082 1.804592 5.067692 98.000000 22 358.862923
-1.136712 1.270431 2.858595 31.000000 20 358.862926
-1.275928 1.426031 2.607654 34.000000 18 358.862928
-1.791126 2.001848 2.990299 65.000000 16 358.862931
-1.874849 2.084413 2.834825 77.000000 15 358.862888
-2.535071 2.818440 3.137914 76.000000 13 358.862891
-3.205398 3.564950 3.227766 10.000000 11 358.862893
-3.179286 3.535912 2.574558 7.000000 9 358.862896
-2.851657 3.172646 1.811841 9.000000 7 358.862899
-0.417046 0.464149 0.273238 4.000000 5 358.862901
-0.400537 0.445776 0.205252 6.000000 3 358.862904
-0.385884 0.429618 0.144692 7.000000 1 358.862906
-2.059045 2.296444 2.827296 79.000000 14 358.862914
-3.096729 3.453778 3.461246 9.000000 12 358.862917
-3.126176 3.487844 2.836888 11.000000 10 358.862919
-2.814875 3.140532 2.037067 9.000000 8 358.862922
-2.877564 3.211602 1.589113 9.000000 6 358.862924
-0.402223 0.449069 0.236120 5.000000 4 358.862927
-0.396322 0.442636 0.174978 8.000000 2 358.862929
-0.386331 0.431629 0.117043 5.000000 0 358.862932
-0.022661 0.036853 3.404144 95.000000 31 358.862943
-0.343378 0.404579 3.373937 81.000000 28 358.862945
-0.450329 0.531890 3.374072 40.000000 27 358.862948
-1.042329 1.183380 5.085493 87.000000 25 358.862950
-1.413139 1.586599 5.064997 95.000000 23 358.862953
-1.099922 1.234502 3.096114 28.000000 21 358.862955
-1.162945 1.305241 2.640166 32.000000 19 358.862958
-1.376847 1.545323 2.553752 8.000000 17 358.862960
-0.125963 0.163481 3.398715 96.000000 30 358.862968
-0.232283 0.287021 3.395287 86.000000 29 358.862971
-0.859894 0.990305 5.083490 81.000000 26 358.862973
-1.225164 1.380385 5.073295 86.000000 24 358.862976
-1.607773 1.810215 5.067692 98.000000 22 358.862978
-1.134003 1.276341 2.862861 31.000000 20 358.862981
-1.270943 1.430476 2.607654 34.000000 18 358.862984
-1.790883 2.015691 3.001325 79.000000 16 358.862986
-1.867561 2.090944 2.834825 77.000000 15 358.862944
-2.525218 2.827272 3.137914 86.000000 13 358.862946
-3.159516 3.538688 3.194868 8.000000 11 358.862949
-3.037099 3.401583 2.472565 6.000000 9 358.862952
-2.812783 3.151453 1.794984 10.000000 7 358.862954
-0.409035 0.458443 0.270419 4.000000 5 358.862957
-0.398979 0.447171 0.205252 6.000000 3 358.862959
-0.381067 0.427246 0.144246 7.000000 1 358.862962
-2.051016 2.303617 2.827296 81.000000 14 358.862970
-3.049713 3.425322 3.422984 8.000000 12 358.862972
-3.105384 3.489075 2.829291 11.000000 10 358.862975
-2.779757 3.123217 2.020282 9.000000 8 358.862977
-2.863197 3.218099 1.587471 9.000000 6 358.862980
-0.400653 0.450471 0.236120 5.000000 4 358.862982
-0.391484 0.440316 0.174289 8.000000 2 358.862985
-0.384822 0.432974 0.117043 5.000000 0 358.862987
-0.022532 0.036932 3.404144 95.000000 31 358.862998
-0.341963 0.405776 3.373937 80.000000 28 358.863001
-0.448470 0.533459 3.374072 51.000000 27 358.863003
-1.038192 1.187011 5.085493 85.000000 25 358.863006
-1.407592 1.591522 5.064997 95.000000 23 358.863008
-1.097194 1.240129 3.100503 28.000000 21 358.863011
-1.160246 1.311400 2.644300 32.000000 19 358.863013
-1.369320 1.547719 2.549915 7.000000 17 358.863016
-0.125391 0.163920 3.398715 96.000000 30 358.863024
-0.231280 0.287830 3.395287 87.000000 29 358.863026
-0.856432 0.993300 5.083490 84.000000 26 358.863029
-1.220338 1.384654 5.073295 85.000000 24 358.863031
-1.601444 1.815816 5.067692 97.000000 22 358.863034
-1.129540 1.280292 2.862861 31.000000 20 358.863037
-1.267936 1.437164 2.611643 34.000000 18 358.863039
-1.783836 2.021930 3.001325 79.000000 16 358.863042
-1.860251 2.097451 2.834825 77.000000 15 358.862999
-2.515333 2.836070 3.137914 82.000000 13 358.863002
-3.136049 3.537179 3.183902 8.000000 11 358.863004
-2.757756 3.110502 2.261625 9.000000 9 358.863007
-2.777166 3.133497 1.780000 10.000000 7 358.863010
-0.404251 0.456277 0.269010 4.000000 5 358.863012
-0.394158 0.444884 0.204319 6.000000 3 358.863015
-0.379573 0.428573 0.144246 7.000000 1 358.863017
-2.045436 2.313560 2.830620 79.000000 14 358.863025
-2.965452 3.354184 3.343519 8.000000 12 358.863028
-3.078910 3.483741 2.816628 14.000000 10 358.863030
-2.747799 3.109096 2.005596 9.000000 8 358.863033
-2.851947 3.228074 1.587471 9.000000 6 358.863035
-0.395861 0.448223 0.234948 5.000000 4 358.863038
-0.386667 0.437967 0.173599 8.000000 2 358.863040
-0.380002 0.430569 0.116841 5.000000 0 358.863043
-0.022403 0.037011 3.404144 95.000000 31 358.863054
-0.340545 0.406967 3.373937 81.000000 28 358.863056
-0.446605 0.535021 3.374072 50.000000 27 358.863059
-1.034042 1.190627 5.085493 84.000000 25 358.863061
-1.402028 1.596426 5.064997 95.000000 23 358.863064
-1.094439 1.245751 3.104891 29.000000 21 358.863066
-1.157519 1.317557 2.648432 32.000000 19 358.863069
-1.363909 1.552489 2.549915 7.000000 17 358.863072
-0.124819 0.164356 3.398715 96.000000 30 358.863079
-0.230274 0.288636 3.395287 87.000000 29 358.863082
-0.852960 0.996284 5.083490 84.000000 26 358.863084
-1.216633 1.390204 5.077988 84.000000 24 358.863087
-1.595096 1.821395 5.067692 97.000000 22 358.863090
-1.126783 1.286188 2.867127 31.000000 20 358.863092
-1.264897 1.443848 2.615633 34.000000 18 358.863095
-1.781235 2.033244 3.008675 79.000000 16 358.863097
-1.852918 2.103931 2.834825 77.000000 15 358.863055
-2.505418 2.844833 3.137914 52.000000 13 358.863057
-3.015924 3.425705 3.076985 10.000000 11 358.863060
-2.711752 3.080208 2.233809 9.000000 9 358.863063
-2.741709 3.115331 1.765015 10.000000 7 358.863065
-0.399487 0.454083 0.267601 4.000000 5 358.863068
-0.389358 0.442569 0.203387 6.000000 3 358.863070
-0.374786 0.426156 0.143799 7.000000 1 358.863073
-2.037348 2.320686 2.830620 79.000000 14 358.863081
-2.873725 3.273389 3.255224 10.000000 12 358.863083
-3.066731 3.494467 2.816628 13.000000 10 358.863086
-2.712980 3.091380 1.988811 9.000000 8 358.863088
-2.843775 3.241559 1.589113 8.000000 6 358.863091
-0.394294 0.449602 0.234948 5.000000 4 358.863093
-0.385136 0.439314 0.173599 8.000000 2 358.863096
-0.378497 0.431893 0.116841 5.000000 0 358.863098
-0.022274 0.037089 3.404144 94.000000 31 358.863109
-0.339122 0.408153 3.373937 81.000000 28 358.863112
-0.444735 0.536577 3.374072 50.000000 27 358.863114
-1.029880 1.194230 5.085493 88.000000 25 358.863117
-1.396447 1.601310 5.064997 90.000000 23 358.863119
-1.091659 1.251369 3.109280 29.000000 21 358.863122
-1.152912 1.321589 2.648432 32.000000 19 358.863124
-1.356374 1.554825 2.546078 8.000000 17 358.863127
-0.124244 0.164791 3.398715 96.000000 30 358.863135
-0.229265 0.289438 3.395287 87.000000 29 358.863137
-0.849477 0.999255 5.083490 82.000000 26 358.863140
-1.211773 1.394442 5.077988 81.000000 24 358.863142
-1.590158 1.828595 5.072193 97.000000 22 358.863145
-1.123998 1.292081 2.871393 31.000000 20 358.863148
-1.261828 1.450528 2.619622 34.000000 18 358.863150
-1.776352 2.042007 3.012351 79.000000 16 358.863153
-1.845563 2.110386 2.834825 77.000000 15 358.863110
-2.495472 2.853561 3.137914 14.000000 13 358.863113
-2.979179 3.407878 3.052312 11.000000 11 358.863116
-2.689321 3.076313 2.224536 10.000000 9 358.863118
-2.706413 3.096955 1.750031 9.000000 7 358.863121
-0.397900 0.455475 0.267601 4.000000 5 358.863123
-0.384579 0.440226 0.202454 6.000000 3 358.863126
-0.373296 0.427462 0.143799 7.000000 1 358.863128
-2.029235 2.327784 2.830620 81.000000 14 358.863136
-2.841033 3.259026 3.231679 11.000000 12 358.863139
-3.060179 3.511652 2.821693 13.000000 10 358.863141
-2.675337 3.070036 1.969929 10.000000 8 358.863144
-2.832443 3.251466 1.589113 8.000000 6 358.863146
-0.389530 0.447310 0.233776 6.000000 4 358.863149
-0.380349 0.436921 0.172909 8.000000 2 358.863151
-0.376987 0.433212 0.116841 6.000000 0 358.863154
-0.022144 0.037166 3.404144 94.000000 31 358.863165
-0.337695 0.409334 3.373937 80.000000 28 358.863167
-0.442859 0.538126 3.374072 47.000000 27 358.863170
-1.025705 1.197817 5.085493 88.000000 25 358.863172
-1.390849 1.606175 5.064997 90.000000 23 358.863175
-1.087284 1.255172 3.109280 29.000000 21 358.863177
-1.150135 1.327732 2.652565 32.000000 19 358.863180
-1.355136 1.564397 2.553752 7.000000 17 358.863183
-0.123668 0.165224 3.398715 95.000000 30 358.863190
-0.228253 0.290237 3.395287 87.000000 29 358.863193
-0.845984 1.002214 5.083490 77.000000 26 358.863195
-1.209153 1.401276 5.087373 56.000000 24 358.863198
-1.583765 1.834135 5.072193 97.000000 22 358.863201
-1.121186 1.297971 2.875659 31.000000 20 358.863203
-1.258727 1.457205 2.623612 34.000000 18 358.863206
-1.771429 2.050761 3.016026 79.000000 16 358.863208
-1.838185 2.116816 2.834825 77.000000 15 358.863166
-2.488049 2.865194 3.141052 10.000000 13 358.863168
-2.964524 3.415100 3.049571 10.000000 11 358.863171
-2.652428 3.055572 2.203674 10.000000 9 358.863174
-2.674317 3.081874 1.736920 9.000000 7 358.863176
-0.393164 0.453237 0.266192 4.000000 5 358.863179
-0.383040 0.441566 0.202454 6.000000 3 358.863181
-0.371802 0.428762 0.143799 7.000000 1 358.863184
-2.021097 2.334853 2.830620 81.000000 14 358.863192
-2.797895 3.232250 3.196361 11.000000 12 358.863194
-3.050724 3.525572 2.824226 13.000000 10 358.863197
-2.643816 3.055332 1.955243 10.000000 8 358.863199
-2.821076 3.261333 1.589113 9.000000 6 358.863202
-0.387966 0.448667 0.233776 6.000000 4 358.863204
-0.378821 0.438246 0.172909 8.000000 2 358.863207
-0.372206 0.430745 0.116640 6.000000 0 358.863210
-0.022015 0.037243 3.404144 94.000000 31 358.863220
-0.336265 0.410511 3.373937 80.000000 28 358.863223
-0.440978 0.539669 3.374072 47.000000 27 358.863225
-1.021518 1.201390 5.085493 88.000000 25 358.863228
-1.386507 1.612501 5.069599 95.000000 23 358.863230
-1.084459 1.260776 3.113669 26.000000 21 358.863233
-1.147328 1.333872 2.656698 32.000000 19 358.863236
-1.335033 1.552104 2.526893 6.000000 17 358.863238
-0.123091 0.165654 3.398715 96.000000 30 358.863246
-0.227238 0.291031 3.395287 87.000000 29 358.863248
-0.842480 1.005161 5.083490 73.000000 26 358.863251
-1.206500 1.408109 5.096759 14.000000 24 358.863254
-1.577353 1.839652 5.072193 98.000000 22 358.863256
-1.118346 1.303856 2.879925 31.000000 20 358.863259
-1.255595 1.463877 2.627601 34.000000 18 358.863261
-1.766467 2.059505 3.019701 78.000000 16 358.863264
-1.830785 2.123219 2.834825 78.000000 15 358.863221
-2.478032 2.873861 3.141052 10.000000 13 358.863224
-2.955315 3.428594 3.052312 10.000000 11 358.863227
-2.618607 3.037967 2.185130 11.000000 9 358.863229
-2.639334 3.063094 1.721936 9.000000 7 358.863232
-0.391580 0.454607 0.266192 4.000000 5 358.863234
-0.378290 0.439179 0.201521 7.000000 3 358.863237
-0.370303 0.430057 0.143799 8.000000 1 358.863239
-2.012934 2.341893 2.830620 81.000000 14 358.863247
-2.765518 3.217474 3.172816 9.000000 12 358.863250
-3.055256 3.555820 2.839420 12.000000 10 358.863252
-2.612431 3.040446 1.940556 10.000000 8 358.863255
-2.812751 3.274743 1.590756 9.000000 6 358.863257
-0.386398 0.450019 0.233776 6.000000 4 358.863260
-0.377289 0.439565 0.172909 8.000000 2 358.863262
-0.370700 0.432041 0.116640 6.000000 0 358.863265
-0.021884 0.037320 3.404144 94.000000 31 358.863276
-0.334830 0.411682 3.373937 80.000000 28 358.863278
-0.439091 0.541205 3.374072 48.000000 27 358.863281
-1.017318 1.204949 5.085493 88.000000 25 358.863283
-1.380870 1.617331 5.069599 95.000000 23 358.863286
-1.081607 1.266375 3.118057 26.000000 21 358.863288
-1.144493 1.340009 2.660831 32.000000 19 358.863291
-1.335854 1.564068 2.538404 5.000000 17 358.863294
-0.122512 0.166083 3.398715 96.000000 30 358.863301
-0.226221 0.291823 3.395287 87.000000 29 358.863304
-0.838966 1.008096 5.083490 71.000000 26 358.863306
-1.204932 1.416255 5.110837 14.000000 24 358.863309
-1.570922 1.845147 5.072193 98.000000 22 358.863312
-1.113788 1.307752 2.879925 31.000000 20 358.863314
-1.250477 1.468251 2.627601 34.000000 18 358.863317
-1.763664 2.070821 3.027051 78.000000 16 358.863319
-1.823362 2.129597 2.834825 78.000000 15 358.863277
-2.467985 2.882493 3.141052 9.000000 13 358.863280
-2.967800 3.467480 3.076985 11.000000 11 358.863282
-2.584941 3.020163 2.166586 11.000000 9 358.863285
-2.607529 3.047631 1.708824 10.000000 7 358.863287
-0.389990 0.455971 0.266192 5.000000 5 358.863290
-0.376755 0.440496 0.201521 7.000000 3 358.863292
-0.365563 0.427562 0.143353 8.000000 1 358.863295
-2.007172 2.351746 2.833945 79.000000 14 358.863303
-2.733278 3.202512 3.149271 8.000000 12 358.863305
-3.963437 4.645504 3.672589 3.000000 10 358.863308
-2.581182 3.025377 1.925870 10.000000 8 358.863310
-2.801303 3.284541 1.590756 9.000000 6 358.863313
-0.381671 0.447666 0.232603 6.000000 4 358.863315
-0.375752 0.440880 0.172909 8.000000 2 358.863318
-0.365950 0.429530 0.116438 6.000000 0 358.863321
-0.021754 0.037396 3.404144 95.000000 31 358.863331
-0.333391 0.412848 3.373937 80.000000 28 358.863334
-0.437199 0.542734 3.374072 48.000000 27 358.863336
-1.013106 1.208493 5.085493 88.000000 25 358.863339
-1.375216 1.622141 5.069599 95.000000 23 358.863341
-1.078730 1.271970 3.122446 28.000000 21 358.863344
-1.141628 1.346142 2.664964 32.000000 19 358.863347
-1.434063 1.690974 2.730251 4.000000 17 358.863349
-0.121931 0.166510 3.398715 96.000000 30 358.863357
-0.225201 0.292611 3.395287 87.000000 29 358.863359
-0.835442 1.011018 5.083490 63.000000 26 358.863362
-1.202208 1.423089 5.120223 11.000000 24 358.863365
-1.564472 1.850619 5.072193 97.000000 22 358.863367
-1.110901 1.313623 2.884191 31.000000 20 358.863370
-1.243398 1.470306 2.623612 33.000000 18 358.863372
-1.758613 2.079553 3.030726 79.000000 16 358.863375
-1.815917 2.135948 2.834825 78.000000 15 358.863332
-2.457909 2.891090 3.141052 8.000000 13 358.863335
-2.551431 3.002161 2.148041 10.000000 9 358.863340
-2.575864 3.031982 1.695713 10.000000 7 358.863343
-0.388396 0.457330 0.266192 5.000000 5 358.863345
-0.372035 0.438065 0.200589 7.000000 3 358.863348
-0.364069 0.428836 0.143353 8.000000 1 358.863350
-1.998950 2.358738 2.833945 79.000000 14 358.863358
-2.714242 3.202782 3.140441 8.000000 12 358.863361
-4.094895 4.833654 3.806807 6.000000 10 358.863363
-2.550070 3.010128 1.911183 9.000000 8 358.863366
-2.792873 3.297904 1.592399 9.000000 6 358.863368
-0.380106 0.448996 0.232603 6.000000 4 358.863371
-0.374211 0.442188 0.172909 8.000000 2 358.863374
-0.364448 0.430805 0.116438 7.000000 0 358.863376
-0.021623 0.037472 3.404144 94.000000 31 358.863387
-0.331947 0.414009 3.373937 79.000000 28 358.863389
-0.435302 0.544257 3.374072 48.000000 27 358.863392
-1.008881 1.212022 5.085493 89.000000 25 358.863394
-1.369545 1.626932 5.069599 95.000000 23 358.863397
-1.075826 1.277561 3.126835 28.000000 21 358.863400
-1.138735 1.352271 2.669097 32.000000 19 358.863402
-1.519012 1.803869 2.899077 6.000000 17 358.863405
-0.121349 0.166934 3.398715 95.000000 30 358.863412
-0.224178 0.293395 3.395287 87.000000 29 358.863415
-0.832706 1.014901 5.088330 61.000000 26 358.863418
-1.202779 1.433888 5.143687 33.000000 24 358.863420
-1.558002 1.856069 5.072193 97.000000 22 358.863423
-1.107985 1.319490 2.888457 31.000000 20 358.863425
-1.232444 1.467713 2.611643 30.000000 18 358.863428
-1.753524 2.088276 3.034402 84.000000 16 358.863430
-1.810751 2.145000 2.838330 78.000000 15 358.863388
-2.450313 2.902627 3.144189 8.000000 13 358.863391
-3.164650 3.750157 3.301785 7.000000 11 358.863393
-2.523793 2.990735 2.134134 9.000000 9 358.863396
-2.544340 3.016151 1.682602 9.000000 7 358.863398
-0.383705 0.455015 0.264783 5.000000 5 358.863401
-0.370504 0.439361 0.200589 7.000000 3 358.863403
-0.359360 0.426296 0.142907 8.000000 1 358.863406
-1.990705 2.365701 2.833945 80.000000 14 358.863414
-2.692636 3.199867 3.128668 9.000000 12 358.863416
-4.116850 4.894108 3.842261 7.000000 10 358.863419
-2.522017 2.998173 1.898595 10.000000 8 358.863421
-2.781344 3.307632 1.592399 9.000000 6 358.863424
-0.375409 0.446599 0.231431 7.000000 4 358.863426
-0.372665 0.443492 0.172909 9.000000 2 358.863429
-0.359729 0.428249 0.116237 7.000000 0 358.863432
-0.021492 0.037547 3.404144 95.000000 31 358.863442
-0.330500 0.415166 3.373937 79.000000 28 358.863445
-0.433400 0.545773 3.374072 48.000000 27 358.863447
-1.004644 1.215536 5.085493 88.000000 25 358.863450
-1.363858 1.631702 5.069599 95.000000 23 358.863452
-1.072897 1.283146 3.131223 28.000000 21 358.863455
-1.135813 1.358397 2.673230 32.000000 19 358.863457
-1.656656 1.981323 3.167663 49.000000 17 358.863460
-0.120766 0.167357 3.398715 95.000000 30 358.863468
-0.223153 0.294176 3.395287 87.000000 29 358.863470
-0.829952 1.018777 5.093169 55.000000 26 358.863473
-1.191140 1.430122 5.115530 85.000000 24 358.863475
-1.551514 1.861496 5.072193 97.000000 22 358.863478
-1.103373 1.323350 2.888457 31.000000 20 358.863480
-1.219593 1.462747 2.595685 28.000000 18 358.863483
-1.748395 2.096988 3.038077 76.000000 16 358.863486
-1.803252 2.151307 2.838330 77.000000 15 358.863443
-2.440166 2.911163 3.144189 8.000000 13 358.863446
-3.146169 3.754771 3.296302 7.000000 11 358.863448
-2.496266 2.979152 2.120225 9.000000 9 358.863451
-2.512959 3.000137 1.669491 9.000000 7 358.863454
-0.382114 0.456352 0.264783 5.000000 5 358.863456
-0.365814 0.436885 0.199656 7.000000 3 358.863459
-0.357870 0.427548 0.142907 8.000000 1 358.863461
-1.982435 2.372636 2.833945 81.000000 14 358.863469
-2.671084 3.196839 3.116896 10.000000 12 358.863472
-4.072105 4.875360 3.816937 7.000000 10 358.863474
-2.491171 2.982575 1.883909 10.000000 8 358.863477
-2.769782 3.317321 1.592399 9.000000 6 358.863479
-0.373848 0.447907 0.231431 7.000000 4 358.863482
-0.371115 0.444790 0.172909 9.000000 2 358.863484
-0.358232 0.429502 0.116237 7.000000 0 358.863487
-0.021361 0.037622 3.404144 95.000000 31 358.863498
-0.329049 0.416317 3.373937 79.000000 28 358.863500
-0.431492 0.547283 3.374072 48.000000 27 358.863503
-1.000395 1.219035 5.085493 88.000000 25 358.863505
-1.358154 1.636453 5.069599 95.000000 23 358.863508
-1.069942 1.288727 3.135612 28.000000 21 358.863510
-1.132862 1.364518 2.677363 32.000000 19 358.863513
-1.651778 1.989560 3.171500 56.000000 17 358.863515
-0.120181 0.167777 3.398715 95.000000 30 358.863523
-0.222125 0.294953 3.395287 87.000000 29 358.863526
-0.827182 1.022646 5.098009 49.000000 26 358.863528
-1.185041 1.432941 5.110837 96.000000 24 358.863531
-1.545007 1.866900 5.072193 98.000000 22 358.863533
-1.100410 1.329202 2.892723 31.000000 20 358.863536
-1.206792 1.457708 2.579727 25.000000 18 358.863539
-1.745388 2.108301 3.045427 75.000000 16 358.863541
-1.795732 2.157588 2.838330 75.000000 15 358.863499
-2.432479 2.922655 3.147327 7.000000 13 358.863501
-3.143740 3.778587 3.307268 8.000000 11 358.863504
-2.468851 2.967413 2.106317 9.000000 9 358.863506
-2.481720 2.983940 1.656379 9.000000 7 358.863509
-0.377452 0.453994 0.263373 5.000000 5 358.863512
-0.364287 0.438159 0.199656 7.000000 3 358.863514
-0.356375 0.428795 0.142907 8.000000 1 358.863517
-1.974141 2.379541 2.833945 81.000000 14 358.863524
-2.652166 3.196811 3.108066 10.000000 12 358.863527
-3.989010 4.809900 3.756159 5.000000 10 358.863530
-2.460464 2.966798 1.869222 10.000000 8 358.863532
-2.758185 3.326969 1.592399 9.000000 6 358.863535
-0.369180 0.445466 0.230259 7.000000 4 358.863537
-0.366401 0.442269 0.172219 9.000000 2 358.863540
-0.356731 0.430750 0.116237 7.000000 0 358.863542
-0.021230 0.037696 3.404144 87.000000 31 358.863553
-0.327594 0.417463 3.373937 79.000000 28 358.863556
-0.429579 0.548786 3.374072 48.000000 27 358.863558
-0.996133 1.222520 5.085493 88.000000 25 358.863561
-1.352433 1.641184 5.069599 95.000000 23 358.863563
-1.066960 1.294302 3.140001 28.000000 21 358.863566
-1.128092 1.368465 2.677363 32.000000 19 358.863568
-1.646862 1.997787 3.175337 81.000000 17 358.863571
-0.119594 0.168196 3.398715 93.000000 30 358.863579
-0.220775 0.295298 3.390315 87.000000 29 358.863581
-0.824395 1.026507 5.102847 46.000000 26 358.863584
-1.177841 1.434401 5.101452 96.000000 24 358.863586
-1.538480 1.872282 5.072193 98.000000 22 358.863589
-1.097420 1.335050 2.896989 31.000000 20 358.863592
-1.194041 1.452599 2.563770 23.000000 18 358.863594
-1.740171 2.116999 3.049102 75.000000 16 358.863597
-1.788190 2.163844 2.838330 78.000000 15 358.863554
-2.422263 2.931128 3.147327 7.000000 13 358.863557
-3.141184 3.802433 3.318234 9.000000 11 358.863559
-2.444371 2.958936 2.094727 9.000000 9 358.863562
-2.453578 2.971137 1.645141 9.000000 7 358.863565
-0.375865 0.455309 0.263373 5.000000 5 358.863567
-0.359628 0.435640 0.198723 7.000000 3 358.863570
-0.354876 0.430036 0.142907 8.000000 1 358.863572
-1.965822 2.386418 2.833945 81.000000 14 358.863580
-2.615291 3.174851 3.078635 9.000000 12 358.863583
-2.388161 2.900155 2.292416 4.000000 10 358.863585
-2.429898 2.950844 1.854536 10.000000 8 358.863588
-2.746555 3.336577 1.592399 9.000000 6 358.863590
-0.364535 0.442999 0.229087 7.000000 4 358.863593
-0.361709 0.439721 0.171529 9.000000 2 358.863595
-0.358398 0.435851 0.116438 7.000000 0 358.863598
-0.021098 0.037770 3.404144 88.000000 31 358.863609
-0.326135 0.418604 3.373937 77.000000 28 358.863611
-0.427661 0.550282 3.374072 50.000000 27 358.863614
-0.991860 1.225990 5.085493 88.000000 25 358.863616
-1.346696 1.645895 5.069599 96.000000 23 358.863619
-1.062436 1.298019 3.140001 28.000000 21 358.863621
-1.125090 1.374571 2.681496 32.000000 19 358.863624
-1.641909 2.006005 3.179174 85.000000 17 358.863626
-0.119007 0.168612 3.398715 93.000000 30 358.863634
-0.219743 0.296067 3.390315 87.000000 29 358.863637
-0.821590 1.030363 5.107687 40.000000 26 358.863639
-1.171737 1.437167 5.096759 96.000000 24 358.863642
-1.531936 1.877641 5.072193 98.000000 22 358.863644
-1.094402 1.340893 2.901255 31.000000 20 358.863647
-1.181340 1.447418 2.547812 24.000000 18 358.863650
-1.734914 2.125687 3.052778 74.000000 16 358.863652
-1.780625 2.170072 2.838330 77.000000 15 358.863610
-2.412016 2.939565 3.147327 8.000000 13 358.863612
-3.724553 4.540795 3.935064 6.000000 11 358.863615
-2.417169 2.946898 2.080819 9.000000 9 358.863618
-2.419676 2.951004 1.630157 10.000000 7 358.863620
-0.371232 0.452908 0.261964 5.000000 5 358.863623
-0.358105 0.436893 0.198723 8.000000 3 358.863625
-0.350216 0.427420 0.142461 9.000000 1 358.863628
-1.957480 2.393265 2.833945 80.000000 14 358.863636
-2.576044 3.149544 3.046260 9.000000 12 358.863638
-2.361649 2.888448 2.277221 9.000000 10 358.863641
-2.402346 2.938226 1.841948 10.000000 8 358.863643
-2.734891 3.346144 1.592399 9.000000 6 358.863646
-0.362986 0.444269 0.229087 8.000000 4 358.863648
-0.360172 0.440981 0.171529 10.000000 2 358.863651
-0.356874 0.437100 0.116438 9.000000 0 358.863653
-0.020966 0.037843 3.404144 95.000000 31 358.863664
-0.324671 0.419740 3.373937 67.000000 28 358.863667
-0.425737 0.551771 3.374072 48.000000 27 358.863669
-0.987575 1.229445 5.085493 88.000000 25 358.863672
-1.340943 1.650586 5.069599 95.000000 23 358.863674
-1.059409 1.303579 3.144389 28.000000 21 358.863677
-1.122060 1.380674 2.685629 32.000000 19 358.863679
-1.634897 2.011724 3.179174 85.000000 17 358.863682
-0.118417 0.169027 3.398715 95.000000 30 358.863690
-0.218708 0.296832 3.390315 87.000000 29 358.863692
-0.818769 1.034210 5.112526 39.000000 26 358.863695
-1.166713 1.441248 5.096759 96.000000 24 358.863697
-1.525372 1.882977 5.072193 97.000000 22 358.863700
-1.091357 1.346731 2.905520 31.000000 20 358.863703
-1.166793 1.439825 2.527864 24.000000 18 358.863705
-1.731752 2.136998 3.060128 74.000000 16 358.863708
-1.773040 2.176275 2.838330 75.000000 15 358.863665
-2.401741 2.947967 3.147327 7.000000 13 358.863668
-3.764130 4.621856 3.992635 8.000000 11 358.863670
-2.387285 2.931272 2.064593 9.000000 9 358.863673
-2.400580 2.948647 1.624538 10.000000 7 358.863676
-0.366621 0.450480 0.260555 5.000000 5 358.863678
-0.353477 0.434330 0.197791 8.000000 3 358.863681
-0.348722 0.428640 0.142461 9.000000 1 358.863683
-1.949114 2.400084 2.833945 80.000000 14 358.863691
-2.537005 3.124003 3.013885 10.000000 12 358.863694
-2.351553 2.896674 2.277221 9.000000 10 358.863696
-2.374912 2.925452 1.829359 10.000000 8 358.863699
-2.723194 3.355670 1.592399 9.000000 6 358.863701
-0.358371 0.441758 0.227914 8.000000 4 358.863704
-0.355511 0.438389 0.170840 11.000000 2 358.863706
-0.358492 0.442224 0.116640 13.000000 0 358.863709
-0.020834 0.037916 3.404144 95.000000 31 358.863720
-0.323204 0.420870 3.373937 67.000000 28 358.863722
-0.423809 0.553254 3.374072 46.000000 27 358.863725
-0.983277 1.232884 5.085493 88.000000 25 358.863727
-1.335173 1.655257 5.069599 96.000000 23 358.863730
-1.056357 1.309133 3.148778 28.000000 21 358.863732
-1.119001 1.386772 2.689762 32.000000 19 358.863735
-1.627865 2.017418 3.179174 86.000000 17 358.863738
-0.117827 0.169439 3.398715 95.000000 30 358.863745
-0.217670 0.297594 3.390315 87.000000 29 358.863748
-0.815932 1.038051 5.117365 38.000000 26 358.863750
-1.161675 1.445312 5.096759 96.000000 24 358.863753
-1.518460 1.888555 5.072193 98.000000 22 358.863756
-1.088048 1.352754 2.909786 31.000000 20 358.863758
-1.157730 1.439394 2.519885 24.000000 18 358.863761
-1.726033 2.145972 3.063803 73.000000 16 358.863763
-1.765432 2.182451 2.838330 77.000000 15 358.863721
-2.391436 2.956333 3.147327 8.000000 13 358.863723
-3.758491 4.647973 4.003601 9.000000 11 358.863726
-2.360324 2.918918 2.050684 9.000000 9 358.863729
-2.375700 2.938982 1.615173 11.000000 7 358.863731
-0.365046 0.451757 0.260555 5.000000 5 358.863734
-0.351883 0.435623 0.197791 8.000000 3 358.863736
-0.347149 0.429915 0.142461 10.000000 1 358.863739
-1.940305 2.407211 2.833945 80.000000 14 358.863747
-2.497635 3.098664 2.981510 10.000000 12 358.863749
-2.330100 2.891845 2.267092 10.000000 10 358.863752
-2.347088 2.912933 1.816771 10.000000 8 358.863754
-2.710877 3.365628 1.592399 9.000000 6 358.863757
-0.356749 0.443069 0.227914 8.000000 4 358.863759
-0.353902 0.439689 0.170840 11.000000 2 358.863762
-0.360079 0.447364 0.116841 18.000000 0 358.863764
-0.020695 0.037992 3.404144 95.000000 31 358.863775
-0.321189 0.421434 3.368998 77.000000 28 358.863778
-0.422394 0.555614 3.378968 41.000000 27 358.863780
-0.978752 1.236480 5.085493 88.000000 25 358.863783
-1.329097 1.660139 5.069599 96.000000 23 358.863785
-1.053049 1.314866 3.153167 28.000000 21 358.863788
-1.113911 1.390864 2.689762 32.000000 19 358.863790
-1.620460 2.023371 3.179174 85.000000 17 358.863793
-0.117205 0.169870 3.398715 95.000000 30 358.863801
-0.216578 0.298390 3.390315 87.000000 29 358.863803
-0.812121 1.041035 5.117365 38.000000 26 358.863806
-1.156370 1.449560 5.096759 96.000000 24 358.863808
-1.511859 1.893844 5.072193 97.000000 22 358.863811
-1.084947 1.358582 2.914052 31.000000 20 358.863814
-1.154579 1.445782 2.523874 20.000000 18 358.863816
-1.722763 2.157283 3.071153 73.000000 16 358.863819
-1.757421 2.188906 2.838330 77.000000 15 358.863776
-2.380584 2.965078 3.147327 8.000000 13 358.863779
-3.730961 4.648673 3.992635 7.000000 11 358.863782
-2.330199 2.903364 2.034458 9.000000 9 358.863784
-2.362011 2.944054 1.613300 10.000000 7 358.863787
-0.360387 0.449349 0.259146 6.000000 5 358.863789
-0.350360 0.436848 0.197791 8.000000 3 358.863792
-0.345646 0.431124 0.142461 12.000000 1 358.863794
-1.931890 2.413970 2.833945 80.000000 14 358.863802
-2.481752 3.101051 2.975624 9.000000 12 358.863805
-2.306525 2.883129 2.254430 11.000000 10 358.863807
-2.319895 2.899844 1.804183 10.000000 8 358.863810
-2.702062 3.378759 1.594041 9.000000 6 358.863812
-0.355201 0.444312 0.227914 8.000000 4 358.863815
-0.349273 0.437053 0.170150 11.000000 2 358.863817
-0.361555 0.452584 0.117043 16.000000 0 358.863820
-0.020562 0.038064 3.404144 95.000000 31 358.863831
-0.319716 0.422552 3.368998 79.000000 28 358.863833
-0.420452 0.557086 3.378968 41.000000 27 358.863836
-0.975352 1.241063 5.090264 87.000000 25 358.863838
-1.323294 1.664768 5.069599 95.000000 23 358.863841
-1.049944 1.320409 3.157555 28.000000 21 358.863843
-1.110800 1.396947 2.693895 31.000000 19 358.863846
-1.613387 2.029015 3.179174 86.000000 17 358.863849
-0.116611 0.170278 3.398715 95.000000 30 358.863856
-0.215535 0.299144 3.390315 87.000000 29 358.863859
-0.809253 1.044858 5.122204 38.000000 26 358.863861
-1.151303 1.453588 5.096759 96.000000 24 358.863864
-1.505239 1.899110 5.072193 97.000000 22 358.863867
-1.081818 1.364405 2.918319 31.000000 20 358.863869
-1.149525 1.449803 2.523874 20.000000 18 358.863872
-1.717328 2.165939 3.074828 72.000000 16 358.863874
-1.749770 2.195028 2.838330 77.000000 15 358.863832
-2.370220 2.973370 3.147327 9.000000 13 358.863834
-2.303485 2.890692 2.020550 9.000000 9 358.863840
-2.354609 2.955907 1.615173 9.000000 7 358.863842
-0.358816 0.450605 0.259146 7.000000 5 358.863845
-0.345773 0.434226 0.196858 10.000000 3 358.863847
-0.344139 0.432328 0.142461 18.000000 1 358.863850
-1.925775 2.423622 2.837270 80.000000 14 358.863858
-2.460855 3.097037 2.963851 8.000000 12 358.863860
-2.283040 2.874283 2.241767 10.000000 10 358.863863
-2.292822 2.886601 1.791595 10.000000 8 358.863865
-2.687315 3.384472 1.592399 10.000000 6 358.863868
-0.353648 0.445549 0.227914 9.000000 4 358.863870
-0.350823 0.442149 0.170840 12.000000 2 358.863873
-0.359973 0.453844 0.117043 26.000000 0 358.863876
-0.020429 0.038136 3.404144 95.000000 31 358.863886
-0.318239 0.423666 3.368998 79.000000 28 358.863889
-0.418505 0.558550 3.378968 46.000000 27 358.863891
-0.971014 1.244460 5.090264 86.000000 25 358.863894
-1.317475 1.669377 5.069599 95.000000 23 358.863896
-1.046813 1.325946 3.161944 28.000000 21 358.863899
-1.107661 1.403025 2.698028 31.000000 19 358.863902
-1.608281 2.037151 3.183011 87.000000 17 358.863904
-0.116016 0.170684 3.398715 95.000000 30 358.863912
-0.214800 0.300329 3.395287 87.000000 29 358.863914
-0.805600 1.047676 5.122204 37.000000 26 358.863917
-1.146222 1.457597 5.096759 96.000000 24 358.863920
-1.498601 1.904353 5.072193 97.000000 22 358.863922
-1.078662 1.370222 2.922584 31.000000 20 358.863925
-1.144457 1.453807 2.523874 20.000000 18 358.863927
-1.713951 2.177249 3.082179 73.000000 16 358.863930
-1.742097 2.201122 2.838330 78.000000 15 358.863887
-2.362242 2.984678 3.150465 9.000000 13 358.863890
-2.525736 3.192397 2.753492 10.000000 11 358.863893
-2.276888 2.877869 2.006642 9.000000 9 358.863895
-2.344277 2.964108 1.615173 9.000000 7 358.863898
-0.354265 0.448091 0.257737 8.000000 5 358.863900
-0.344256 0.435430 0.196858 12.000000 3 358.863903
-0.342628 0.433527 0.142461 10.000000 1 358.863905
-1.917303 2.430330 2.837270 80.000000 14 358.863913
-2.442518 3.096088 2.955022 8.000000 12 358.863916
-2.259644 2.865308 2.229105 9.000000 10 358.863918
-2.265869 2.873205 1.779006 10.000000 8 358.863921
-2.681331 3.401248 1.595684 8.000000 6 358.863923
-0.352090 0.446780 0.227914 9.000000 4 358.863926
-0.349278 0.443371 0.170840 14.000000 2 358.863928
-0.364569 0.462947 0.117446 30.000000 0 358.863931
-0.020296 0.038207 3.404144 94.000000 31 358.863942
-0.316758 0.424774 3.368998 77.000000 28 358.863944
-0.416552 0.560007 3.378968 47.000000 27 358.863947
-0.966664 1.247842 5.090264 87.000000 25 358.863949
-1.311640 1.673966 5.069599 96.000000 23 358.863952
-1.043657 1.331478 3.166333 28.000000 21 358.863954
-1.102757 1.406882 2.698028 32.000000 19 358.863957
-1.601160 2.042753 3.183011 85.000000 17 358.863960
-0.115419 0.171088 3.398715 95.000000 30 358.863967
-0.213750 0.301077 3.395287 87.000000 29 358.863970
-0.801938 1.050482 5.122204 37.000000 26 358.863972
-1.141127 1.461590 5.096759 96.000000 24 358.863975
-1.493285 1.911288 5.076694 97.000000 22 358.863978
-1.075478 1.376033 2.926850 31.000000 20 358.863980
-1.139376 1.457793 2.523874 22.000000 18 358.863983
-1.708428 2.185889 3.085854 73.000000 16 358.863985
-1.734403 2.207190 2.838330 77.000000 15 358.863943
-2.351809 2.992905 3.150465 9.000000 13 358.863946
-2.504246 3.188041 2.742526 14.000000 11 358.863948
-2.250409 2.864896 1.992734 9.000000 9 358.863951
-2.333916 2.972273 1.615173 10.000000 7 358.863953
-0.352699 0.449325 0.257737 8.000000 5 358.863956
-0.342734 0.436629 0.196858 13.000000 3 358.863958
-0.338038 0.430802 0.142014 7.000000 1 358.863961
-1.908808 2.437007 2.837270 81.000000 14 358.863969
-2.424219 3.095049 2.946193 8.000000 12 358.863971
-2.236340 2.856206 2.216443 8.000000 10 358.863974
-2.241836 2.863230 1.768516 10.000000 8 358.863976
-0.350529 0.448007 0.227914 10.000000 4 358.863981
-0.353830 0.452389 0.172219 18.000000 2 358.863984
-0.338333 0.432731 0.115834 24.000000 0 358.863987
-0.020162 0.038278 3.404144 94.000000 31 358.863997
-0.315735 0.426502 3.373937 77.000000 28 358.864000
-0.413991 0.560638 3.374072 47.000000 27 358.864002
-0.962303 1.251209 5.090264 87.000000 25 358.864005
-1.305789 1.678534 5.069599 93.000000 23 358.864007
-1.040474 1.337004 3.170721 28.000000 21 358.864010
-1.099567 1.412944 2.702161 32.000000 19 358.864013
-1.594020 2.048329 3.183011 85.000000 17 358.864015
-0.114822 0.171490 3.398715 94.000000 30 358.864023
-0.212391 0.301385 3.390315 86.000000 29 358.864025
-0.798267 1.053275 5.122204 37.000000 26 358.864028
-1.136018 1.465564 5.096759 95.000000 24 358.864031
-1.486604 1.916489 5.076694 97.000000 22 358.864033
-1.072267 1.381840 2.931116 30.000000 20 358.864036
-1.134280 1.461761 2.523874 20.000000 18 358.864038
-1.704944 2.197196 3.093204 73.000000 16 358.864041
-1.726688 2.213231 2.838330 75.000000 15 358.863998
-2.341348 3.001096 3.150465 9.000000 13 358.864001
-2.480244 3.180277 2.728819 13.000000 11 358.864004
-2.226772 2.855267 1.981144 9.000000 9 358.864006
-2.323526 2.980402 1.615173 10.000000 7 358.864009
-0.348180 0.446770 0.256328 8.000000 5 358.864011
-0.338188 0.433948 0.195926 12.000000 3 358.864014
-0.336533 0.431980 0.142014 7.000000 1 358.864016
-1.902582 2.446604 2.840595 83.000000 14 358.864024
-2.396031 3.081157 2.925590 9.000000 12 358.864027
-2.210481 2.843573 2.201249 9.000000 10 358.864029
-2.215115 2.849538 1.755927 9.000000 8 358.864032
-3.665915 4.717557 2.167338 7.000000 6 358.864034
-0.345981 0.445389 0.226742 12.000000 4 358.864037
-0.355286 0.457533 0.172909 27.000000 2 358.864040
-0.349074 0.449695 0.116640 13.000000 0 358.864042
-0.020029 0.038348 3.404144 94.000000 31 358.864053
-0.314245 0.427602 3.373937 76.000000 28 358.864055
-0.412031 0.562080 3.374072 44.000000 27 358.864058
-0.957929 1.254560 5.090264 86.000000 25 358.864060
-1.301116 1.684629 5.074202 93.000000 23 358.864063
-1.037265 1.342523 3.175110 28.000000 21 358.864066
-1.096349 1.419000 2.706294 32.000000 19 358.864068
-1.586860 2.053881 3.183011 85.000000 17 358.864071
-0.114222 0.171889 3.398715 95.000000 30 358.864078
-0.211338 0.302124 3.390315 86.000000 29 358.864081
-0.794585 1.056055 5.122204 37.000000 26 358.864084
-1.130895 1.469520 5.096759 96.000000 24 358.864086
-1.479905 1.921666 5.076694 97.000000 22 358.864089
-1.069029 1.387640 2.935382 30.000000 20 358.864091
-1.129171 1.465712 2.523874 18.000000 18 358.864094
-1.699333 2.205820 3.096879 76.000000 16 358.864096
-1.718952 2.219244 2.838330 78.000000 15 358.864054
-2.330858 3.009251 3.150465 9.000000 13 358.864057
-2.453769 3.169078 2.712370 12.000000 11 358.864059
-2.203231 2.845508 1.969554 9.000000 9 358.864062
-2.313108 2.988494 1.615173 10.000000 7 358.864064
-0.346618 0.447982 0.256328 8.000000 5 358.864067
-0.336671 0.435126 0.195926 12.000000 3 358.864069
-0.341116 0.441030 0.142907 10.000000 1 358.864072
-1.894030 2.453230 2.840595 83.000000 14 358.864080
-2.397612 3.105499 2.940306 10.000000 12 358.864082
-2.182103 2.827380 2.183522 9.000000 10 358.864085
-2.191290 2.839289 1.745437 9.000000 8 358.864087
