# .PCD v.7 - Point Cloud Data file format
VERSION .7
FIELDS x y z intensity ring timestamp
SIZE 4 4 4 4 2 8
TYPE F F F F U D
COUNT 1 1 1 1 1 1
WIDTH 942
HEIGHT 1
VIEWPOINT 0 0 0 1 0 0 0
POINTS 942
DATA ascii
1.040315 1.069062 3.573778 93.000000 23 358.086451
1.336668 1.374068 3.578867 11.000000 21 358.086454
1.205237 1.238958 2.611236 16.000000 19 358.086456
1.203993 1.237676 2.143198 18.000000 17 358.086459
0.244017 0.216564 5.465241 37.000000 30 358.086466
0.434225 0.405349 5.488251 37.000000 29 358.086469
0.677635 0.679085 3.728513 38.000000 26 358.086472
0.915730 0.937762 3.618537 17.000000 24 358.086474
1.190538 1.220015 3.586917 10.000000 22 358.086477
1.461741 1.498443 3.494220 9.000000 20 358.086479
1.201490 1.231657 2.352326 21.000000 18 358.086482
1.274426 1.306420 2.056808 23.000000 16 358.086484
1.423414 1.466810 2.088357 20.000000 15 358.086442
2.000159 2.061130 2.397398 15.000000 13 358.086445
1.993690 2.053746 1.961208 14.000000 11 358.086447
2.012952 2.073585 1.598669 17.000000 9 358.086450
2.015892 2.075888 1.257423 19.000000 7 358.086452
2.015891 2.075162 0.939787 18.000000 5 358.086455
1.495760 1.539739 0.499027 82.000000 3 358.086457
1.381178 1.421293 0.270523 16.000000 1 358.086460
1.424709 1.463537 1.899663 39.000000 14 358.086468
2.012089 2.066917 2.183914 18.000000 12 358.086470
2.004448 2.058349 1.773269 16.000000 10 358.086473
2.030418 2.085014 1.432827 18.000000 8 358.086475
2.033581 2.087533 1.102879 20.000000 6 358.086478
1.418085 1.455200 0.580782 72.000000 4 358.086480
2.032524 2.084991 0.497812 22.000000 2 358.086483
1.381062 1.416219 0.173472 13.000000 0 358.086486
0.050754 0.034176 5.464066 38.000000 31 358.086496
0.618329 0.601214 5.483001 39.000000 28 358.086499
0.778785 0.786035 3.582400 90.000000 25 358.086504
1.044041 1.065424 3.573778 93.000000 23 358.086506
1.341456 1.369393 3.578867 11.000000 21 358.086509
1.211523 1.236753 2.615369 16.000000 19 358.086511
1.208306 1.233466 2.143198 18.000000 17 358.086514
0.244771 0.215711 5.465241 37.000000 30 358.086522
0.435637 0.403831 5.488251 37.000000 29 358.086524
0.680002 0.676715 3.728513 39.000000 26 358.086527
0.912948 0.928408 3.595074 24.000000 24 358.086529
1.193263 1.214299 3.582416 10.000000 22 358.086532
1.461480 1.487750 3.481422 9.000000 20 358.086534
1.207894 1.229605 2.356316 21.000000 18 358.086537
1.278978 1.301963 2.056808 23.000000 16 358.086540
1.428526 1.461833 2.088357 20.000000 15 358.086497
2.012783 2.059704 2.403674 15.000000 13 358.086500
2.003769 2.049764 1.963950 14.000000 11 358.086502
2.017081 2.063378 1.596351 17.000000 9 358.086505
2.029608 2.075468 1.261169 20.000000 7 358.086508
2.023122 2.068113 0.939787 18.000000 5 358.086510
1.501125 1.534509 0.499027 82.000000 3 358.086513
1.389614 1.420022 0.270969 15.000000 1 358.086515
1.435037 1.463889 1.906312 37.000000 14 358.086523
2.022121 2.062768 2.186857 18.000000 12 358.086526
2.014639 2.054418 1.775801 16.000000 10 358.086528
2.037684 2.077914 1.432827 18.000000 8 358.086531
2.040856 2.080422 1.102879 20.000000 6 358.086533
1.423156 1.450242 0.580782 67.000000 4 358.086536
2.043259 2.081418 0.498502 22.000000 2 358.086538
1.389498 1.414955 0.173673 13.000000 0 358.086541
0.050873 0.033999 5.464066 38.000000 31 358.086552
0.620424 0.599052 5.483001 39.000000 28 358.086554
0.556821 0.536589 3.741214 5.000000 27 358.086557
0.781524 0.783311 3.582400 90.000000 25 358.086559
1.047753 1.061774 3.573778 93.000000 23 358.086562
1.346228 1.364703 3.578867 11.000000 21 358.086564
1.215833 1.232517 2.615369 16.000000 19 358.086567
1.214856 1.231523 2.147036 18.000000 17 358.086569
0.245523 0.214855 5.465241 37.000000 30 358.086577
0.437044 0.402308 5.488251 37.000000 29 358.086580
0.682360 0.674337 3.728513 39.000000 26 358.086582
0.916184 0.925215 3.595074 37.000000 24 358.086585
1.197494 1.210126 3.582416 10.000000 22 358.086587
1.451991 1.467807 3.447294 13.000000 20 358.086590
1.212178 1.225381 2.356316 21.000000 18 358.086593
1.283515 1.297491 2.056808 24.000000 16 358.086595
1.431118 1.454295 2.084852 21.000000 15 358.086553
2.022691 2.055440 2.406812 15.000000 13 358.086555
2.013845 2.045737 1.966691 15.000000 11 358.086558
2.030487 2.062638 1.600987 16.000000 9 358.086560
2.033587 2.065067 1.259296 19.000000 7 358.086563
2.033695 2.064456 0.941197 18.000000 5 358.086566
1.520262 1.543257 0.502758 78.000000 3 358.086568
1.394563 1.415163 0.270969 15.000000 1 358.086571
1.461126 1.480131 1.932911 34.000000 14 358.086578
2.032149 2.058573 2.189800 17.000000 12 358.086581
2.024827 2.050441 1.778333 16.000000 10 358.086584
2.048114 2.074018 1.434926 18.000000 8 358.086586
2.054743 2.080004 1.106164 20.000000 6 358.086589
1.462375 1.479838 0.592505 53.000000 4 358.086591
2.050512 2.074273 0.498502 22.000000 2 358.086594
1.397941 1.413648 0.173875 13.000000 0 358.086596
0.051029 0.033843 5.469066 38.000000 31 358.086607
0.622511 0.596883 5.483001 39.000000 28 358.086610
0.556483 0.532531 3.726528 6.000000 27 358.086612
0.784253 0.780579 3.582400 90.000000 25 358.086615
1.051453 1.058110 3.573778 84.000000 23 358.086617
1.350983 1.359995 3.578867 11.000000 21 358.086620
1.220128 1.228265 2.615369 16.000000 19 358.086622
1.221407 1.229549 2.150872 18.000000 17 358.086625
0.246490 0.214186 5.470232 37.000000 30 358.086633
0.438446 0.400779 5.488251 37.000000 29 358.086635
0.684709 0.671951 3.728513 39.000000 26 358.086638
0.916971 0.919568 3.585688 66.000000 24 358.086640
1.201711 1.205939 3.582416 10.000000 22 358.086643
1.460787 1.466425 3.455826 18.000000 20 358.086646
1.218575 1.223278 2.360305 21.000000 18 358.086648
1.288036 1.293003 2.056808 24.000000 16 358.086651
1.436186 1.449291 2.084852 21.000000 15 358.086608
2.032594 2.051132 2.409950 15.000000 13 358.086611
2.020974 2.038695 1.966691 15.000000 11 358.086613
2.040793 2.058684 1.603305 16.000000 9 358.086616
2.044048 2.061248 1.261169 19.000000 7 358.086619
2.040889 2.057344 0.941197 18.000000 5 358.086621
1.403002 1.413821 0.271415 15.000000 1 358.086626
1.495244 1.504154 1.969484 33.000000 14 358.086634
2.042172 2.054334 2.192743 17.000000 12 358.086637
2.035012 2.046417 1.780866 16.000000 10 358.086639
2.055341 2.066856 1.434926 18.000000 8 358.086642
2.061991 2.072819 1.106164 20.000000 6 358.086644
1.505246 1.512624 0.605400 45.000000 4 358.086647
2.061234 2.070612 0.499192 22.000000 2 358.086649
1.402867 1.408760 0.173875 13.000000 0 358.086652
0.051147 0.033664 5.469066 38.000000 31 358.086663
0.625154 0.595242 5.487940 39.000000 28 358.086665
0.559077 0.531286 3.731424 10.000000 27 358.086668
0.786973 0.777836 3.582400 90.000000 25 358.086670
1.055140 1.054433 3.573778 84.000000 23 358.086673
1.355722 1.355271 3.578867 11.000000 21 358.086675
1.226398 1.225988 2.619502 16.000000 19 358.086678
1.227959 1.227545 2.154709 18.000000 17 358.086680
0.247237 0.213324 5.470232 39.000000 30 358.086688
0.439842 0.399247 5.488251 37.000000 29 358.086691
0.687051 0.669557 3.728513 39.000000 26 358.086693
0.920175 0.916361 3.585688 87.000000 24 358.086696
1.205913 1.201737 3.582416 10.000000 22 358.086698
1.465897 1.461317 3.455826 28.000000 20 358.086701
1.222838 1.219017 2.360305 21.000000 18 358.086704
1.292542 1.288499 2.056808 24.000000 16 358.086706
1.438717 1.441745 2.081348 21.000000 15 358.086664
2.042490 2.046780 2.413087 15.000000 13 358.086666
2.031032 2.034587 1.969433 14.000000 11 358.086669
2.051097 2.054683 1.605623 16.000000 9 358.086672
2.054506 2.057380 1.263042 20.000000 7 358.086674
2.051449 2.053602 0.942606 18.000000 5 358.086677
2.062164 2.064328 0.645449 25.000000 3 358.086679
1.407929 1.408916 0.271415 15.000000 1 358.086682
1.516337 1.514761 1.989434 32.000000 14 358.086690
2.052190 2.050049 2.195687 17.000000 12 358.086692
2.042143 2.039301 1.780866 16.000000 10 358.086695
2.065754 2.062876 1.437024 18.000000 8 358.086697
2.072556 2.068945 1.107807 22.000000 6 358.086700
1.513957 1.510793 0.606573 51.000000 4 358.086702
2.068449 2.063405 0.499192 23.000000 2 358.086705
1.411314 1.407382 0.174076 13.000000 0 358.086707
0.051264 0.033486 5.469066 38.000000 31 358.086718
0.627228 0.593056 5.487940 39.000000 28 358.086721
0.560928 0.529332 3.731424 15.000000 27 358.086723
0.789683 0.775084 3.582400 90.000000 25 358.086726
1.058814 1.050743 3.573778 92.000000 23 358.086728
1.360445 1.350530 3.578867 10.000000 21 358.086731
1.230670 1.221700 2.619502 16.000000 19 358.086733
1.232236 1.223251 2.154709 18.000000 17 358.086736
0.247980 0.212460 5.470232 38.000000 30 358.086744
0.441630 0.398066 5.493222 37.000000 29 358.086746
0.689384 0.667155 3.728513 39.000000 26 358.086749
0.922141 0.911930 3.580995 90.000000 24 358.086751
1.210101 1.197520 3.582416 10.000000 22 358.086754
1.470989 1.456191 3.455826 31.000000 20 358.086757
1.229228 1.216861 2.364295 21.000000 18 358.086759
1.297032 1.283979 2.056808 24.000000 16 358.086762
1.443741 1.436714 2.081348 21.000000 15 358.086719
2.052382 2.042384 2.416225 15.000000 13 358.086722
2.044051 2.033383 1.974916 14.000000 11 358.086724
2.061398 2.050636 1.607941 16.000000 9 358.086727
2.064962 2.053465 1.264916 18.000000 7 358.086730
2.058605 2.046428 0.942606 18.000000 5 358.086732
2.069357 2.057117 0.645449 23.000000 3 358.086735
1.416371 1.407503 0.271862 15.000000 1 358.086737
2.062203 2.045720 2.198630 17.000000 12 358.086748
2.052311 2.035196 1.783398 16.000000 10 358.086750
2.076166 2.058848 1.439122 18.000000 8 358.086753
2.083119 2.065023 1.109449 21.000000 6 358.086755
1.522674 1.508921 0.607745 62.000000 4 358.086758
2.079157 2.059657 0.499882 23.000000 2 358.086760
1.416218 1.402447 0.174076 13.000000 0 358.086763
0.051418 0.033328 5.474065 38.000000 31 358.086774
0.629294 0.590863 5.487940 39.000000 28 358.086776
0.564259 0.528762 3.741214 22.000000 27 358.086779
0.792384 0.772323 3.582400 90.000000 25 358.086781
1.062476 1.047041 3.573778 93.000000 23 358.086784
1.365151 1.345773 3.578867 10.000000 21 358.086786
1.236931 1.219372 2.623635 16.000000 19 358.086789
1.238782 1.221193 2.158546 18.000000 17 358.086792
0.248720 0.211593 5.470232 38.000000 30 358.086799
0.443017 0.396522 5.493222 37.000000 29 358.086802
0.691708 0.664744 3.728513 39.000000 26 358.086804
0.926550 0.909915 3.585688 90.000000 24 358.086807
1.214274 1.193289 3.582416 10.000000 22 358.086810
1.476063 1.451047 3.455826 32.000000 20 358.086812
1.235617 1.214676 2.368284 21.000000 18 358.086815
1.301506 1.279444 2.056808 24.000000 16 358.086817
1.448747 1.431665 2.081348 20.000000 15 358.086775
2.062268 2.037944 2.419363 15.000000 13 358.086777
2.054111 2.029175 1.977657 14.000000 11 358.086780
2.071695 2.046541 1.610259 16.000000 9 358.086783
2.075417 2.049502 1.266788 18.000000 7 358.086785
2.069150 2.042600 0.944015 17.000000 5 358.086788
2.090508 2.063685 0.649179 23.000000 3 358.086790
1.421275 1.402550 0.271862 15.000000 1 358.086793
2.053620 2.023036 2.647753 14.000000 14 358.086801
2.072211 2.041346 2.201573 17.000000 12 358.086803
2.062474 2.031045 1.785931 16.000000 10 358.086806
2.086573 2.054773 1.441220 18.000000 8 358.086808
2.090315 2.057739 1.109449 21.000000 6 358.086811
1.538325 1.513824 0.611262 72.000000 4 358.086813
2.086334 2.052387 0.499882 23.000000 2 358.086816
1.424667 1.400998 0.174278 13.000000 0 358.086818
0.051534 0.033148 5.474065 38.000000 31 358.086829
0.631353 0.588663 5.487940 39.000000 28 358.086832
0.566101 0.526789 3.741214 23.000000 27 358.086834
0.795075 0.769553 3.582400 90.000000 25 358.086837
1.066124 1.043326 3.573778 93.000000 23 358.086839
1.369840 1.341000 3.578867 11.000000 21 358.086842
1.241180 1.215047 2.623635 15.000000 19 358.086844
1.245328 1.219104 2.162383 18.000000 17 358.086847
0.249457 0.210723 5.470232 38.000000 30 358.086855
0.444399 0.394973 5.493222 37.000000 29 358.086857
0.694025 0.662326 3.728513 38.000000 26 358.086860
0.929720 0.906675 3.585688 89.000000 24 358.086862
1.218432 1.189043 3.582416 10.000000 22 358.086865
1.481119 1.445886 3.455826 29.000000 20 358.086868
1.239850 1.210356 2.368284 21.000000 18 358.086870
1.305964 1.274893 2.056808 24.000000 16 358.086873
1.453736 1.426600 2.081348 20.000000 15 358.086830
2.072148 2.033459 2.422501 15.000000 13 358.086833
2.064167 2.024920 1.980399 14.000000 11 358.086836
2.081988 2.042399 1.612577 17.000000 9 358.086838
2.085868 2.045491 1.268662 19.000000 7 358.086841
2.079693 2.038723 0.945424 17.000000 5 358.086843
2.097699 2.056375 0.649179 23.000000 3 358.086846
1.429719 1.401066 0.272308 15.000000 1 358.086848
2.071347 2.026300 2.661053 14.000000 14 358.086856
2.082213 2.036927 2.204516 17.000000 12 358.086859
2.069551 2.023833 1.785931 16.000000 10 358.086861
2.096978 2.050650 1.443318 18.000000 8 358.086864
2.100862 2.053731 1.111092 21.000000 6 358.086866
2.072004 2.024814 0.789454 26.000000 4 358.086869
2.097028 2.048552 0.500571 22.000000 2 358.086871
1.429549 1.396016 0.174278 13.000000 0 358.086874
0.051650 0.032968 5.474065 38.000000 31 358.086885
0.633404 0.586455 5.487940 39.000000 28 358.086887
0.567189 0.524119 3.736319 26.000000 27 358.086890
0.797757 0.766773 3.582400 91.000000 25 358.086892
1.069760 1.039598 3.573778 93.000000 23 358.086895
1.376230 1.337880 3.583256 11.000000 21 358.086897
1.247431 1.212668 2.627768 15.000000 19 358.086900
1.249576 1.214749 2.162383 18.000000 17 358.086903
0.250413 0.210037 5.475224 39.000000 30 358.086910
0.445374 0.393066 5.488251 37.000000 29 358.086913
0.696332 0.659899 3.728513 38.000000 26 358.086915
0.932880 0.903424 3.585688 89.000000 24 358.086918
1.222575 1.184782 3.582416 10.000000 22 358.086921
1.486157 1.440707 3.455826 25.000000 20 358.086923
1.246231 1.208118 2.372273 21.000000 18 358.086926
1.310406 1.270326 2.056808 24.000000 16 358.086928
1.458707 1.421516 2.081348 21.000000 15 358.086886
2.082021 2.028931 2.425639 15.000000 13 358.086888
2.074218 2.020620 1.983140 15.000000 11 358.086891
2.089105 2.035120 1.612577 17.000000 9 358.086894
2.096317 2.041432 1.270535 19.000000 7 358.086896
2.090234 2.034798 0.946833 17.000000 5 358.086899
2.108385 2.052467 0.650112 23.000000 3 358.086901
1.438170 1.399540 0.272754 16.000000 1 358.086904
2.083765 2.024261 2.667703 14.000000 14 358.086912
2.089311 2.029646 2.204516 17.000000 12 358.086914
2.079696 2.019600 1.788463 15.000000 10 358.086917
2.104123 2.043318 1.443318 18.000000 8 358.086919
2.111406 2.049675 1.112735 21.000000 6 358.086922
2.103477 2.041264 0.797660 25.000000 4 358.086924
2.104166 2.041219 0.500571 21.000000 2 358.086927
1.438000 1.394496 0.174479 13.000000 0 358.086930
0.051726 0.032767 5.469066 39.000000 31 358.086940
0.635447 0.584241 5.487940 39.000000 28 358.086943
0.569015 0.522136 3.736319 26.000000 27 358.086945
0.800428 0.763983 3.582400 91.000000 25 358.086948
1.073382 1.035858 3.573778 93.000000 23 358.086950
1.380892 1.333068 3.583256 10.000000 21 358.086953
1.253682 1.210261 2.631901 16.000000 19 358.086956
1.256115 1.212607 2.166220 18.000000 17 358.086958
0.251145 0.209161 5.475224 39.000000 30 358.086966
0.446743 0.391509 5.488251 37.000000 29 358.086968
0.698631 0.657465 3.728513 39.000000 26 358.086971
0.936028 0.900162 3.585688 89.000000 24 358.086974
1.226703 1.180508 3.582416 10.000000 22 358.086976
1.489298 1.433702 3.451560 21.000000 20 358.086979
1.252612 1.205851 2.376263 21.000000 18 358.086981
1.314833 1.265745 2.056808 24.000000 16 358.086984
1.463660 1.416416 2.081348 21.000000 15 358.086941
2.091888 2.024358 2.428777 15.000000 13 358.086944
2.084263 2.016275 1.985882 15.000000 11 358.086947
2.099380 2.030895 1.614895 17.000000 9 358.086949
2.106762 2.037324 1.272408 18.000000 7 358.086952
2.100773 2.030823 0.948243 18.000000 5 358.086954
2.115536 2.045095 0.650112 22.000000 3 358.086957
1.446628 1.397972 0.273200 16.000000 1 358.086959
2.093506 2.019568 2.671027 14.000000 14 358.086967
2.099292 2.025147 2.207459 17.000000 12 358.086970
2.089836 2.015321 1.790996 15.000000 10 358.086972
2.114510 2.039111 1.445416 18.000000 8 358.086975
2.121948 2.045569 1.114377 21.000000 6 358.086977
2.117589 2.040655 0.800005 25.000000 4 358.086980
2.114845 2.037298 0.501261 21.000000 2 358.086982
1.446457 1.392933 0.174681 13.000000 0 358.086985
0.051840 0.032586 5.469066 39.000000 31 358.086996
0.636909 0.581495 5.483001 39.000000 28 358.086998
0.569328 0.518776 3.726528 31.000000 27 358.087001
0.803090 0.761185 3.582400 88.000000 25 358.087003
1.078402 1.033456 3.578381 93.000000 23 358.087006
1.385537 1.328239 3.583256 10.000000 21 358.087008
1.259930 1.207825 2.636034 16.000000 19 358.087011
1.260340 1.208215 2.166220 18.000000 17 358.087014
0.251874 0.208283 5.475224 40.000000 30 358.087021
0.448107 0.389948 5.488251 37.000000 29 358.087024
0.700922 0.655022 3.728513 39.000000 26 358.087026
0.939164 0.896890 3.585688 90.000000 24 358.087029
1.232391 1.177723 3.586917 10.000000 22 358.087032
1.492408 1.426693 3.447294 17.000000 20 358.087034
1.256814 1.201471 2.376263 21.000000 18 358.087037
1.319243 1.261147 2.056808 24.000000 16 358.087039
1.468595 1.411298 2.081348 21.000000 15 358.086997
2.098942 2.017044 2.428777 15.000000 13 358.087000
2.094305 2.011884 1.988623 15.000000 11 358.087002
2.109651 2.026623 1.617213 17.000000 9 358.087005
2.117205 2.033169 1.274281 18.000000 7 358.087007
2.111310 2.026800 0.949652 17.000000 5 358.087010
2.126206 2.041100 0.651044 22.000000 3 358.087012
1.451499 1.392914 0.273200 15.000000 1 358.087015
2.103239 2.014832 2.674352 14.000000 14 358.087023
2.109267 2.020603 2.210402 17.000000 12 358.087025
2.099972 2.010996 1.793528 15.000000 10 358.087028
2.124893 2.034857 1.447514 18.000000 8 358.087030
2.129076 2.038150 1.114377 21.000000 6 358.087033
2.121188 2.029890 0.798833 24.000000 4 358.087035
2.125522 2.033326 0.501951 21.000000 2 358.087038
1.451311 1.387876 0.174681 13.000000 0 358.087041
0.051954 0.032405 5.469066 35.000000 31 358.087051
0.638935 0.579268 5.483001 39.000000 28 358.087054
0.571135 0.516785 3.726528 34.000000 27 358.087056
0.805742 0.758377 3.582400 90.000000 25 358.087059
1.082003 1.029686 3.578381 93.000000 23 358.087061
1.390165 1.323395 3.583256 11.000000 21 358.087064
1.266176 1.205360 2.640166 16.000000 19 358.087067
1.266872 1.206018 2.170057 18.000000 17 358.087069
0.252599 0.207403 5.475224 38.000000 30 358.087077
0.449465 0.388381 5.488251 37.000000 29 358.087079
0.703204 0.652571 3.728513 39.000000 26 358.087082
0.941037 0.892418 3.580995 92.000000 24 358.087085
1.236494 1.173414 3.586917 10.000000 22 358.087087
1.495488 1.419679 3.443028 16.000000 20 358.087090
1.263186 1.199152 2.380253 21.000000 18 358.087092
1.323637 1.256535 2.056808 24.000000 16 358.087095
1.473513 1.406163 2.081348 21.000000 15 358.087052
2.108786 2.012392 2.431914 15.000000 13 358.087055
2.104340 2.007447 1.991365 14.000000 11 358.087058
2.119918 2.022305 1.619532 17.000000 9 358.087060
2.124289 2.025766 1.274281 19.000000 7 358.087063
2.118372 2.019418 0.949652 17.000000 5 358.087065
2.133317 2.033665 0.651044 23.000000 3 358.087068
1.459957 1.391274 0.273646 15.000000 1 358.087070
2.112965 2.010052 2.677677 14.000000 14 358.087078
2.119236 2.016013 2.213346 17.000000 12 358.087081
2.110103 2.006624 1.796060 15.000000 10 358.087083
2.135272 2.030555 1.449612 18.000000 8 358.087086
2.139600 2.033959 1.116020 21.000000 6 358.087088
2.135308 2.029170 0.801177 24.000000 4 358.087091
2.136197 2.029305 0.502641 21.000000 2 358.087094
1.459769 1.386241 0.174882 13.000000 0 358.087096
0.052028 0.032203 5.464066 35.000000 31 358.087107
0.640375 0.576515 5.478061 39.000000 28 358.087109
0.572178 0.514108 3.721633 38.000000 27 358.087112
0.808385 0.755560 3.582400 90.000000 25 358.087114
1.085590 1.025902 3.578381 94.000000 23 358.087117
1.394776 1.318534 3.583256 11.000000 21 358.087120
1.272421 1.202866 2.644300 16.000000 19 358.087122
1.271074 1.201589 2.170057 18.000000 17 358.087125
0.253322 0.206520 5.475224 38.000000 30 358.087132
0.450818 0.386810 5.488251 37.000000 29 358.087135
0.705478 0.650113 3.728513 39.000000 26 358.087138
0.944146 0.889128 3.580995 90.000000 24 358.087140
1.240582 1.169091 3.586917 10.000000 22 358.087143
1.498537 1.412661 3.438762 16.000000 20 358.087145
1.269557 1.196802 2.384242 21.000000 18 358.087148
1.328015 1.251907 2.056808 24.000000 16 358.087150
1.478412 1.401011 2.081348 20.000000 15 358.087108
2.118623 2.007696 2.435052 15.000000 13 358.087111
2.114370 2.002965 1.994106 14.000000 11 358.087113
2.130181 2.017940 1.621850 17.000000 9 358.087116
2.134713 2.021527 1.276154 19.000000 7 358.087118
2.128892 2.015310 0.951061 17.000000 5 358.087121
2.143971 2.029583 0.651977 23.000000 3 358.087123
1.468422 1.389592 0.274093 16.000000 1 358.087126
2.122683 2.005228 2.681002 14.000000 14 358.087134
2.129199 2.011379 2.216289 17.000000 12 358.087136
2.117095 1.999246 1.796060 15.000000 10 358.087139
2.142347 2.023089 1.449612 18.000000 8 358.087141
2.150121 2.029720 1.117663 20.000000 6 358.087144
2.142378 2.021704 0.801177 24.000000 4 358.087146
2.146870 2.025235 0.503331 21.000000 2 358.087149
1.464599 1.381137 0.174882 13.000000 0 358.087152
0.052140 0.032021 5.464066 39.000000 31 358.087162
0.642384 0.574276 5.478061 32.000000 28 358.087165
0.573969 0.512108 3.721633 38.000000 27 358.087167
0.811017 0.752733 3.582400 90.000000 25 358.087170
1.087740 1.020770 3.573778 93.000000 23 358.087172
1.399370 1.313657 3.583256 11.000000 21 358.087175
1.278664 1.200343 2.648432 16.000000 19 358.087177
1.277598 1.199339 2.173894 18.000000 17 358.087180
0.254041 0.205634 5.475224 39.000000 30 358.087188
0.452166 0.385234 5.488251 37.000000 29 358.087190
0.707743 0.647646 3.728513 39.000000 26 358.087193
0.947244 0.885827 3.580995 90.000000 24 358.087195
1.244656 1.164753 3.586917 10.000000 22 358.087198
1.503458 1.407422 3.438762 16.000000 20 358.087200
1.275927 1.194423 2.388232 21.000000 18 358.087203
1.334852 1.249580 2.060483 24.000000 16 358.087206
1.483294 1.395842 2.081348 20.000000 15 358.087163
2.128454 2.002957 2.438190 15.000000 13 358.087166
2.124395 1.998438 1.996848 14.000000 11 358.087168
2.140439 2.013527 1.624168 17.000000 9 358.087171
2.145134 2.017238 1.278027 19.000000 7 358.087174
2.139409 2.011152 0.952470 17.000000 5 358.087176
2.154621 2.025452 0.652909 22.000000 3 358.087179
1.473264 1.384458 0.274093 16.000000 1 358.087181
2.132394 2.000361 2.684327 14.000000 14 358.087189
2.139155 2.006700 2.219232 17.000000 12 358.087192
2.127205 1.994793 1.798593 15.000000 10 358.087194
2.152706 2.018703 1.451710 17.000000 8 358.087197
2.157193 2.022202 1.117663 20.000000 6 358.087199
2.156515 2.020860 0.803522 24.000000 4 358.087202
2.157540 2.021114 0.504021 23.000000 2 358.087204
1.473058 1.379431 0.175084 13.000000 0 358.087207
0.052252 0.031839 5.464066 39.000000 31 358.087218
0.644384 0.572030 5.478061 32.000000 28 358.087220
0.575753 0.510101 3.721633 39.000000 27 358.087223
0.813640 0.749898 3.582400 90.000000 25 358.087225
1.091297 1.016967 3.573778 93.000000 23 358.087228
1.403947 1.308765 3.583256 11.000000 21 358.087230
1.284904 1.197791 2.652565 16.000000 19 358.087233
1.284122 1.197058 2.177731 18.000000 17 358.087235
0.254531 0.204566 5.470232 38.000000 30 358.087243
0.453508 0.383653 5.488251 37.000000 29 358.087246
0.709999 0.645172 3.728513 39.000000 26 358.087248
0.950330 0.882515 3.580995 90.000000 24 358.087251
1.248714 1.160401 3.586917 10.000000 22 358.087253
1.506452 1.400389 3.434496 17.000000 20 358.087256
1.280089 1.189962 2.388232 21.000000 18 358.087259
1.339206 1.244913 2.060483 24.000000 16 358.087261
1.488157 1.390656 2.081348 20.000000 15 358.087219
2.138277 1.998173 2.441328 13.000000 13 358.087221
2.134413 1.993865 1.999589 14.000000 11 358.087224
2.150691 2.009068 1.626486 17.000000 9 358.087226
2.155551 2.012902 1.279900 18.000000 7 358.087229
2.149923 2.006945 0.953879 17.000000 5 358.087232
2.165269 2.021271 0.653842 22.000000 3 358.087234
1.481728 1.382705 0.274539 16.000000 1 358.087237
2.142096 1.995451 2.687652 14.000000 14 358.087244
2.146146 1.999221 2.219232 17.000000 12 358.087247
2.137311 1.990294 1.801125 15.000000 10 358.087250
2.163061 2.014269 1.453808 17.000000 8 358.087252
2.167695 2.017878 1.119305 21.000000 6 358.087255
2.167114 2.016632 0.804694 23.000000 4 358.087257
2.164582 2.013571 0.504021 20.000000 2 358.087260
1.477864 1.374281 0.175084 13.000000 0 358.087262
0.052363 0.031656 5.464066 38.000000 31 358.087273
0.646377 0.569777 5.478061 39.000000 28 358.087276
0.577530 0.508089 3.721633 38.000000 27 358.087278
0.816252 0.747053 3.582400 90.000000 25 358.087281
1.094840 1.013151 3.573778 92.000000 23 358.087283
1.408507 1.303856 3.583256 11.000000 21 358.087286
1.291143 1.195210 2.656698 16.000000 19 358.087288
1.290645 1.194746 2.181568 18.000000 17 358.087291
0.255016 0.203496 5.465241 38.000000 30 358.087299
0.454844 0.382068 5.488251 38.000000 29 358.087301
0.712247 0.642689 3.728513 38.000000 26 358.087304
0.954674 0.880362 3.585688 92.000000 24 358.087306
1.252757 1.156035 3.586917 10.000000 22 358.087309
1.511331 1.395122 3.434496 16.000000 20 358.087312
1.286449 1.187531 2.392221 20.000000 18 358.087314
1.343543 1.240231 2.060483 24.000000 16 358.087317
1.493002 1.385453 2.081348 20.000000 15 358.087274
2.148092 1.993344 2.444465 13.000000 13 358.087277
2.144425 1.989246 2.002331 14.000000 11 358.087279
2.160939 2.004561 1.628804 16.000000 9 358.087282
2.165963 2.008518 1.281773 18.000000 7 358.087285
2.156916 1.999428 0.953879 17.000000 5 358.087287
2.172312 2.013700 0.653842 22.000000 3 358.087290
1.486546 1.377524 0.274539 16.000000 1 358.087292
2.151789 1.990497 2.690977 14.000000 14 358.087300
2.156079 1.994462 2.222175 16.000000 12 358.087303
2.147410 1.985748 1.803658 15.000000 10 358.087305
2.173411 2.009788 1.455906 17.000000 8 358.087308
2.174725 2.010299 1.119305 21.000000 6 358.087310
2.177711 2.012354 0.805867 24.000000 4 358.087313
2.175235 2.009362 0.504710 20.000000 2 358.087315
1.486323 1.372503 0.175285 13.000000 0 358.087318
0.052434 0.031453 5.459065 38.000000 31 358.087329
0.648362 0.567518 5.478061 38.000000 28 358.087331
0.580067 0.506739 3.726528 38.000000 27 358.087334
0.818855 0.744199 3.582400 90.000000 25 358.087336
1.098370 1.009323 3.573778 92.000000 23 358.087339
1.413050 1.298932 3.583256 11.000000 21 358.087341
1.297379 1.192600 2.660831 16.000000 19 358.087344
1.297168 1.192403 2.185405 18.000000 17 358.087346
0.255725 0.202605 5.465241 38.000000 30 358.087354
0.456175 0.380478 5.488251 38.000000 29 358.087357
0.715423 0.641038 3.733352 38.000000 26 358.087359
0.957741 0.877024 3.585688 93.000000 24 358.087362
1.256785 1.151655 3.586917 10.000000 22 358.087364
1.516192 1.389838 3.434496 16.000000 20 358.087367
1.292809 1.185070 2.396210 20.000000 18 358.087370
1.345365 1.233243 2.056808 24.000000 16 358.087372
1.497829 1.380233 2.081348 21.000000 15 358.087330
2.160763 1.991110 2.450741 14.000000 13 358.087332
2.154431 1.984581 2.005072 14.000000 11 358.087335
2.171182 2.000007 1.631122 16.000000 9 358.087338
2.176372 2.004086 1.283646 17.000000 7 358.087340
2.167411 1.995136 0.955288 17.000000 5 358.087343
2.182941 2.009432 0.654775 20.000000 3 358.087345
1.495010 1.375699 0.274985 17.000000 1 358.087348
2.161474 1.985500 2.694301 14.000000 14 358.087356
2.163028 1.986924 2.222175 16.000000 12 358.087358
2.157504 1.981156 1.806190 14.000000 10 358.087361
2.183756 2.005259 1.458004 18.000000 8 358.087363
2.185208 2.005889 1.120948 21.000000 6 358.087366
2.188303 2.008026 0.807039 24.000000 4 358.087368
2.185885 2.005105 0.505400 21.000000 2 358.087371
1.491104 1.367307 0.175285 13.000000 0 358.087373
0.052543 0.031270 5.459065 39.000000 31 358.087384
0.650339 0.565251 5.478061 38.000000 28 358.087387
0.581833 0.504711 3.726528 38.000000 27 358.087389
0.821448 0.741336 3.582400 90.000000 25 358.087392
1.101886 1.005483 3.573778 93.000000 23 358.087394
1.417575 1.293991 3.583256 11.000000 21 358.087397
1.301534 1.188064 2.660831 16.000000 19 358.087399
1.303690 1.190029 2.189242 18.000000 17 358.087402
0.256431 0.201711 5.465241 38.000000 30 358.087410
0.457501 0.378883 5.488251 38.000000 29 358.087412
0.717656 0.638537 3.733352 39.000000 26 358.087415
0.960797 0.873676 3.585688 90.000000 24 358.087417
1.260797 1.147261 3.586917 10.000000 22 358.087420
1.519105 1.382782 3.430230 14.000000 20 358.087423
1.299166 1.182579 2.400200 20.000000 18 358.087425
1.349662 1.228539 2.056808 24.000000 16 358.087428
1.502638 1.374996 2.081348 21.000000 15 358.087385
2.170572 1.986184 2.453879 14.000000 13 358.087388
2.164431 1.979871 2.007813 14.000000 11 358.087390
2.178150 1.992416 1.631122 16.000000 9 358.087393
2.183354 1.996476 1.283646 17.000000 7 358.087396
2.174363 1.987558 0.955288 18.000000 5 358.087398
2.193568 2.005114 0.655707 20.000000 3 358.087401
1.499803 1.370472 0.274985 16.000000 1 358.087403
2.171151 1.980460 2.697626 15.000000 14 358.087411
2.172936 1.982085 2.225118 16.000000 12 358.087414
2.167593 1.976518 1.808723 14.000000 10 358.087416
2.194096 2.000682 1.460102 18.000000 8 358.087419
2.195687 2.001430 1.122591 19.000000 6 358.087421
2.198892 2.003649 0.808211 24.000000 4 358.087424
2.192871 1.997463 0.505400 20.000000 2 358.087426
1.499562 1.365457 0.175487 13.000000 0 358.087429
0.052652 0.031086 5.459065 39.000000 31 358.087440
0.652308 0.562978 5.478061 38.000000 28 358.087442
0.583591 0.502677 3.726528 38.000000 27 358.087445
0.824031 0.738464 3.582400 90.000000 25 358.087447
1.105389 1.001631 3.573778 92.000000 23 358.087450
1.422083 1.289035 3.583256 11.000000 21 358.087452
1.307758 1.185404 2.664964 16.000000 19 358.087455
1.310211 1.187624 2.193079 18.000000 17 358.087458
0.257133 0.200815 5.465241 37.000000 30 358.087465
0.458820 0.377284 5.488251 38.000000 29 358.087468
0.719881 0.636028 3.733352 39.000000 26 358.087470
0.963840 0.870317 3.585688 89.000000 24 358.087473
1.264794 1.142853 3.586917 10.000000 22 358.087476
1.523923 1.377471 3.430230 13.000000 20 358.087478
1.305522 1.180058 2.404190 21.000000 18 358.087481
1.353942 1.223820 2.056808 24.000000 16 358.087483
1.507428 1.369742 2.081348 21.000000 15 358.087441
2.183254 1.983830 2.460154 14.000000 13 358.087443
2.174424 1.975115 2.010555 14.000000 11 358.087446
2.188371 1.987779 1.633440 16.000000 9 358.087449
2.193742 1.991959 1.285519 18.000000 7 358.087451
2.184839 1.983180 0.956698 17.000000 5 358.087454
2.204191 2.000746 0.656640 20.000000 3 358.087456
1.508266 1.368575 0.275431 16.000000 1 358.087459
2.180818 1.975376 2.700951 14.000000 14 358.087467
2.182838 1.977202 2.228061 16.000000 12 358.087469
2.177674 1.971833 1.811255 14.000000 10 358.087472
2.204431 1.996057 1.462200 17.000000 8 358.087474
2.202660 1.993754 1.122591 19.000000 6 358.087477
2.205872 1.995961 0.808211 23.000000 4 358.087479
2.203503 1.993118 0.506090 20.000000 2 358.087482
1.504319 1.360214 0.175487 13.000000 0 358.087484
0.052760 0.030902 5.459065 37.000000 31 358.087495
0.654860 0.561202 5.483001 38.000000 28 358.087498
0.585342 0.500637 3.726528 38.000000 27 358.087500
0.826603 0.735583 3.582400 92.000000 25 358.087503
1.108879 0.997766 3.573778 84.000000 23 358.087505
1.426574 1.284063 3.583256 11.000000 21 358.087508
1.313979 1.182714 2.669097 16.000000 19 358.087510
1.316732 1.185188 2.196916 18.000000 17 358.087513
0.257833 0.199916 5.465241 37.000000 30 358.087521
0.460135 0.375680 5.488251 37.000000 29 358.087523
0.722097 0.633511 3.733352 38.000000 26 358.087526
0.966873 0.866947 3.585688 89.000000 24 358.087528
1.268776 1.138431 3.586917 10.000000 22 358.087531
1.528722 1.372143 3.430230 13.000000 20 358.087534
1.309633 1.175493 2.404190 21.000000 18 358.087536
1.358206 1.219086 2.056808 24.000000 16 358.087539
1.512200 1.364472 2.081348 21.000000 15 358.087496
2.193055 1.978805 2.463292 14.000000 13 358.087499
2.184411 1.970313 2.013296 14.000000 11 358.087502
2.195296 1.980129 1.633440 16.000000 9 358.087504
2.204124 1.987394 1.287392 18.000000 7 358.087507
2.195312 1.978754 0.958107 17.000000 5 358.087509
2.214811 1.996329 0.657573 20.000000 3 358.087512
1.513034 1.363302 0.275431 16.000000 1 358.087514
2.193254 1.972746 2.707601 14.000000 14 358.087522
2.192731 1.972273 2.231004 16.000000 12 358.087525
2.187750 1.967102 1.813787 14.000000 10 358.087527
2.214760 1.991384 1.464298 18.000000 8 358.087530
2.213118 1.989210 1.124233 19.000000 6 358.087532
2.216442 1.991498 0.809384 23.000000 4 358.087535
2.214131 1.988723 0.506780 19.000000 2 358.087537
1.512776 1.358293 0.175688 13.000000 0 358.087540
0.052907 0.030737 5.464066 37.000000 31 358.087551
0.656223 0.558410 5.478061 39.000000 28 358.087553
0.587086 0.498591 3.726528 38.000000 27 358.087556
0.829166 0.732693 3.582400 90.000000 25 358.087558
1.112355 0.993889 3.573778 84.000000 23 358.087561
1.431048 1.279076 3.583256 11.000000 21 358.087563
1.318100 1.178120 2.669097 16.000000 19 358.087566
1.323251 1.182721 2.200753 18.000000 17 358.087569
0.258529 0.199014 5.465241 38.000000 30 358.087576
0.461443 0.374071 5.488251 37.000000 29 358.087579
0.724304 0.630987 3.733352 39.000000 26 358.087581
0.969893 0.863567 3.585688 90.000000 24 358.087584
1.272742 1.133996 3.586917 11.000000 22 358.087587
1.535449 1.368533 3.434496 12.000000 20 358.087589
1.315979 1.172920 2.408179 20.000000 18 358.087592
1.362453 1.214338 2.056808 24.000000 16 358.087594
1.516954 1.359185 2.081348 22.000000 15 358.087552
2.202849 1.973736 2.466430 14.000000 13 358.087554
2.194390 1.965466 2.016038 14.000000 11 358.087557
2.205495 1.975409 1.635758 16.000000 9 358.087560
2.214502 1.982780 1.289265 18.000000 7 358.087562
2.205781 1.974278 0.959516 18.000000 5 358.087565
2.221766 1.988585 0.657573 20.000000 3 358.087567
1.521495 1.361332 0.275877 16.000000 1 358.087570
2.202912 1.967566 2.710926 14.000000 14 358.087578
2.202617 1.967300 2.233948 16.000000 12 358.087580
2.197819 1.962325 1.816320 15.000000 10 358.087583
2.221698 1.983641 1.464298 17.000000 8 358.087585
2.223572 1.984617 1.125876 19.000000 6 358.087588
2.223380 1.983749 0.809384 23.000000 4 358.087590
2.221060 1.980982 0.506780 19.000000 2 358.087593
1.521236 1.356328 0.175890 12.000000 0 358.087596
0.053014 0.030553 5.464066 38.000000 31 358.087606
0.658168 0.556116 5.478061 39.000000 28 358.087609
0.588823 0.496538 3.726528 38.000000 27 358.087611
0.831719 0.729795 3.582400 90.000000 25 358.087614
1.115818 0.990000 3.573778 93.000000 23 358.087616
1.437296 1.275663 3.587644 10.000000 21 358.087619
1.324309 1.175380 2.673230 16.000000 19 358.087622
1.327371 1.178095 2.200753 17.000000 17 358.087624
0.259222 0.198111 5.465241 38.000000 30 358.087632
0.462330 0.372124 5.483280 38.000000 29 358.087634
0.726502 0.628455 3.733352 39.000000 26 358.087637
0.971609 0.859033 3.580995 90.000000 24 358.087640
1.276692 1.129546 3.586917 12.000000 22 358.087642
1.540217 1.363165 3.434496 11.000000 20 358.087645
1.322322 1.170317 2.412169 21.000000 18 358.087647
1.366683 1.209575 2.056808 24.000000 16 358.087650
1.521690 1.353882 2.081348 22.000000 15 358.087607
2.212633 1.968622 2.469568 14.000000 13 358.087610
2.204361 1.960573 2.018779 14.000000 11 358.087613
2.215687 1.970643 1.638076 16.000000 9 358.087615
2.221410 1.975038 1.289265 17.000000 7 358.087618
2.219830 1.972940 0.962335 18.000000 5 358.087620
2.232365 1.984081 0.658505 21.000000 3 358.087623
1.529960 1.359321 0.276324 16.000000 1 358.087625
2.212560 1.962342 2.714250 14.000000 14 358.087633
2.215519 1.964963 2.239834 16.000000 12 358.087636
2.207881 1.957501 1.818852 14.000000 10 358.087638
2.232004 1.978885 1.466396 17.000000 8 358.087641
2.234020 1.979975 1.127519 19.000000 6 358.087643
2.233929 1.979199 0.810556 21.000000 4 358.087646
2.231668 1.976501 0.507470 19.000000 2 358.087648
1.529702 1.354322 0.176092 12.000000 0 358.087651
0.053120 0.030367 5.464066 38.000000 31 358.087662
0.660105 0.553815 5.478061 38.000000 28 358.087664
0.589772 0.493827 3.721633 38.000000 27 358.087667
0.834261 0.726887 3.582400 90.000000 25 358.087669
1.119267 0.986099 3.573778 93.000000 23 358.087672
1.441740 1.270638 3.587644 11.000000 21 358.087674
1.330515 1.172611 2.677363 16.000000 19 358.087677
1.333881 1.175574 2.204590 17.000000 17 358.087680
0.259912 0.197205 5.465241 38.000000 30 358.087687
0.463626 0.370508 5.483280 37.000000 29 358.087690
0.728691 0.625915 3.733352 39.000000 26 358.087692
0.974601 0.855636 3.580995 90.000000 24 358.087695
1.282264 1.126520 3.591418 15.000000 22 358.087698
1.546925 1.359502 3.438762 11.000000 20 358.087700
1.328663 1.167683 2.416158 20.000000 18 358.087703
1.373444 1.207035 2.060483 24.000000 16 358.087705
1.526406 1.348562 2.081348 21.000000 15 358.087663
2.222409 1.963464 2.472705 14.000000 13 358.087666
2.217460 1.958403 2.024262 14.000000 11 358.087668
2.225873 1.965829 1.640394 16.000000 9 358.087671
2.228291 1.967272 1.289265 17.000000 7 358.087673
2.230300 1.968354 0.963744 17.000000 5 358.087676
2.239277 1.976277 0.658505 21.000000 3 358.087678
1.534696 1.353972 0.276324 16.000000 1 358.087681
2.222199 1.957075 2.717575 14.000000 14 358.087689
2.225398 1.959889 2.242777 16.000000 12 358.087691
2.217937 1.952631 1.821385 14.000000 10 358.087694
2.242305 1.974081 1.468494 17.000000 8 358.087696
2.244463 1.975285 1.129161 20.000000 6 358.087699
2.244474 1.974600 0.811728 21.000000 4 358.087701
2.242272 1.971969 0.508159 18.000000 2 358.087704
1.534421 1.348974 0.176092 12.000000 0 358.087707
0.053226 0.030182 5.464066 37.000000 31 358.087717
0.662034 0.551507 5.478061 38.000000 28 358.087720
0.591492 0.491765 3.721633 38.000000 27 358.087722
0.836793 0.723970 3.582400 90.000000 25 358.087725
1.122702 0.982186 3.573778 92.000000 23 358.087727
1.446166 1.265598 3.587644 11.000000 21 358.087730
1.338835 1.171666 2.685629 16.000000 19 358.087733
1.340389 1.173022 2.208426 17.000000 17 358.087735
0.260599 0.196296 5.465241 38.000000 30 358.087743
0.464916 0.368887 5.483280 37.000000 29 358.087745
0.730872 0.623368 3.733352 39.000000 26 358.087748
0.977582 0.852229 3.580995 90.000000 24 358.087751
1.286188 1.122037 3.591418 24.000000 22 358.087753
1.555591 1.357524 3.447294 11.000000 20 358.087756
1.337272 1.167002 2.424137 20.000000 18 358.087758
1.377649 1.202233 2.060483 24.000000 16 358.087761
1.531104 1.343225 2.081348 21.000000 15 358.087718
2.232176 1.958262 2.475843 14.000000 13 358.087721
2.227426 1.953407 2.027004 14.000000 11 358.087724
2.236052 1.960969 1.642712 16.000000 9 358.087726
2.238630 1.962538 1.291138 17.000000 7 358.087729
2.240765 1.963719 0.965153 17.000000 5 358.087731
2.249856 1.971686 0.659438 18.000000 3 358.087734
1.543159 1.351888 0.276770 16.000000 1 358.087736
2.234639 1.954223 2.724225 14.000000 14 358.087744
2.235268 1.954770 2.245720 16.000000 12 358.087747
2.227985 1.947715 1.823917 14.000000 10 358.087749
2.252599 1.969229 1.470592 17.000000 8 358.087752
2.251344 1.967438 1.129161 20.000000 6 358.087754
2.255013 1.969951 0.812901 23.000000 4 358.087757
2.249142 1.964130 0.508159 18.000000 2 358.087760
1.542884 1.346895 0.176293 12.000000 0 358.087762
0.053331 0.029996 5.464066 37.000000 31 358.087773
0.663356 0.548698 5.473122 35.000000 28 358.087775
0.593205 0.489697 3.721633 38.000000 27 358.087778
0.840448 0.722018 3.587171 91.000000 25 358.087780
1.126124 0.978262 3.573778 92.000000 23 358.087783
1.448767 1.258970 3.583256 11.000000 21 358.087786
1.345041 1.168831 2.689762 16.000000 19 358.087788
1.346895 1.170439 2.212264 17.000000 17 358.087791
0.261283 0.195385 5.465241 39.000000 30 358.087798
0.466201 0.367262 5.483280 37.000000 29 358.087801
0.733043 0.620813 3.733352 39.000000 26 358.087804
0.980551 0.848811 3.580995 90.000000 24 358.087806
1.288451 1.116115 3.586917 34.000000 22 358.087809
1.562291 1.353794 3.451560 12.000000 20 358.087811
1.343616 1.164300 2.428127 20.000000 18 358.087814
1.381837 1.197417 2.060483 23.000000 16 358.087816
1.535784 1.337873 2.081348 21.000000 15 358.087774
2.244868 1.955572 2.482119 13.000000 13 358.087777
2.237385 1.948366 2.029745 14.000000 11 358.087779
2.246225 1.956061 1.645030 15.000000 9 358.087782
2.248963 1.957756 1.293011 16.000000 7 358.087784
2.247606 1.955885 0.965153 17.000000 5 358.087787
2.256725 1.963820 0.659438 18.000000 3 358.087789
1.547868 1.346493 0.276770 17.000000 1 358.087792
2.244267 1.948859 2.727550 13.000000 14 358.087800
2.245130 1.949605 2.248663 16.000000 12 358.087802
2.238026 1.942752 1.826450 14.000000 10 358.087805
2.262886 1.964329 1.472690 17.000000 8 358.087807
2.261765 1.962663 1.130804 19.000000 6 358.087810
2.265547 1.965252 0.814073 24.000000 4 358.087812
2.259726 1.959511 0.508849 18.000000 2 358.087815
1.551351 1.344774 0.176495 13.000000 0 358.087818
0.053435 0.029809 5.464066 38.000000 31 358.087829
0.664667 0.545886 5.468183 35.000000 28 358.087832
0.594910 0.487624 3.721633 39.000000 27 358.087834
0.842963 0.719080 3.587171 90.000000 25 358.087837
1.129531 0.974325 3.573778 93.000000 23 358.087839
1.453153 1.253906 3.583256 11.000000 21 358.087842
1.351243 1.165967 2.693895 16.000000 19 358.087844
1.353400 1.167825 2.216100 17.000000 17 358.087847
0.261929 0.194518 5.465241 39.000000 30 358.087855
0.467416 0.365714 5.483280 37.000000 29 358.087857
0.735098 0.618378 3.733352 39.000000 26 358.087860
0.984669 0.846680 3.585688 90.000000 24 358.087862
1.292339 1.111611 3.586917 49.000000 22 358.087865
1.568984 1.350033 3.455826 11.000000 20 358.087867
1.349956 1.161569 2.432116 20.000000 18 358.087870
1.385800 1.192828 2.060483 23.000000 16 358.087873
1.543141 1.334836 2.084852 21.000000 15 358.087830
2.254625 1.950271 2.485256 13.000000 13 358.087833
2.247335 1.943280 2.032486 14.000000 11 358.087835
2.256390 1.951106 1.647348 15.000000 9 358.087838
2.258950 1.953319 1.294884 17.000000 7 358.087841
2.257709 1.951558 0.966562 17.000000 5 358.087843
2.267284 1.959143 0.660370 19.000000 3 358.087846
1.556327 1.344338 0.277216 17.000000 1 358.087848
2.253884 1.943452 2.730875 13.000000 14 358.087856
2.258044 1.947036 2.254550 16.000000 12 358.087859
2.247721 1.938135 1.828982 14.000000 10 358.087861
2.269388 1.956814 1.472690 17.000000 8 358.087864
2.271838 1.958235 1.132447 19.000000 6 358.087866
2.279416 1.964074 0.816418 24.000000 4 358.087869
2.269964 1.955239 0.509539 18.000000 2 358.087871
1.559587 1.342882 0.176696 13.000000 0 358.087874
0.053534 0.029632 5.464066 38.000000 31 358.087885
0.665871 0.543188 5.463244 32.000000 28 358.087887
0.596524 0.485648 3.721633 38.000000 27 358.087890
0.845343 0.716281 3.587171 90.000000 25 358.087892
1.132756 0.970574 3.573778 93.000000 23 358.087895
1.457303 1.249080 3.583256 11.000000 21 358.087897
1.359375 1.165143 2.702161 16.000000 19 358.087900
1.359699 1.165417 2.219938 17.000000 17 358.087902
0.262606 0.193602 5.465241 39.000000 30 358.087910
0.469112 0.364408 5.488251 37.000000 29 358.087913
0.737252 0.615809 3.733352 39.000000 26 358.087915
0.987618 0.843238 3.585688 90.000000 24 358.087918
1.296018 1.107319 3.586917 70.000000 22 358.087920
1.577418 1.348211 3.464358 11.000000 20 358.087923
1.356092 1.159044 2.436105 19.000000 18 358.087926
1.389955 1.187983 2.060483 23.000000 16 358.087928
1.547559 1.329712 2.084852 21.000000 15 358.087886
2.264032 1.945320 2.488394 14.000000 13 358.087888
2.256939 1.938541 2.035228 14.000000 11 358.087891
2.266208 1.946499 1.649666 16.000000 9 358.087893
2.269272 1.948442 1.296757 17.000000 7 358.087896
2.268148 1.946790 0.967971 17.000000 5 358.087899
2.277495 1.954813 0.661303 18.000000 3 358.087901
1.560777 1.339169 0.277216 15.000000 1 358.087904
2.263152 1.938396 2.734200 13.000000 14 358.087911
2.267558 1.942166 2.257493 15.000000 12 358.087914
2.257748 1.933081 1.831514 14.000000 10 358.087917
2.279652 1.951832 1.474789 17.000000 8 358.087919
2.282247 1.953364 1.134090 19.000000 6 358.087922
2.289952 1.959266 0.817590 24.000000 4 358.087924
2.280538 1.950522 0.510229 18.000000 2 358.087927
1.564265 1.337430 0.176696 13.000000 0 358.087929
0.053637 0.029445 5.464066 32.000000 31 358.087940
0.667159 0.540372 5.458304 32.000000 28 358.087943
0.598216 0.483563 3.721633 38.000000 27 358.087945
0.847838 0.713326 3.587171 90.000000 25 358.087948
1.136137 0.966614 3.573778 93.000000 23 358.087950
1.461654 1.243985 3.583256 11.000000 21 358.087953
1.365577 1.162214 2.706294 16.000000 19 358.087955
1.366200 1.162741 2.223774 17.000000 17 358.087958
0.263281 0.192685 5.465241 38.000000 30 358.087966
0.470381 0.362768 5.488251 37.000000 29 358.087968
0.739397 0.613231 3.733352 38.000000 26 358.087971
0.990556 0.839785 3.585688 90.000000 24 358.087973
1.298215 1.101380 3.582416 78.000000 22 358.087976
1.584103 1.344385 3.468624 11.000000 20 358.087979
1.364725 1.158204 2.444084 19.000000 18 358.087981
1.394094 1.183124 2.060483 23.000000 16 358.087984
1.552191 1.324302 2.084852 21.000000 15 358.087941
2.273771 1.939932 2.491532 14.000000 13 358.087944
2.266873 1.933364 2.037970 14.000000 11 358.087946
2.272989 1.938577 1.649666 15.000000 9 358.087949
2.279587 1.943517 1.298630 17.000000 7 358.087952
2.278581 1.941972 0.969380 17.000000 5 358.087954
2.288043 1.950037 0.662236 18.000000 3 358.087957
1.569233 1.336943 0.277662 15.000000 1 358.087959
2.272749 1.932904 2.737525 13.000000 14 358.087967
2.277403 1.936858 2.260436 15.000000 12 358.087970
2.267766 1.927981 1.834047 14.000000 10 358.087972
2.289909 1.946802 1.476887 17.000000 8 358.087975
2.292650 1.948443 1.135732 20.000000 6 358.087977
2.300481 1.954407 0.818762 24.000000 4 358.087980
2.291108 1.945755 0.510919 19.000000 2 358.087982
1.572733 1.335194 0.176898 13.000000 0 358.087985
0.053740 0.029258 5.464066 32.000000 31 358.087996
0.667830 0.537067 5.448426 28.000000 28 358.087998
0.599900 0.481472 3.721633 38.000000 27 358.088001
0.850323 0.710362 3.587171 90.000000 25 358.088003
1.140997 0.963903 3.578381 94.000000 23 358.088006
1.467817 1.240422 3.587644 11.000000 21 358.088008
1.369626 1.157440 2.706294 16.000000 19 358.088011
1.372699 1.160034 2.227611 17.000000 17 358.088013
0.263952 0.191764 5.465241 38.000000 30 358.088021
0.471645 0.361124 5.488251 37.000000 29 358.088024
0.740562 0.609847 3.728513 38.000000 26 358.088026
0.993481 0.836323 3.585688 92.000000 24 358.088029
1.302051 1.096841 3.582416 88.000000 22 358.088031
1.590780 1.340527 3.472890 11.000000 20 358.088034
1.371065 1.155375 2.448074 19.000000 18 358.088037
1.398215 1.178251 2.060483 23.000000 16 358.088039
1.556805 1.318876 2.084852 20.000000 15 358.087997
2.283499 1.934500 2.494670 14.000000 13 358.087999
2.276799 1.928142 2.040711 14.000000 11 358.088002
2.283123 1.933494 1.651984 15.000000 9 358.088005
2.289896 1.938543 1.300503 17.000000 7 358.088007
2.285346 1.934007 0.969380 17.000000 5 358.088010
2.294837 1.942039 0.662236 18.000000 3 358.088012
1.577692 1.334673 0.278108 16.000000 1 358.088015
2.282336 1.927368 2.740849 13.000000 14 358.088023
2.287238 1.931504 2.263379 16.000000 12 358.088025
2.277777 1.922834 1.836579 14.000000 10 358.088028
2.300159 1.941725 1.478985 17.000000 8 358.088030
2.303047 1.943474 1.137375 19.000000 6 358.088033
2.311005 1.949499 0.819935 23.000000 4 358.088035
2.301672 1.940939 0.511609 18.000000 2 358.088038
1.581204 1.332916 0.177099 13.000000 0 358.088040
0.053841 0.029070 5.464066 37.000000 31 358.088051
0.669701 0.534732 5.448426 22.000000 28 358.088054
0.601577 0.479375 3.721633 38.000000 27 358.088056
0.852798 0.707389 3.587171 90.000000 25 358.088059
1.144355 0.959914 3.578381 93.000000 23 358.088061
1.472138 1.235291 3.587644 11.000000 21 358.088064
1.375813 1.154461 2.710427 16.000000 19 358.088066
1.379196 1.157296 2.231448 17.000000 17 358.088069
0.264855 0.191010 5.470232 39.000000 30 358.088077
0.472903 0.359475 5.488251 37.000000 29 358.088079
0.742686 0.607259 3.728513 38.000000 26 358.088082
0.996394 0.832850 3.585688 90.000000 24 358.088084
1.307542 1.093686 3.586917 91.000000 22 358.088087
1.599450 1.338314 3.481422 12.000000 20 358.088090
1.377401 1.152516 2.452063 19.000000 18 358.088092
1.399719 1.171187 2.056808 23.000000 16 358.088095
1.558670 1.311138 2.081348 20.000000 15 358.088052
2.293216 1.929023 2.497808 13.000000 13 358.088055
2.286716 1.922873 2.043453 14.000000 11 358.088057
2.293249 1.928364 1.654302 15.000000 9 358.088060
2.300197 1.933521 1.302376 17.000000 7 358.088063
