# .PCD v.7 - Point Cloud Data file format
VERSION .7
FIELDS x y z intensity ring timestamp
SIZE 4 4 4 4 2 8
TYPE F F F F U D
COUNT 1 1 1 1 1 1
WIDTH 925
HEIGHT 1
VIEWPOINT 0 0 0 1 0 0 0
POINTS 925
DATA ascii
-0.425565 1.047237 3.658747 8.000000 25 358.468480
-0.544582 1.319241 3.421895 93.000000 23 358.468483
-0.699741 1.694300 3.425264 77.000000 21 358.468485
-0.875702 2.120376 3.441958 10.000000 19 358.468488
-0.949140 2.298205 3.052555 11.000000 17 358.468490
-0.068037 0.205242 3.568429 16.000000 30 358.468498
-0.194492 0.543730 5.334137 38.000000 29 358.468501
-0.507898 1.275785 5.320612 97.000000 26 358.468503
-0.469820 1.143772 3.416749 89.000000 24 358.468506
-0.618419 1.504074 3.424887 92.000000 22 358.468508
-0.783468 1.904574 3.438762 13.000000 20 358.468511
-0.942371 2.290874 3.353690 8.000000 18 358.468514
-0.834888 2.029590 2.457401 13.000000 16 358.468516
-0.853511 2.059520 2.270593 14.000000 15 358.468474
-0.874524 2.110233 1.923594 18.000000 13 358.468476
-1.234568 2.980497 2.199716 11.000000 11 358.468479
-1.461960 3.529477 2.085455 11.000000 9 358.468482
-1.475737 3.564498 1.647014 13.000000 7 358.468484
-1.427220 3.449011 1.186397 10.000000 5 358.468487
-0.862118 2.083387 0.519545 80.000000 3 358.468489
-0.869764 2.102902 0.296849 80.000000 1 358.468492
-0.861603 2.088315 2.092504 18.000000 14 358.468500
-0.967577 2.345179 1.930802 17.000000 12 358.468502
-1.336922 3.241997 2.145535 9.000000 10 358.468505
-1.464200 3.550650 1.862928 11.000000 8 358.468507
-1.454284 3.528350 1.416631 9.000000 6 358.468510
-1.405314 3.411230 0.980542 12.000000 4 358.468512
-0.882384 2.142940 0.415034 16.000000 2 358.468515
-1.260522 3.062801 0.227280 12.000000 0 358.468517
-0.009237 0.043510 3.544138 93.000000 31 358.468528
-0.298341 0.783464 5.329884 41.000000 28 358.468531
-0.390325 1.028564 5.312582 96.000000 27 358.468533
-0.420793 1.045944 3.649204 8.000000 25 358.468536
-0.539974 1.321133 3.421895 93.000000 23 358.468538
-0.693823 1.696733 3.425264 77.000000 21 358.468541
-0.868295 2.123420 3.441958 10.000000 19 358.468543
-0.936259 2.289634 3.037207 12.000000 17 358.468546
-0.067320 0.205478 3.568429 17.000000 30 358.468554
-0.192593 0.544405 5.334137 38.000000 29 358.468556
-0.503442 1.277550 5.320612 98.000000 26 358.468559
-0.465825 1.145406 3.416749 89.000000 24 358.468561
-0.613165 1.506224 3.424887 91.000000 22 358.468564
-0.776815 1.907297 3.438762 13.000000 20 358.468567
-0.929821 2.282984 3.337732 9.000000 18 358.468569
-0.823962 2.023073 2.446375 13.000000 16 358.468572
-0.843609 2.055888 2.263584 14.000000 15 358.468529
-0.867153 2.113273 1.923594 19.000000 13 358.468532
-1.225743 2.988657 2.202457 11.000000 11 358.468534
-1.446269 3.526361 2.080819 12.000000 9 358.468537
-1.458011 3.556759 1.641395 12.000000 7 358.468540
-1.420628 3.467289 1.190624 10.000000 5 358.468542
-0.852978 2.081838 0.518612 80.000000 3 358.468545
-0.858643 2.096708 0.295957 82.000000 1 358.468547
-0.851484 2.084396 2.085854 17.000000 14 358.468555
-0.959384 2.348542 1.930802 17.000000 12 358.468558
-1.328857 3.254627 2.150600 9.000000 10 358.468560
-1.444935 3.538932 1.854536 11.000000 8 358.468563
-1.445527 3.542150 1.419917 9.000000 6 358.468565
-1.398905 3.429616 0.984059 12.000000 4 358.468568
-0.873029 2.141421 0.414345 16.000000 2 358.468570
-1.249824 3.067182 0.227280 12.000000 0 358.468573
-0.009085 0.043542 3.544138 91.000000 31 358.468584
-0.295878 0.785228 5.334823 40.000000 28 358.468586
-0.387090 1.030873 5.317478 96.000000 27 358.468589
-0.417139 1.047407 3.649204 8.000000 25 358.468591
-0.535359 1.323010 3.421895 93.000000 23 358.468594
-0.687896 1.699144 3.425264 77.000000 21 358.468596
-0.861934 2.129046 3.446091 11.000000 19 358.468599
-0.928261 2.292888 3.037207 13.000000 17 358.468602
-0.066690 0.205988 3.573421 20.000000 30 358.468609
-0.190692 0.545074 5.334137 38.000000 29 358.468612
-0.499436 1.280471 5.325451 98.000000 26 358.468614
-0.461824 1.147025 3.416749 89.000000 24 358.468617
-0.608454 1.510481 3.429388 91.000000 22 358.468620
-0.769819 1.910131 3.438762 14.000000 20 358.468622
-0.916941 2.275195 3.321774 9.000000 18 358.468625
-0.814007 2.019790 2.439025 13.000000 16 358.468627
-0.833743 2.052212 2.256575 15.000000 15 358.468585
-0.858305 2.112680 1.920456 19.000000 13 358.468587
-1.216876 2.996792 2.205199 11.000000 11 358.468590
-1.428951 3.519074 2.073865 10.000000 9 358.468593
-1.442100 3.553235 1.637649 11.000000 7 358.468595
-1.413926 3.485563 1.194852 10.000000 5 358.468598
-0.841650 2.075846 0.516747 80.000000 3 358.468600
-0.847212 2.090610 0.295064 77.000000 1 358.468603
-0.841039 2.080579 2.079205 17.000000 14 358.468611
-0.950770 2.352043 1.930802 17.000000 12 358.468613
-1.318534 3.263473 2.153133 9.000000 10 358.468616
-1.426854 3.531581 1.848242 11.000000 8 358.468618
-1.434303 3.551803 1.421559 9.000000 6 358.468621
-1.389964 3.443735 0.986404 12.000000 4 358.468623
-0.861469 2.135421 0.412965 16.000000 2 358.468626
-1.240978 3.076159 0.227482 12.000000 0 358.468628
-0.008925 0.043575 3.544138 93.000000 31 358.468639
-0.292998 0.786307 5.334823 40.000000 28 358.468642
-0.383309 1.032285 5.317478 96.000000 27 358.468644
-0.412203 1.046149 3.639660 9.000000 25 358.468647
-0.529780 1.323150 3.417292 84.000000 23 358.468649
-0.681663 1.701654 3.425264 77.000000 21 358.468652
-0.854125 2.132191 3.446091 11.000000 19 358.468654
-0.918658 2.293299 3.033370 13.000000 17 358.468657
-0.066021 0.206507 3.578413 21.000000 30 358.468665
-0.188693 0.545769 5.334137 38.000000 29 358.468667
-0.494740 1.282293 5.325451 99.000000 26 358.468670
-0.457616 1.148710 3.416749 87.000000 24 358.468672
-0.603178 1.512596 3.429388 92.000000 22 358.468675
-0.763146 1.912807 3.438762 14.000000 20 358.468678
-0.902292 2.261585 3.297837 9.000000 18 358.468680
-0.804439 2.016322 2.431674 13.000000 16 358.468683
-0.823555 2.048637 2.249566 15.000000 15 358.468640
-0.850556 2.115812 1.920456 19.000000 13 358.468643
-1.209002 3.008991 2.210682 11.000000 11 358.468646
-1.412739 3.516066 2.069229 10.000000 9 358.468648
-1.425612 3.549894 1.633903 11.000000 7 358.468651
-1.406502 3.504078 1.199079 10.000000 5 358.468653
-0.830740 2.069654 0.514882 79.000000 3 358.468656
-0.836201 2.084311 0.294172 77.000000 1 358.468658
-0.829609 2.073101 2.069230 17.000000 14 358.468666
-0.944056 2.359100 1.933745 17.000000 12 358.468669
-1.308735 3.272058 2.155665 9.000000 10 358.468671
-1.409461 3.523898 1.841948 11.000000 8 358.468674
-1.420143 3.552403 1.419917 11.000000 6 358.468676
-1.383345 3.462107 0.989921 12.000000 4 358.468679
-0.852173 2.133816 0.412275 16.000000 2 358.468681
-1.231548 3.085327 0.227683 12.000000 0 358.468684
-0.008773 0.043606 3.544138 93.000000 31 358.468695
-0.290251 0.787325 5.334823 41.000000 28 358.468697
-0.380054 1.034573 5.322372 97.000000 27 358.468700
-0.408006 1.046191 3.634888 9.000000 25 358.468702
-0.525158 1.324991 3.417292 84.000000 23 358.468705
-0.676603 1.706250 3.429652 79.000000 21 358.468707
-0.847714 2.137775 3.450224 11.000000 19 358.468710
-0.909466 2.293512 3.029533 15.000000 17 358.468713
-0.065386 0.207013 3.583404 24.000000 30 358.468720
-0.186614 0.545919 5.329166 37.000000 29 358.468723
-0.490261 1.284012 5.325451 99.000000 26 358.468725
-0.453604 1.150300 3.416749 87.000000 24 358.468728
-0.597894 1.514692 3.429388 92.000000 22 358.468731
-0.756465 1.915459 3.438762 13.000000 20 358.468733
-0.894392 2.264721 3.297837 8.000000 18 358.468736
-0.794905 2.012811 2.424324 13.000000 16 358.468738
-0.813762 2.044872 2.242557 15.000000 15 358.468696
-0.843166 2.118768 1.920456 19.000000 13 358.468698
-1.200037 3.017079 2.213423 11.000000 11 358.468701
-1.397183 3.512743 2.064593 10.000000 9 358.468704
-1.409786 3.546232 1.630157 11.000000 7 358.468706
-1.397805 3.517883 1.201898 10.000000 5 358.468709
-0.819882 2.063411 0.513016 77.000000 3 358.468711
-0.825244 2.077960 0.293280 77.000000 1 358.468714
-0.819617 2.069041 2.062580 17.000000 14 358.468722
-0.935815 2.362381 1.933745 18.000000 12 358.468724
-1.298893 3.280615 2.158197 9.000000 10 358.468727
-1.392140 3.516137 1.835654 11.000000 8 358.468729
-1.405997 3.552947 1.418274 10.000000 6 358.468732
-1.374827 3.475955 0.992265 12.000000 4 358.468734
-0.841078 2.127567 0.410895 16.000000 2 358.468737
-1.220770 3.089607 0.227683 12.000000 0 358.468740
-0.008616 0.043593 3.539139 91.000000 31 358.468750
-0.287501 0.788333 5.334823 41.000000 28 358.468753
-0.376440 1.035893 5.322372 97.000000 27 358.468755
-0.403814 1.046215 3.630117 10.000000 25 358.468758
-0.520530 1.326816 3.417292 93.000000 23 358.468760
-0.670642 1.708602 3.429652 74.000000 21 358.468763
-0.840247 2.140721 3.450224 11.000000 19 358.468766
-0.900283 2.293688 3.025696 15.000000 17 358.468768
-0.064663 0.207240 3.583404 26.000000 30 358.468776
-0.184708 0.546567 5.329166 37.000000 29 358.468778
-0.485776 1.285716 5.325451 99.000000 26 358.468781
-0.449586 1.151876 3.416749 89.000000 24 358.468784
-0.592603 1.516770 3.429388 92.000000 22 358.468786
-0.749774 1.918088 3.438762 13.000000 20 358.468789
-0.886481 2.267829 3.297837 8.000000 18 358.468791
-0.785406 2.009259 2.416974 13.000000 16 358.468794
-0.805312 2.044382 2.239052 15.000000 15 358.468751
-0.835765 2.121698 1.920456 19.000000 13 358.468754
-1.191030 3.025140 2.216165 11.000000 11 358.468757
-1.381666 3.509354 2.059957 10.000000 9 358.468759
-1.392306 3.538190 1.624538 11.000000 7 358.468762
-1.390785 3.536134 1.206125 10.000000 5 358.468764
-0.809079 2.057117 0.511151 79.000000 3 358.468767
-0.816163 2.076193 0.292833 77.000000 1 358.468769
-0.809663 2.064935 2.055931 17.000000 14 358.468777
-0.927563 2.365633 1.933745 18.000000 12 358.468780
-1.289006 3.289143 2.160730 9.000000 10 358.468782
-1.374890 3.508298 1.829359 11.000000 8 358.468785
-1.388419 3.544642 1.413346 10.000000 6 358.468787
-1.368001 3.494311 0.995782 12.000000 4 358.468790
-0.831842 2.125879 0.410206 16.000000 2 358.468792
-1.211798 3.098502 0.227885 12.000000 0 358.468795
-0.008464 0.043623 3.539139 91.000000 31 358.468806
-0.284748 0.789332 5.334823 41.000000 28 358.468808
-0.372822 1.037201 5.322372 96.000000 27 358.468811
-0.399626 1.046223 3.625345 10.000000 25 358.468813
-0.516603 1.330446 3.421895 93.000000 23 358.468816
-0.664674 1.710932 3.429652 74.000000 21 358.468818
-0.832769 2.143641 3.450224 10.000000 19 358.468821
-0.889950 2.290840 3.018022 15.000000 17 358.468824
-0.063939 0.207464 3.583404 28.000000 30 358.468831
-0.182799 0.547209 5.329166 37.000000 29 358.468834
-0.481285 1.287404 5.325451 99.000000 26 358.468836
-0.445562 1.153439 3.416749 87.000000 24 358.468839
-0.587040 1.518932 3.429388 92.000000 22 358.468842
-0.742739 1.920823 3.438762 13.000000 20 358.468844
-0.878163 2.271063 3.297837 9.000000 18 358.468847
-0.775591 2.005800 2.409624 14.000000 16 358.468849
-0.795580 2.040535 2.232043 15.000000 15 358.468807
-0.828353 2.124602 1.920456 19.000000 13 358.468810
-1.180463 3.029279 2.216165 11.000000 11 358.468812
-1.364583 3.501772 2.053003 11.000000 9 358.468815
-1.376582 3.534388 1.620792 11.000000 7 358.468817
-1.381913 3.549909 1.208944 10.000000 5 358.468820
-0.797971 2.050913 0.509286 79.000000 3 358.468822
-0.804938 2.069888 0.291941 78.000000 1 358.468825
-0.800739 2.064407 2.052606 17.000000 14 358.468833
-0.918887 2.369017 1.933745 17.000000 12 358.468835
-1.278501 3.297865 2.163262 9.000000 10 358.468838
-1.357101 3.500619 1.823065 11.000000 8 358.468840
-1.372006 3.540900 1.410061 10.000000 6 358.468843
-1.358696 3.508366 0.998127 12.000000 4 358.468845
-0.820469 2.119677 0.408826 16.000000 2 358.468848
-1.200975 3.102713 0.227885 12.000000 0 358.468851
-0.008304 0.043654 3.539139 91.000000 31 358.468861
-0.281592 0.789638 5.329884 41.000000 28 358.468864
-0.368677 1.037601 5.317478 96.000000 27 358.468866
-0.395789 1.047680 3.625345 10.000000 25 358.468869
-0.511723 1.332331 3.421895 93.000000 23 358.468871
-0.658399 1.713357 3.429652 77.000000 21 358.468874
-0.824907 2.146679 3.450224 10.000000 19 358.468877
-0.875798 2.279124 2.998837 14.000000 17 358.468879
-0.063178 0.207697 3.583404 29.000000 30 358.468887
-0.180792 0.547875 5.329166 37.000000 29 358.468889
-0.476563 1.289159 5.325451 98.000000 26 358.468892
-0.441332 1.155064 3.416749 89.000000 24 358.468895
-0.581735 1.520972 3.429388 91.000000 22 358.468897
-0.736029 1.923404 3.438762 13.000000 20 358.468900
-0.869153 2.271300 3.293848 9.000000 18 358.468902
-0.766162 2.002162 2.402273 14.000000 16 358.468905
-0.785529 2.036783 2.225034 15.000000 15 358.468862
-0.820561 2.127624 1.920456 19.000000 13 358.468865
-1.170856 3.037487 2.218906 11.000000 11 358.468868
-1.346959 3.494349 2.046049 11.000000 9 358.468870
-1.358619 3.526432 1.615173 12.000000 7 358.468873
-1.368893 3.554950 1.208944 10.000000 5 358.468875
-0.789042 2.049102 0.508353 79.000000 3 358.468878
-0.795919 2.068038 0.291495 80.000000 1 358.468880
-0.790852 2.060217 2.045956 17.000000 14 358.468888
-0.912060 2.375984 1.936688 17.000000 12 358.468891
-1.268526 3.306333 2.165795 9.000000 10 358.468893
-1.339996 3.492623 1.816771 12.000000 8 358.468896
-1.354565 3.532439 1.405133 11.000000 6 358.468898
-1.349920 3.522165 1.000471 12.000000 4 358.468901
-0.809522 2.113279 0.407446 16.000000 2 358.468904
-1.187808 3.102428 0.227683 12.000000 0 358.468906
-0.008147 0.043639 3.534139 91.000000 31 358.468917
-0.278834 0.790616 5.329884 40.000000 28 358.468919
-0.365053 1.038882 5.317478 96.000000 27 358.468922
-0.392130 1.049056 3.625345 13.000000 25 358.468924
-0.507069 1.334109 3.421895 93.000000 23 358.468927
-0.652414 1.715645 3.429652 77.000000 21 358.468930
-0.817408 2.149546 3.450224 11.000000 19 358.468932
-0.853023 2.243212 2.948957 11.000000 17 358.468935
-0.062371 0.207639 3.578413 31.000000 30 358.468942
-0.178878 0.548503 5.329166 37.000000 29 358.468945
-0.472060 1.290815 5.325451 98.000000 26 358.468948
-0.437297 1.156597 3.416749 89.000000 24 358.468950
-0.576422 1.522993 3.429388 91.000000 22 358.468953
-0.729311 1.925962 3.438762 12.000000 20 358.468955
-0.861220 2.274320 3.293848 11.000000 18 358.468958
-0.757968 2.001654 2.398598 14.000000 16 358.468960
-0.775871 2.032848 2.218025 15.000000 15 358.468918
-0.813129 2.130476 1.920456 19.000000 13 358.468921
-1.161736 3.045462 2.221648 11.000000 11 358.468923
-1.330016 3.486611 2.039094 11.000000 9 358.468926
-1.339695 3.513826 1.607681 11.000000 7 358.468928
-1.353059 3.550741 1.206125 10.000000 5 358.468931
-0.778386 2.042663 0.506488 79.000000 3 358.468933
-0.785151 2.061495 0.290602 80.000000 1 358.468936
-0.782329 2.059474 2.042631 17.000000 14 358.468944
-0.903761 2.379153 1.936688 18.000000 12 358.468946
-1.258507 3.314771 2.168327 9.000000 10 358.468949
-1.322963 3.484550 1.810477 12.000000 8 358.468951
-1.337200 3.523901 1.400205 11.000000 6 358.468954
-1.341064 3.535945 1.002816 12.000000 4 358.468956
-0.800385 2.111461 0.406757 16.000000 2 358.468959
-1.176972 3.106556 0.227683 12.000000 0 358.468962
-0.007995 0.043667 3.534139 91.000000 31 358.468972
-0.276073 0.791585 5.329884 40.000000 28 358.468975
-0.361425 1.040149 5.317478 96.000000 27 358.468977
-0.388983 1.051819 3.630117 16.000000 25 358.468980
-0.502409 1.335871 3.421895 93.000000 23 358.468982
-0.646422 1.717912 3.429652 77.000000 21 358.468985
-0.809900 2.152386 3.450224 11.000000 19 358.468987
-0.827124 2.198167 2.887566 9.000000 17 358.468990
-0.061484 0.207299 3.568429 31.000000 30 358.468998
-0.176962 0.549124 5.329166 36.000000 29 358.469000
-0.467551 1.292455 5.325451 98.000000 26 358.469003
-0.433862 1.159733 3.421441 89.000000 24 358.469005
-0.571102 1.524996 3.429388 92.000000 22 358.469008
-0.723499 1.930938 3.443028 12.000000 20 358.469010
-0.853276 2.277312 3.293848 16.000000 18 358.469013
-0.748597 1.997938 2.391248 14.000000 16 358.469016
-0.767510 2.032208 2.214520 16.000000 15 358.468973
-0.805687 2.133301 1.920456 19.000000 13 358.468976
-1.151099 3.049499 2.221648 11.000000 11 358.468978
-1.313144 3.478799 2.032140 11.000000 9 358.468981
-1.322512 3.505469 1.602062 11.000000 7 358.468984
-1.333886 3.537487 1.200489 10.000000 5 358.468986
-0.769518 2.040771 0.505556 78.000000 3 358.468989
-0.776194 2.059563 0.290156 80.000000 1 358.468991
-0.772508 2.055201 2.035981 17.000000 14 358.468999
-0.895451 2.382293 1.936688 17.000000 12 358.469002
-1.248445 3.323180 2.170860 10.000000 10 358.469004
-1.307600 3.480650 1.806281 12.000000 8 358.469007
-1.319911 3.515284 1.395276 11.000000 6 358.469009
-1.333837 3.554257 1.006333 12.000000 4 358.469012
-0.789532 2.104968 0.405377 16.000000 2 358.469014
-1.166120 3.110645 0.227683 12.000000 0 358.469017
-0.007842 0.043695 3.534139 91.000000 31 358.469028
-0.273308 0.792544 5.329884 39.000000 28 358.469030
-0.357792 1.041405 5.317478 96.000000 27 358.469033
-0.385309 1.053170 3.630117 19.000000 25 358.469035
-0.497743 1.337616 3.421895 93.000000 23 358.469038
-0.640421 1.720158 3.429652 77.000000 21 358.469040
-0.802382 2.155200 3.450224 10.000000 19 358.469043
-0.783652 2.104898 2.764784 9.000000 17 358.469045
-0.060680 0.207234 3.563438 33.000000 30 358.469053
-0.175045 0.549738 5.329166 37.000000 29 358.469056
-0.463037 1.294079 5.325451 98.000000 26 358.469058
-0.429811 1.161240 3.421441 90.000000 24 358.469061
-0.565775 1.526980 3.429388 91.000000 22 358.469063
-0.716754 1.933452 3.443028 12.000000 20 358.469066
-0.853702 2.302885 3.325763 21.000000 18 358.469069
-0.739262 1.994182 2.383898 14.000000 16 358.469071
-0.757915 2.028193 2.207511 16.000000 15 358.469029
-0.798236 2.136100 1.920456 18.000000 13 358.469031
-1.143373 3.061333 2.227131 11.000000 11 358.469034
-1.296342 3.470911 2.025186 11.000000 9 358.469036
-1.305404 3.497034 1.596442 12.000000 7 358.469039
-1.316499 3.528637 1.196261 11.000000 5 358.469042
-0.758956 2.034240 0.503690 80.000000 3 358.469044
-0.765520 2.052928 0.289264 73.000000 1 358.469047
-0.762726 2.050885 2.029332 17.000000 14 358.469054
-0.887129 2.385404 1.936688 18.000000 12 358.469057
-1.236837 3.327518 2.170860 10.000000 10 358.469060
-1.290698 3.472430 1.799987 12.000000 8 358.469062
-1.304343 3.511016 1.391991 11.000000 6 358.469065
-1.318038 3.549778 1.003988 12.000000 4 358.469067
-0.780456 2.103069 0.404687 16.000000 2 358.469070
-1.155255 3.114697 0.227683 12.000000 0 358.469072
-0.007690 0.043722 3.534139 84.000000 31 358.469083
-0.270540 0.793493 5.329884 39.000000 28 358.469086
-0.354481 1.043611 5.322372 96.000000 27 358.469088
-0.381631 1.054509 3.630117 20.000000 25 358.469091
-0.493071 1.339346 3.421895 91.000000 23 358.469093
-0.634413 1.722383 3.429652 77.000000 21 358.469096
-0.794854 2.157987 3.450224 10.000000 19 358.469098
-0.738626 2.005338 2.634328 9.000000 17 358.469101
-0.059877 0.207166 3.558446 34.000000 30 358.469109
-0.173125 0.550346 5.329166 37.000000 29 358.469111
-0.458517 1.295687 5.325451 98.000000 26 358.469114
-0.425755 1.162734 3.421441 89.000000 24 358.469116
-0.560442 1.528946 3.429388 91.000000 22 358.469119
-0.710001 1.935942 3.443028 12.000000 20 358.469122
-0.859149 2.342636 3.377627 26.000000 18 358.469124
-0.729962 1.990384 2.376547 14.000000 16 358.469127
-0.748358 2.024137 2.200502 16.000000 15 358.469084
-0.790775 2.138874 1.920456 18.000000 13 358.469087
-1.134129 3.069227 2.229872 11.000000 11 358.469089
-1.279612 3.462948 2.018232 11.000000 9 358.469092
-1.288370 3.488523 1.590823 12.000000 7 358.469095
-1.299190 3.519710 1.192033 11.000000 5 358.469097
-0.750149 2.032269 0.502758 80.000000 3 358.469100
-0.756625 2.050915 0.288817 73.000000 1 358.469102
-0.754273 2.050031 2.026007 17.000000 14 358.469110
-0.878797 2.388487 1.936688 18.000000 12 358.469113
-1.226702 3.335861 2.173392 10.000000 10 358.469115
-1.275436 3.468395 1.795791 12.000000 8 358.469118
-1.287192 3.502250 1.387063 12.000000 6 358.469120
-1.300611 3.540670 1.000471 12.000000 4 358.469123
-0.769697 2.096483 0.403307 15.000000 2 358.469125
-1.144376 3.118711 0.227683 12.000000 0 358.469128
-0.007537 0.043749 3.534139 84.000000 31 358.469139
-0.267768 0.794432 5.329884 40.000000 28 358.469141
-0.350836 1.044842 5.322372 97.000000 27 358.469144
-0.376941 1.053022 3.620573 23.000000 25 358.469146
-0.488392 1.341059 3.421895 91.000000 23 358.469149
-0.628396 1.724587 3.429652 76.000000 21 358.469151
-0.787316 2.160749 3.450224 10.000000 19 358.469154
-0.717354 1.968745 2.584447 10.000000 17 358.469156
-0.059076 0.207095 3.553454 34.000000 30 358.469164
-0.171202 0.550947 5.329166 37.000000 29 358.469167
-0.453991 1.297280 5.325451 98.000000 26 358.469169
-0.421694 1.164213 3.421441 89.000000 24 358.469172
-0.555101 1.530893 3.429388 91.000000 22 358.469174
-0.703239 1.938408 3.443028 12.000000 20 358.469177
-0.865357 2.385287 3.433480 22.000000 18 358.469180
-0.720697 1.986546 2.369197 14.000000 16 358.469182
-0.740063 2.023388 2.196998 16.000000 15 358.469140
-0.784641 2.145277 1.923594 19.000000 13 358.469142
-1.127716 3.084949 2.238096 11.000000 11 358.469145
-1.262953 3.454910 2.011278 11.000000 9 358.469148
-1.271413 3.479936 1.585204 12.000000 7 358.469150
-1.281960 3.510705 1.187806 11.000000 5 358.469153
-0.739681 2.025646 0.500892 80.000000 3 358.469155
-0.746047 2.044187 0.287925 78.000000 1 358.469158
-0.744558 2.045633 2.019357 17.000000 14 358.469166
-0.870455 2.391540 1.936688 18.000000 12 358.469168
-1.216524 3.344174 2.175925 10.000000 10 358.469171
-1.260219 3.464296 1.791595 12.000000 8 358.469173
-1.271732 3.497845 1.383778 12.000000 6 358.469176
-1.284924 3.536051 0.998127 12.000000 4 358.469178
-0.760684 2.094502 0.402618 15.000000 2 358.469181
-1.133482 3.122686 0.227683 12.000000 0 358.469183
-0.007384 0.043775 3.534139 91.000000 31 358.469194
-0.264748 0.794625 5.324944 33.000000 28 358.469197
-0.347187 1.046061 5.322372 97.000000 27 358.469199
-0.372267 1.051516 3.611030 26.000000 25 358.469202
-0.483708 1.342755 3.421895 93.000000 23 358.469204
-0.622373 1.726770 3.429652 76.000000 21 358.469207
-0.779769 2.163484 3.450224 10.000000 19 358.469209
-0.705042 1.956157 2.565263 11.000000 17 358.469212
-0.058353 0.207300 3.553454 36.000000 30 358.469220
-0.169434 0.552052 5.334137 36.000000 29 358.469222
-0.449460 1.298857 5.325451 98.000000 26 358.469225
-0.417627 1.165678 3.421441 89.000000 24 358.469227
-0.549487 1.532917 3.429388 92.000000 22 358.469230
-0.697010 1.943428 3.447294 12.000000 20 358.469233
-0.863731 2.408302 3.461406 19.000000 18 358.469235
-0.711122 1.982792 2.361846 14.000000 16 358.469238
-0.730569 2.019252 2.189989 16.000000 15 358.469195
-0.777148 2.148003 1.923594 18.000000 13 358.469198
-1.116940 3.088867 2.238096 11.000000 11 358.469200
-1.247872 3.450966 2.006642 11.000000 9 358.469203
-1.256106 3.475633 1.581458 11.000000 7 358.469206
-1.266438 3.506134 1.184987 11.000000 5 358.469208
-0.730584 2.023723 0.499960 80.000000 3 358.469211
-0.736859 2.042223 0.287479 80.000000 1 358.469213
-0.734526 2.041320 2.012707 17.000000 14 358.469221
-0.860315 2.390911 1.933745 17.000000 12 358.469224
-1.205718 3.352667 2.178457 10.000000 10 358.469226
-1.242905 3.456079 1.785300 12.000000 8 358.469229
-1.254111 3.489151 1.378850 12.000000 6 358.469231
-1.267025 3.527014 0.994610 12.000000 4 358.469234
-0.749655 2.087954 0.401238 16.000000 2 358.469236
-1.122575 3.126623 0.227683 11.000000 0 358.469239
-0.007224 0.043801 3.534139 91.000000 31 358.469250
-0.262077 0.796328 5.329884 33.000000 28 358.469252
-0.343351 1.047326 5.322372 96.000000 27 358.469255
-0.367424 1.050053 3.601486 31.000000 25 358.469257
-0.478784 1.344519 3.421895 93.000000 23 358.469260
-0.616040 1.729039 3.429652 76.000000 21 358.469262
-0.772779 2.168979 3.454357 10.000000 19 358.469265
-0.697868 1.958728 2.565263 11.000000 17 358.469268
-0.057517 0.207233 3.548463 37.000000 30 358.469275
-0.167410 0.552669 5.334137 36.000000 29 358.469278
-0.444697 1.300495 5.325451 98.000000 26 358.469280
-0.413352 1.167201 3.421441 90.000000 24 358.469283
-0.544132 1.534826 3.429388 91.000000 22 358.469286
-0.690222 1.945849 3.447294 12.000000 20 358.469288
-0.858342 2.419824 3.473375 17.000000 18 358.469291
-0.701930 1.978872 2.354496 14.000000 16 358.469293
-0.720761 2.015200 2.182980 16.000000 15 358.469251
-0.769270 2.150837 1.923594 17.000000 13 358.469253
-1.107019 3.096878 2.240838 11.000000 11 358.469256
-1.230742 3.443001 1.999688 11.000000 9 358.469259
-1.238680 3.467117 1.575839 11.000000 7 358.469261
-1.248739 3.497199 1.180760 12.000000 5 358.469264
-0.721863 2.021635 0.499027 82.000000 3 358.469266
-0.728052 2.040092 0.287033 80.000000 1 358.469269
-0.724892 2.036835 2.006058 17.000000 14 358.469277
-0.851964 2.393899 1.933745 17.000000 12 358.469279
-1.195453 3.360918 2.180989 10.000000 10 358.469282
-1.227792 3.451845 1.781104 12.000000 8 358.469284
-1.238760 3.484608 1.375564 12.000000 6 358.469287
-1.251451 3.522255 0.992265 12.000000 4 358.469289
-0.740705 2.085891 0.400548 16.000000 2 358.469292
-1.111108 3.130717 0.227683 11.000000 0 358.469294
-0.007071 0.043826 3.534139 91.000000 31 358.469305
-0.259295 0.797238 5.329884 39.000000 28 358.469308
-0.339693 1.048518 5.322372 95.000000 27 358.469310
-0.363268 1.049918 3.596715 37.000000 25 358.469313
-0.474087 1.346182 3.421895 93.000000 23 358.469315
-0.610000 1.731179 3.429652 77.000000 21 358.469318
-0.765203 2.171663 3.454357 10.000000 19 358.469320
-0.687830 1.952081 2.553752 12.000000 17 358.469323
-0.056793 0.207433 3.548463 37.000000 30 358.469331
-0.165480 0.553250 5.334137 38.000000 29 358.469333
-0.440155 1.302040 5.325451 98.000000 26 358.469336
-0.409275 1.168636 3.421441 89.000000 24 358.469338
-0.538772 1.536716 3.429388 91.000000 22 358.469341
-0.683425 1.948247 3.447294 12.000000 20 358.469344
-0.849890 2.422805 3.473375 17.000000 18 358.469346
-0.692774 1.974912 2.347146 14.000000 16 358.469349
-0.712533 2.014341 2.179475 16.000000 15 358.469306
-0.761757 2.153509 1.923594 17.000000 13 358.469309
-1.087840 3.077069 2.224389 9.000000 11 358.469312
-1.215763 3.438922 1.995052 11.000000 9 358.469314
-1.223481 3.462677 1.572093 11.000000 7 358.469317
-1.233329 3.492489 1.177941 12.000000 5 358.469319
-0.713166 2.019511 0.498095 82.000000 3 358.469322
-0.717612 2.033229 0.286140 78.000000 1 358.469324
-0.715298 2.032308 1.999408 17.000000 14 358.469332
-0.844944 2.400671 1.936688 17.000000 12 358.469335
-1.185144 3.369137 2.183522 10.000000 10 358.469337
-1.211217 3.443266 1.774810 12.000000 8 358.469340
-1.221890 3.475545 1.370636 12.000000 6 358.469342
-1.235926 3.517430 0.989921 13.000000 4 358.469345
-0.730138 2.079119 0.399169 16.000000 2 358.469347
-1.100173 3.134576 0.227683 12.000000 0 358.469350
-0.006921 0.043894 3.539139 91.000000 31 358.469361
-0.256748 0.798878 5.334823 39.000000 28 358.469363
-0.336031 1.049698 5.322372 95.000000 27 358.469366
-0.358634 1.048353 3.587171 57.000000 25 358.469368
-0.469385 1.347829 3.421895 93.000000 23 358.469371
-0.604742 1.735560 3.434041 76.000000 21 358.469373
-0.758544 2.176978 3.458490 10.000000 19 358.469376
-0.678902 1.948416 2.546078 12.000000 17 358.469379
-0.055994 0.207350 3.543471 39.000000 30 358.469386
-0.163547 0.553824 5.334137 37.000000 29 358.469389
-0.436005 1.304761 5.330290 99.000000 26 358.469391
-0.405193 1.170058 3.421441 90.000000 24 358.469394
-0.533404 1.538587 3.429388 91.000000 22 358.469397
-0.677475 1.953084 3.451560 11.000000 20 358.469399
-0.840440 2.422909 3.469386 16.000000 18 358.469402
-0.684765 1.974115 2.343471 14.000000 16 358.469404
-0.703142 2.010084 2.172466 16.000000 15 358.469362
-0.754235 2.156155 1.923594 18.000000 13 358.469364
-1.037073 2.966380 2.144887 6.000000 11 358.469367
-1.199365 3.430599 1.988098 11.000000 9 358.469370
-1.206799 3.453797 1.566474 11.000000 7 358.469372
-1.216385 3.483185 1.173714 12.000000 5 358.469375
-0.702873 2.012712 0.496229 81.000000 3 358.469377
-0.708869 2.031020 0.285694 80.000000 1 358.469380
-0.706972 2.031266 1.996083 17.000000 14 358.469388
-0.843202 2.422693 1.951404 16.000000 12 358.469390
-1.174793 3.377326 2.186054 10.000000 10 358.469393
-1.194717 3.434613 1.768516 11.000000 8 358.469395
-1.206649 3.470868 1.367351 12.000000 6 358.469398
-1.218854 3.507949 0.986404 13.000000 4 358.469400
-0.721251 2.076977 0.398479 16.000000 2 358.469403
-1.089225 3.138398 0.227683 12.000000 0 358.469406
-0.006768 0.043918 3.539139 91.000000 31 358.469416
-0.253958 0.799770 5.334823 39.000000 28 358.469419
-0.332365 1.050864 5.322372 97.000000 27 358.469421
-0.354494 1.048184 3.582400 61.000000 25 358.469424
-0.464678 1.349459 3.421895 93.000000 23 358.469426
-0.598680 1.737661 3.434041 77.000000 21 358.469429
-0.750940 2.179612 3.458490 11.000000 19 358.469432
-0.670008 1.944711 2.538404 12.000000 17 358.469434
-0.055270 0.207544 3.543471 40.000000 30 358.469442
-0.161613 0.554392 5.334137 37.000000 29 358.469444
-0.431448 1.306275 5.330290 99.000000 26 358.469447
-0.401107 1.171465 3.421441 89.000000 24 358.469450
-0.528030 1.540439 3.429388 91.000000 22 358.469452
-0.670653 1.955437 3.451560 11.000000 20 358.469455
-0.831977 2.425829 3.469386 16.000000 18 358.469457
-0.675670 1.970080 2.336120 15.000000 16 358.469460
-0.694955 2.009156 2.168962 16.000000 15 358.469417
-0.746704 2.158775 1.923594 18.000000 13 358.469420
-1.183040 3.422203 1.981144 11.000000 9 358.469425
-1.191708 3.449225 1.562728 11.000000 7 358.469428
-1.199522 3.473807 1.169486 12.000000 5 358.469430
-0.694240 2.010510 0.495297 83.000000 3 358.469433
-0.700150 2.028774 0.285248 80.000000 1 358.469435
-0.697447 2.026659 1.989434 17.000000 14 358.469443
-0.859731 2.498240 2.007324 14.000000 12 358.469446
-1.161595 3.377329 2.183522 12.000000 10 358.469448
-1.178293 3.425887 1.762222 12.000000 8 358.469451
-1.189921 3.461661 1.362423 12.000000 6 358.469453
-1.203443 3.502988 0.984059 13.000000 4 358.469456
-0.712388 2.074798 0.397789 16.000000 2 358.469458
-1.079885 3.146906 0.227885 12.000000 0 358.469461
-0.006614 0.043942 3.539139 91.000000 31 358.469472
-0.250933 0.799910 5.329884 39.000000 28 358.469474
-0.328694 1.052018 5.322372 96.000000 27 358.469477
-0.350833 1.049415 3.582400 71.000000 25 358.469479
-0.459964 1.351073 3.421895 93.000000 23 358.469482
-0.592611 1.739740 3.434041 77.000000 21 358.469484
-0.743327 2.182220 3.458490 11.000000 19 358.469487
-0.661149 1.940969 2.530730 12.000000 17 358.469490
-0.054545 0.207735 3.543471 41.000000 30 358.469497
-0.159677 0.554953 5.334137 37.000000 29 358.469500
-0.426886 1.307773 5.330290 99.000000 26 358.469502
-0.397015 1.172858 3.421441 89.000000 24 358.469505
-0.522650 1.542273 3.429388 92.000000 22 358.469508
-0.663824 1.957766 3.451560 12.000000 20 358.469510
-0.823504 2.428718 3.469386 14.000000 18 358.469513
-0.667700 1.969216 2.332445 15.000000 16 358.469515
-0.685630 2.004820 2.161952 16.000000 15 358.469473
-0.739164 2.161368 1.923594 19.000000 13 358.469476
-0.844589 2.471047 1.796721 12.000000 11 358.469478
-1.168222 3.417928 1.976508 11.000000 9 358.469481
-1.176663 3.444590 1.558982 11.000000 7 358.469483
-1.184289 3.468893 1.166668 12.000000 5 358.469486
-0.684044 2.003624 0.493431 82.000000 3 358.469488
-0.689848 2.021780 0.284355 80.000000 1 358.469491
-0.689166 2.025546 1.986109 16.000000 14 358.469499
-0.925215 2.719341 2.175084 13.000000 12 358.469501
-1.147022 3.373199 2.178457 11.000000 10 358.469504
-1.161944 3.417088 1.755927 12.000000 8 358.469506
-1.174791 3.456851 1.359137 12.000000 6 358.469509
-1.186519 3.493361 0.980542 13.000000 4 358.469511
-0.703550 2.072583 0.397099 16.000000 2 358.469514
-1.068893 3.150656 0.227885 11.000000 0 358.469517
-0.006463 0.044008 3.544138 91.000000 31 358.469527
-0.248139 0.800781 5.329884 39.000000 28 358.469530
-0.325020 1.053159 5.322372 96.000000 27 358.469532
-0.346699 1.049215 3.577628 65.000000 25 358.469535
-0.455246 1.352670 3.421895 85.000000 23 358.469537
-0.586534 1.741798 3.434041 77.000000 21 358.469540
-0.734807 2.182135 3.454357 11.000000 19 358.469543
-0.652323 1.937188 2.523056 13.000000 17 358.469545
-0.053820 0.207925 3.543471 43.000000 30 358.469553
-0.157739 0.555507 5.334137 38.000000 29 358.469555
-0.422318 1.309255 5.330290 98.000000 26 358.469558
-0.392919 1.174237 3.421441 90.000000 24 358.469561
-0.516994 1.544178 3.429388 91.000000 22 358.469563
-0.656644 1.960186 3.451560 12.000000 20 358.469566
-0.814597 2.431720 3.469386 14.000000 18 358.469568
-0.659402 1.968436 2.328770 15.000000 16 358.469571
-0.676343 2.000445 2.154943 16.000000 15 358.469528
-0.731615 2.163935 1.923594 19.000000 13 358.469531
-0.834619 2.470018 1.793979 14.000000 11 358.469534
-1.152030 3.409394 1.969554 11.000000 9 358.469536
-1.160183 3.435500 1.553363 12.000000 7 358.469539
-1.167571 3.459369 1.162440 12.000000 5 358.469541
-0.675125 2.001463 0.492499 82.000000 3 358.469544
-0.680842 2.019575 0.283909 80.000000 1 358.469546
-0.679357 2.020979 1.979459 16.000000 14 358.469554
-0.959031 2.852979 2.275152 13.000000 12 358.469557
-1.133278 3.373294 2.175925 11.000000 10 358.469559
-1.145075 3.408417 1.749633 11.000000 8 358.469562
-1.157604 3.447703 1.354209 12.000000 6 358.469564
-1.170614 3.488470 0.978197 13.000000 4 358.469567
-0.694374 2.070452 0.396409 16.000000 2 358.469570
-1.057889 3.154368 0.227885 11.000000 0 358.469572
-0.006302 0.044031 3.544138 91.000000 31 358.469583
-0.244975 0.800942 5.324944 39.000000 28 358.469585
-0.321158 1.054343 5.322372 96.000000 27 358.469588
-0.342388 1.049059 3.572856 57.000000 25 358.469590
-0.450285 1.354330 3.421895 85.000000 23 358.469593
-0.580146 1.743936 3.434041 77.000000 21 358.469596
-0.726804 2.184814 3.454357 11.000000 19 358.469598
-0.644207 1.936524 2.519219 13.000000 17 358.469601
-0.053058 0.208120 3.543471 48.000000 30 358.469608
-0.155702 0.556081 5.334137 38.000000 29 358.469611
-0.417517 1.310795 5.330290 98.000000 26 358.469614
-0.388612 1.175669 3.421441 89.000000 24 358.469616
-0.511600 1.545974 3.429388 91.000000 22 358.469619
-0.648978 1.959991 3.447294 11.000000 20 358.469621
-0.807998 2.440271 3.477364 13.000000 18 358.469624
-0.650395 1.964289 2.321420 15.000000 16 358.469626
-0.666747 1.996145 2.147934 17.000000 15 358.469584
-0.723679 2.166602 1.923594 19.000000 13 358.469587
-0.826885 2.477027 1.796721 15.000000 11 358.469589
-1.136720 3.405189 1.964918 11.000000 9 358.469592
-1.144649 3.430933 1.549617 12.000000 7 358.469594
-1.150331 3.449972 1.158213 13.000000 5 358.469597
-0.665027 1.994488 0.490634 82.000000 3 358.469599
-0.670640 2.012491 0.283017 80.000000 1 358.469602
-0.669944 2.016250 1.972809 16.000000 14 358.469610
-0.961811 2.894668 2.304584 13.000000 12 358.469612
-1.114703 3.356771 2.163262 10.000000 10 358.469615
-1.130310 3.403779 1.745437 11.000000 8 358.469617
-1.142587 3.442759 1.350924 13.000000 6 358.469620
-1.153839 3.478694 0.974680 13.000000 4 358.469622
-0.684026 2.063463 0.395030 16.000000 2 358.469625
-1.047892 3.162967 0.228087 11.000000 0 358.469628
-0.006148 0.044053 3.544138 91.000000 31 358.469638
-0.242178 0.801792 5.324944 39.000000 28 358.469641
-0.317476 1.055458 5.322372 97.000000 27 358.469643
-0.338266 1.048826 3.568084 48.000000 25 358.469646
-0.445554 1.355893 3.421895 93.000000 23 358.469648
-0.574055 1.745950 3.434041 74.000000 21 358.469651
-0.717416 2.181990 3.446091 10.000000 19 358.469653
-0.635440 1.932670 2.511545 13.000000 17 358.469656
-0.052331 0.208304 3.543471 53.000000 30 358.469664
-0.153760 0.556621 5.334137 38.000000 29 358.469666
-0.412561 1.311044 5.325451 98.000000 26 358.469669
-0.385042 1.178659 3.426134 89.000000 24 358.469671
-0.506201 1.547750 3.429388 91.000000 22 358.469674
-0.642132 1.962244 3.447294 11.000000 20 358.469676
-0.796663 2.434483 3.465396 13.000000 18 358.469679
-0.642480 1.963325 2.317744 16.000000 16 358.469682
-0.658657 1.995074 2.144429 17.000000 15 358.469639
-0.716112 2.169115 1.923594 19.000000 13 358.469642
-0.818233 2.479898 1.796721 14.000000 11 358.469644
-1.120663 3.396515 1.957963 11.000000 9 358.469647
-1.128310 3.421700 1.543997 12.000000 7 358.469650
-1.135279 3.444854 1.155394 12.000000 5 358.469652
-0.656524 1.992131 0.489701 82.000000 3 358.469655
-0.660495 2.005359 0.282124 80.000000 1 358.469657
-0.660571 2.011480 1.966160 16.000000 14 358.469665
-0.954223 2.905688 2.310470 13.000000 12 358.469668
-1.101634 3.356546 2.160730 10.000000 10 358.469670
-1.114176 3.394767 1.739143 12.000000 8 358.469673
-1.126147 3.433264 1.345996 13.000000 6 358.469675
-1.138661 3.473463 0.972336 14.000000 4 358.469678
-0.675277 2.061131 0.394340 16.000000 2 358.469680
-1.036844 3.166605 0.228087 12.000000 0 358.469683
-0.005994 0.044074 3.544138 91.000000 31 358.469694
-0.239156 0.801888 5.320005 36.000000 28 358.469696
-0.313789 1.056560 5.322372 97.000000 27 358.469699
-0.334150 1.048578 3.563313 40.000000 25 358.469701
-0.441422 1.359298 3.426497 93.000000 23 358.469704
-0.567957 1.747943 3.434041 74.000000 21 358.469706
-0.708055 2.179129 3.437826 10.000000 19 358.469709
-0.626709 1.928778 2.503871 13.000000 17 358.469711
-0.051603 0.208486 3.543471 57.000000 30 358.469719
-0.151816 0.557154 5.334137 38.000000 29 358.469722
-0.407982 1.312476 5.325451 98.000000 26 358.469724
-0.380925 1.179996 3.426134 90.000000 24 358.469727
-0.500795 1.549508 3.429388 91.000000 22 358.469729
-0.635279 1.964473 3.447294 11.000000 20 358.469732
-0.787233 2.434381 3.461406 12.000000 18 358.469735
-0.634580 1.962330 2.314069 16.000000 16 358.469737
-0.649477 1.990580 2.137420 17.000000 15 358.469695
-0.708536 2.171601 1.923594 19.000000 13 358.469697
-1.106053 3.391982 1.953327 11.000000 9 358.469702
-1.113486 3.416802 1.540251 12.000000 7 358.469705
-1.118790 3.435112 1.151167 12.000000 5 358.469708
-0.646523 1.985069 0.487836 82.000000 3 358.469710
-0.650408 1.998181 0.281232 78.000000 1 358.469713
-0.651240 2.006670 1.959510 16.000000 14 358.469720
-0.944075 2.909001 2.310470 13.000000 12 358.469723
-1.085921 3.348068 2.153133 10.000000 10 358.469726
-1.099519 3.390002 1.734947 12.000000 8 358.469728
-1.111244 3.428190 1.342710 13.000000 6 358.469731
-1.122036 3.463544 0.968819 14.000000 4 358.469733
-0.666553 2.058765 0.393650 16.000000 2 358.469736
-1.025784 3.170206 0.228087 12.000000 0 358.469738
-0.005839 0.044051 3.539139 91.000000 31 358.469749
-0.236355 0.802718 5.320005 36.000000 28 358.469752
-0.310099 1.057649 5.322372 97.000000 27 358.469754
-0.329591 1.046888 3.553769 40.000000 25 358.469757
-0.436675 1.360831 3.426497 93.000000 23 358.469759
-0.561853 1.749915 3.434041 76.000000 21 358.469762
-0.698724 2.176229 3.429559 9.000000 19 358.469764
-0.618992 1.927902 2.500035 14.000000 17 358.469767
-0.050875 0.208665 3.543471 60.000000 30 358.469775
-0.149870 0.557681 5.334137 38.000000 29 358.469777
-0.403399 1.313892 5.325451 98.000000 26 358.469780
-0.376804 1.181318 3.426134 92.000000 24 358.469782
-0.495383 1.551246 3.429388 91.000000 22 358.469785
-0.628417 1.966679 3.447294 11.000000 20 358.469788
-0.768640 2.405534 3.417522 11.000000 18 358.469790
-0.625663 1.958075 2.306719 16.000000 16 358.469793
-0.641430 1.989441 2.133916 17.000000 15 358.469750
-0.700951 2.174062 1.923594 18.000000 13 358.469753
-1.091489 3.387389 1.948691 11.000000 9 358.469758
-1.097290 3.407430 1.534632 12.000000 7 358.469761
-1.103853 3.429863 1.148348 12.000000 5 358.469763
-0.638085 1.982638 0.486903 82.000000 3 358.469766
-0.641904 1.995699 0.280786 76.000000 1 358.469768
-0.640811 1.998263 1.949535 17.000000 14 358.469776
-0.935149 2.916128 2.313413 13.000000 12 358.469779
-1.084909 3.385175 1.730751 12.000000 8 358.469784
-1.094949 3.418555 1.337782 13.000000 6 358.469786
-1.105493 3.453552 0.965302 13.000000 4 358.469789
-0.657854 2.056362 0.392960 16.000000 2 358.469791
-1.014712 3.173767 0.228087 12.000000 0 358.469794
-0.005685 0.044071 3.539139 90.000000 31 358.469805
-0.233552 0.803538 5.320005 33.000000 28 358.469807
-0.306406 1.058724 5.322372 96.000000 27 358.469810
-0.325491 1.046606 3.548997 38.000000 25 358.469812
-0.431922 1.362347 3.426497 93.000000 23 358.469815
-0.555741 1.751866 3.434041 76.000000 21 358.469817
-0.689422 2.173290 3.421294 8.000000 19 358.469820
-0.610320 1.923939 2.492361 13.000000 17 358.469822
-0.050213 0.209123 3.548463 66.000000 30 358.469830
-0.147786 0.557684 5.329166 38.000000 29 358.469833
-0.398810 1.315292 5.325451 98.000000 26 358.469835
-0.372678 1.182626 3.426134 90.000000 24 358.469838
-0.489965 1.552966 3.429388 91.000000 22 358.469840
-0.621549 1.968861 3.447294 11.000000 20 358.469843
-0.747536 2.367964 3.361669 10.000000 18 358.469846
-0.617803 1.957014 2.303044 16.000000 16 358.469848
-0.632316 1.984872 2.126907 17.000000 15 358.469806
-0.694540 2.180204 1.926732 19.000000 13 358.469808
-1.009135 3.169659 2.265511 9.000000 11 358.469811
-1.075626 3.378514 1.941737 11.000000 9 358.469814
-1.082578 3.402404 1.530886 12.000000 7 358.469816
-1.088966 3.424551 1.145530 12.000000 5 358.469819
-0.628184 1.975491 0.485038 83.000000 3 358.469821
-0.631917 1.988435 0.279893 74.000000 1 358.469824
-0.631576 1.993368 1.942886 17.000000 14 358.469832
-0.924964 2.919375 2.313413 13.000000 12 358.469834
-0.784013 2.476002 1.611193 5.000000 10 358.469837
-1.068975 3.375961 1.724457 12.000000 8 358.469839
-1.080160 3.413352 1.334497 13.000000 6 358.469842
-1.090500 3.448121 0.962957 14.000000 4 358.469844
-0.647687 2.049202 0.391581 16.000000 2 358.469847
-1.005132 3.182054 0.228288 12.000000 0 358.469849
-0.005531 0.044091 3.539139 91.000000 31 358.469860
-0.230746 0.804348 5.320005 31.000000 28 358.469863
-0.302708 1.059788 5.322372 96.000000 27 358.469865
-0.320959 1.044880 3.539454 38.000000 25 358.469868
-0.427164 1.363846 3.426497 93.000000 23 358.469870
-0.549622 1.753795 3.434041 74.000000 21 358.469873
-0.680148 2.170312 3.413028 6.000000 19 358.469875
-0.602642 1.922999 2.488523 14.000000 17 358.469878
-0.049482 0.209297 3.548463 65.000000 30 358.469886
-0.145839 0.558197 5.329166 37.000000 29 358.469888
-0.394577 1.317882 5.330290 99.000000 26 358.469891
-0.368548 1.183920 3.426134 90.000000 24 358.469893
-0.485189 1.556746 3.433889 91.000000 22 358.469896
-0.614672 1.971018 3.447294 11.000000 20 358.469899
-0.713244 2.287118 3.245974 9.000000 18 358.469901
-0.608950 1.952685 2.295693 16.000000 16 358.469904
-0.624314 1.983665 2.123402 17.000000 15 358.469861
-0.686925 2.182615 1.926732 19.000000 13 358.469864
-0.998065 3.173162 2.265511 9.000000 11 358.469866
-1.059838 3.369569 1.934783 11.000000 9 358.469869
-1.066524 3.392895 1.525267 12.000000 7 358.469872
-1.074130 3.419178 1.142712 12.000000 5 358.469874
-0.619812 1.972985 0.484105 80.000000 3 358.469877
-0.623481 1.985877 0.279447 76.000000 1 358.469879
-0.621267 1.984869 1.932911 19.000000 14 358.469887
-0.915975 2.926443 2.316356 13.000000 12 358.469890
-0.770217 2.462265 1.601064 13.000000 10 358.469892
-1.054475 3.371009 1.720261 12.000000 8 358.469895
-1.065420 3.408087 1.331212 13.000000 6 358.469897
-1.074109 3.437988 0.959440 14.000000 4 358.469900
-0.639054 2.046723 0.390891 16.000000 2 358.469902
-0.995507 3.190312 0.228490 12.000000 0 358.469905
-0.005377 0.044110 3.539139 91.000000 31 358.469916
-0.227937 0.805149 5.320005 32.000000 28 358.469918
-0.299007 1.060838 5.322372 96.000000 27 358.469921
-0.316443 1.043136 3.529911 37.000000 25 358.469923
-0.422400 1.365329 3.426497 93.000000 23 358.469926
-0.544205 1.757992 3.438430 71.000000 21 358.469928
-0.670904 2.167297 3.404762 6.000000 19 358.469931
-0.594030 1.918965 2.480850 13.000000 17 358.469934
-0.048752 0.209468 3.548463 72.000000 30 358.469941
-0.143889 0.558703 5.329166 37.000000 29 358.469944
-0.389974 1.319251 5.330290 99.000000 26 358.469946
-0.364413 1.185199 3.426134 90.000000 24 358.469949
-0.479480 1.558514 3.433889 91.000000 22 358.469952
-0.608211 1.975751 3.451560 11.000000 20 358.469954
-0.678255 2.203300 3.126289 10.000000 18 358.469957
-0.600791 1.951664 2.292018 16.000000 16 358.469959
-0.615268 1.979021 2.116393 17.000000 15 358.469917
-0.679302 2.184999 1.926732 18.000000 13 358.469919
-0.988223 3.180620 2.268253 10.000000 11 358.469922
-1.042812 3.356326 1.925511 11.000000 9 358.469925
-1.051925 3.387742 1.521521 12.000000 7 358.469927
-1.059345 3.413743 1.139893 12.000000 5 358.469930
-0.609666 1.965860 0.482240 80.000000 3 358.469932
-0.614724 1.983392 0.279001 73.000000 1 358.469935
-0.611784 1.979997 1.926261 22.000000 14 358.469943
-0.906436 2.933642 2.319299 13.000000 12 358.469945
-0.757371 2.452714 1.593466 14.000000 10 358.469948
-1.039434 3.366178 1.716065 12.000000 8 358.469950
-1.050137 3.402944 1.327926 13.000000 6 358.469953
-1.058636 3.432612 0.957096 14.000000 4 358.469955
-0.630089 2.044319 0.390201 16.000000 2 358.469958
-0.985836 3.198542 0.228691 12.000000 0 358.469960
-0.005215 0.044129 3.539139 85.000000 31 358.469971
-0.225193 0.806727 5.324944 32.000000 28 358.469974
-0.295117 1.061926 5.322372 96.000000 27 358.469976
-0.311761 1.041427 3.520367 37.000000 25 358.469979
-0.417393 1.366868 3.426497 93.000000 23 358.469981
-0.537758 1.759974 3.438430 56.000000 21 358.469984
-0.661311 2.164359 3.396496 6.000000 19 358.469986
-0.586056 1.918064 2.477013 13.000000 17 358.469989
-0.047920 0.209363 3.543471 71.000000 30 358.469997
-0.141971 0.559744 5.334137 37.000000 29 358.469999
-0.385136 1.320671 5.330290 99.000000 26 358.470002
-0.360066 1.186527 3.426134 90.000000 24 358.470004
-0.474037 1.560178 3.433889 91.000000 22 358.470007
-0.601311 1.977862 3.451560 11.000000 20 358.470010
-0.660040 2.171051 3.078415 11.000000 18 358.470012
-0.592003 1.947262 2.284668 16.000000 16 358.470015
-0.605918 1.974445 2.109384 17.000000 15 358.469972
-0.672431 2.191196 1.929870 18.000000 13 358.469975
-0.977785 3.188218 2.270994 10.000000 11 358.469978
-1.029204 3.355890 1.923193 11.000000 9 358.469980
-1.036784 3.382710 1.517775 12.000000 7 358.469983
-1.044016 3.408429 1.137075 12.000000 5 358.469985
-0.601362 1.963279 0.481307 81.000000 3 358.469988
-0.604881 1.976002 0.278108 73.000000 1 358.469990
-0.603778 1.978549 1.922937 22.000000 14 358.469998
-0.897370 2.940655 2.322242 13.000000 12 358.470001
-0.747547 2.451219 1.590934 14.000000 10 358.470003
-1.023706 3.356762 1.709770 12.000000 8 358.470006
-1.034121 3.393037 1.322998 13.000000 6 358.470008
-1.043815 3.426987 0.954751 14.000000 4 358.470011
-0.620065 2.037031 0.388821 17.000000 2 358.470013
-0.977014 3.211693 0.229094 13.000000 0 358.470016
-0.005061 0.044147 3.539139 85.000000 31 358.470027
-0.222581 0.808258 5.329884 35.000000 28 358.470029
-0.291677 1.063932 5.327268 96.000000 27 358.470032
-0.307700 1.041077 3.515595 37.000000 25 358.470034
-0.412620 1.368317 3.426497 91.000000 23 358.470037
-0.532304 1.764134 3.442818 37.000000 21 358.470039
-0.652939 2.163960 3.392363 6.000000 19 358.470042
-0.577505 1.913959 2.469339 14.000000 17 358.470045
-0.047189 0.209529 3.543471 72.000000 30 358.470052
-0.140017 0.560236 5.334137 37.000000 29 358.470055
-0.380524 1.322008 5.330290 99.000000 26 358.470057
-0.355922 1.187776 3.426134 90.000000 24 358.470060
-0.468588 1.561823 3.433889 91.000000 22 358.470063
-0.594403 1.979948 3.451560 11.000000 20 358.470065
-0.649858 2.164681 3.066446 12.000000 18 358.470068
-0.583252 1.942823 2.277318 16.000000 16 358.470070
-0.596953 1.969722 2.102375 17.000000 15 358.470028
-0.664778 2.193530 1.929870 18.000000 13 358.470030
-0.967862 3.195614 2.273736 9.000000 11 358.470033
-1.017484 3.359462 1.923193 11.000000 9 358.470036
-1.020940 3.372997 1.512156 12.000000 7 358.470038
-1.029334 3.402869 1.134256 12.000000 5 358.470041
-0.593083 1.960665 0.480375 80.000000 3 358.470043
-0.596539 1.973335 0.277662 74.000000 1 358.470046
-0.595791 1.977068 1.919612 22.000000 14 358.470054
-0.888266 2.947639 2.325186 13.000000 12 358.470056
-0.738986 2.453813 1.590934 13.000000 10 358.470059
-1.009365 3.351624 1.705574 13.000000 8 358.470061
-1.019549 3.387582 1.319713 13.000000 6 358.470064
-1.029046 3.421301 0.952406 14.000000 4 358.470066
-0.611525 2.034441 0.388131 17.000000 2 358.470069
-0.967235 3.219868 0.229296 14.000000 0 358.470072
-0.004907 0.044165 3.539139 89.000000 31 358.470082
-0.220369 0.811279 5.344702 35.000000 28 358.470085
-0.287961 1.064944 5.327268 96.000000 27 358.470087
-0.303228 1.039277 3.506052 37.000000 25 358.470090
