# .PCD v.7 - Point Cloud Data file format
VERSION .7
FIELDS x y z intensity ring timestamp
SIZE 4 4 4 4 2 8
TYPE F F F F U D
COUNT 1 1 1 1 1 1
WIDTH 924
HEIGHT 1
VIEWPOINT 0 0 0 1 0 0 0
POINTS 924
DATA ascii
0.262297 -1.394782 1.953376 37.000000 18 358.322031
0.260234 -1.383828 1.604763 39.000000 16 358.322033
0.264053 -1.384174 1.464548 38.000000 15 358.321991
0.261720 -1.371955 1.208181 39.000000 13 358.321993
0.259523 -1.361729 0.993471 40.000000 11 358.321996
0.259038 -1.359201 0.810540 44.000000 9 358.321999
0.255949 -1.344269 0.641196 46.000000 7 358.322001
0.255556 -1.343481 0.491663 39.000000 5 358.322004
0.251516 -1.322241 0.347010 31.000000 3 358.322006
0.256575 -1.350120 0.216085 19.000000 1 358.322009
0.260213 -1.375782 1.327789 39.000000 14 358.322017
0.257385 -1.360843 1.092001 40.000000 12 358.322019
0.256484 -1.357374 0.897049 44.000000 10 358.322022
0.256376 -1.356816 0.725784 50.000000 8 358.322024
0.254145 -1.346297 0.565721 48.000000 6 358.322027
0.253152 -1.342321 0.420174 37.000000 4 358.322029
0.253963 -1.347913 0.283280 18.000000 2 358.322032
0.250400 -1.330280 0.148280 31.000000 0 358.322034
0.000170 -0.045001 3.604136 94.000000 31 358.322045
0.089817 -0.557654 3.591265 65.000000 28 358.322048
0.117550 -0.735445 3.604148 39.000000 27 358.322050
0.197636 -1.097819 3.611030 39.000000 25 358.322053
0.269161 -1.449329 3.532356 15.000000 23 358.322055
0.264527 -1.423015 2.718689 29.000000 21 358.322058
0.262408 -1.411630 2.181409 36.000000 19 358.322060
0.259904 -1.398173 1.778689 37.000000 17 358.322063
0.024439 -0.216588 3.598379 94.000000 30 358.322071
0.053266 -0.388024 3.604086 74.000000 29 358.322073
0.158123 -0.914329 3.607533 40.000000 26 358.322076
0.236369 -1.283957 3.604459 38.000000 24 358.322078
0.266291 -1.445122 3.100827 22.000000 22 358.322081
0.261436 -1.417412 2.427736 34.000000 20 358.322084
0.256880 -1.392726 1.949387 37.000000 18 358.322086
0.255028 -1.381350 1.601087 39.000000 16 358.322089
0.259220 -1.385087 1.464548 38.000000 15 358.322046
0.256929 -1.372860 1.208181 39.000000 13 358.322049
0.253999 -1.358517 0.990729 40.000000 11 358.322052
0.253478 -1.355742 0.808222 44.000000 9 358.322054
0.251490 -1.345110 0.641196 46.000000 7 358.322057
0.250219 -1.339605 0.490254 39.000000 5 358.322059
0.246899 -1.323111 0.347010 30.000000 3 358.322062
0.250948 -1.346112 0.215639 19.000000 1 358.322064
0.254728 -1.373011 1.324464 39.000000 14 358.322072
0.252633 -1.361733 1.092001 40.000000 12 358.322075
0.251195 -1.353979 0.894517 44.000000 10 358.322077
0.251875 -1.357658 0.725784 52.000000 8 358.322080
0.249679 -1.347132 0.565721 48.000000 6 358.322082
0.247814 -1.338374 0.419002 38.000000 4 358.322085
0.249491 -1.348748 0.283280 18.000000 2 358.322087
0.245079 -1.326190 0.148079 31.000000 0 358.322090
0.000021 -0.045002 3.604136 94.000000 31 358.322101
0.088088 -0.558717 3.596204 65.000000 28 358.322103
0.115110 -0.735831 3.604148 40.000000 27 358.322106
0.193994 -1.098469 3.611030 39.000000 25 358.322108
0.263653 -1.446370 3.523150 15.000000 23 358.322111
0.258946 -1.419171 2.709912 29.000000 21 358.322113
0.257220 -1.409724 2.177276 36.000000 19 358.322116
0.254690 -1.395873 1.774852 37.000000 17 358.322119
0.023682 -0.216672 3.598379 94.000000 30 358.322126
0.051911 -0.388207 3.604086 74.000000 29 358.322129
0.154930 -0.914876 3.607533 40.000000 26 358.322131
0.231885 -1.284774 3.604459 38.000000 24 358.322134
0.260722 -1.441711 3.091825 22.000000 22 358.322137
0.256269 -1.415705 2.423470 34.000000 20 358.322139
0.251723 -1.390604 1.945397 37.000000 18 358.322142
0.249601 -1.378895 1.597412 39.000000 16 358.322144
0.253981 -1.382431 1.461043 38.000000 15 358.322102
0.251672 -1.369876 1.205043 39.000000 13 358.322104
0.249493 -1.359352 0.990729 40.000000 11 358.322107
0.248181 -1.352218 0.805904 44.000000 9 358.322110
0.245957 -1.341420 0.639323 44.000000 7 358.322112
0.244677 -1.335752 0.488845 39.000000 5 358.322115
0.241625 -1.319091 0.346077 30.000000 3 358.322117
0.245586 -1.342038 0.215193 19.000000 1 358.322120
0.250174 -1.373848 1.324464 39.000000 14 358.322128
0.247392 -1.358587 1.089058 40.000000 12 358.322130
0.245695 -1.350605 0.891984 45.000000 10 358.322133
0.246322 -1.354064 0.723686 50.000000 8 358.322135
0.244131 -1.343349 0.564078 48.000000 6 358.322138
0.242272 -1.334448 0.417830 37.000000 4 358.322140
0.244782 -1.349611 0.283280 17.000000 2 358.322143
0.240448 -1.327037 0.148079 31.000000 0 358.322146
-0.000136 -0.045001 3.604136 94.000000 31 358.322156
0.086137 -0.559021 3.596204 65.000000 28 358.322159
0.112541 -0.736228 3.604148 40.000000 27 358.322161
0.190159 -1.099139 3.611030 39.000000 25 358.322164
0.257916 -1.443435 3.513946 14.000000 23 358.322166
0.253569 -1.417708 2.705523 28.000000 21 358.322169
0.251802 -1.407843 2.173143 37.000000 19 358.322172
0.248688 -1.390442 1.767178 37.000000 17 358.322174
0.022926 -0.216753 3.598379 93.000000 30 358.322182
0.050556 -0.388386 3.604086 75.000000 29 358.322184
0.151735 -0.915411 3.607533 40.000000 26 358.322187
0.227399 -1.285576 3.604459 38.000000 24 358.322190
0.255308 -1.440468 3.087324 22.000000 22 358.322192
0.250415 -1.411455 2.414938 34.000000 20 358.322195
0.246868 -1.391474 1.945397 38.000000 18 358.322197
0.244194 -1.376420 1.593737 39.000000 16 358.322200
0.248522 -1.379800 1.457538 38.000000 15 358.322157
0.246198 -1.366915 1.201905 39.000000 13 358.322160
0.244006 -1.356099 0.987988 40.000000 11 358.322163
0.242675 -1.348716 0.803586 44.000000 9 358.322165
0.240453 -1.337708 0.637450 46.000000 7 358.322168
0.239165 -1.331876 0.487436 39.000000 5 358.322170
0.237019 -1.319926 0.346077 29.000000 3 358.322173
0.240021 -1.337985 0.214747 19.000000 1 358.322175
0.244720 -1.371036 1.321139 39.000000 14 358.322183
0.241938 -1.355463 1.086115 40.000000 12 358.322186
0.240979 -1.351455 0.891984 44.000000 10 358.322188
0.240797 -1.350448 0.721588 50.000000 8 358.322191
0.238612 -1.339544 0.562435 48.000000 6 358.322193
0.236761 -1.330500 0.416657 37.000000 4 358.322196
0.239203 -1.345581 0.282590 17.000000 2 358.322198
0.234941 -1.322950 0.147877 31.000000 0 358.322201
-0.000293 -0.045001 3.604136 94.000000 31 358.322212
0.084185 -0.559318 3.596204 66.000000 28 358.322214
0.109970 -0.736617 3.604148 39.000000 27 358.322217
0.186321 -1.099796 3.611030 39.000000 25 358.322219
0.251865 -1.438553 3.500138 13.000000 23 358.322222
0.247792 -1.413865 2.696746 28.000000 21 358.322224
0.246401 -1.405942 2.169010 37.000000 19 358.322227
0.243279 -1.388144 1.763341 37.000000 17 358.322230
0.022141 -0.216544 3.593387 94.000000 30 358.322237
0.049200 -0.388560 3.604086 75.000000 29 358.322240
0.148338 -0.914693 3.602694 40.000000 26 358.322242
0.222910 -1.286362 3.604459 38.000000 24 358.322245
0.249533 -1.437059 3.078323 22.000000 22 358.322248
0.245040 -1.409751 2.410672 34.000000 20 358.322250
0.241493 -1.389358 1.941408 38.000000 18 358.322253
0.238808 -1.373924 1.590062 39.000000 16 358.322255
0.243084 -1.377147 1.454034 38.000000 15 358.322213
0.240749 -1.363932 1.198768 39.000000 13 358.322216
0.238545 -1.352824 0.985246 40.000000 11 358.322218
0.237965 -1.349554 0.803586 44.000000 9 358.322221
0.235782 -1.338539 0.637450 46.000000 7 358.322223
0.234514 -1.332703 0.487436 39.000000 5 358.322226
0.231559 -1.315908 0.345145 29.000000 3 358.322228
0.234487 -1.333910 0.214300 18.000000 1 358.322231
0.239290 -1.368204 1.317814 39.000000 14 358.322239
0.236509 -1.352318 1.083172 40.000000 12 358.322241
0.235518 -1.348041 0.889452 42.000000 10 358.322244
0.235301 -1.346809 0.719490 50.000000 8 358.322246
0.233122 -1.335717 0.560793 46.000000 6 358.322249
0.232115 -1.331319 0.416657 37.000000 4 358.322251
0.234504 -1.346408 0.282590 17.000000 2 358.322254
0.230322 -1.323762 0.147877 31.000000 0 358.322257
-0.000450 -0.044999 3.604136 94.000000 31 358.322267
0.082232 -0.559609 3.596204 66.000000 28 358.322270
0.107398 -0.736996 3.604148 39.000000 27 358.322272
0.182481 -1.100440 3.611030 39.000000 25 358.322275
0.246181 -1.435572 3.490933 12.000000 23 358.322277
0.242450 -1.412360 2.692357 29.000000 21 358.322280
0.241016 -1.404020 2.164877 37.000000 19 358.322283
0.237890 -1.385825 1.759504 37.000000 17 358.322285
0.021385 -0.216620 3.593387 95.000000 30 358.322293
0.047843 -0.388730 3.604086 74.000000 29 358.322295
0.145144 -0.915205 3.602694 39.000000 26 358.322298
0.218419 -1.287132 3.604459 38.000000 24 358.322301
0.244150 -1.435774 3.073822 22.000000 22 358.322303
0.239680 -1.408027 2.406406 35.000000 20 358.322306
0.236136 -1.387221 1.937418 38.000000 18 358.322308
0.233441 -1.371407 1.586387 38.000000 16 358.322311
0.237668 -1.374473 1.450529 38.000000 15 358.322268
0.235323 -1.360928 1.195630 39.000000 13 358.322271
0.233821 -1.353649 0.985246 40.000000 11 358.322274
0.232499 -1.346011 0.801268 44.000000 9 358.322276
0.230320 -1.334785 0.635576 44.000000 7 358.322279
0.229046 -1.328786 0.486026 39.000000 5 358.322281
0.226130 -1.311867 0.344212 29.000000 3 358.322284
0.228984 -1.329813 0.213854 18.000000 1 358.322286
0.233882 -1.365350 1.314489 39.000000 14 358.322294
0.231787 -1.353135 1.083172 40.000000 12 358.322297
0.230084 -1.344605 0.886919 44.000000 10 358.322299
0.230598 -1.347622 0.719490 50.000000 8 358.322302
0.228459 -1.336522 0.560793 46.000000 6 358.322304
0.226649 -1.327330 0.415485 37.000000 4 358.322307
0.228970 -1.342337 0.281900 17.000000 2 358.322310
0.224860 -1.319633 0.147676 31.000000 0 358.322312
-0.000607 -0.044997 3.604136 94.000000 31 358.322323
0.080279 -0.559892 3.596204 64.000000 28 358.322325
0.104825 -0.737366 3.604148 40.000000 27 358.322328
0.178638 -1.101070 3.611030 39.000000 25 358.322330
0.240522 -1.432570 3.481728 12.000000 23 358.322333
0.237121 -1.410835 2.687969 29.000000 21 358.322336
0.235647 -1.402078 2.160744 37.000000 19 358.322338
0.232519 -1.383485 1.755667 37.000000 17 358.322341
0.020629 -0.216693 3.593387 95.000000 30 358.322348
0.046486 -0.388894 3.604086 74.000000 29 358.322351
0.141949 -0.915707 3.602694 39.000000 26 358.322354
0.213642 -1.286184 3.599766 38.000000 24 358.322356
0.238779 -1.434470 3.069321 24.000000 22 358.322359
0.234335 -1.406282 2.402140 35.000000 20 358.322361
0.230797 -1.385064 1.933429 38.000000 18 358.322364
0.228096 -1.368870 1.582712 39.000000 16 358.322366
0.232273 -1.371778 1.447025 38.000000 15 358.322324
0.229921 -1.357903 1.192492 39.000000 13 358.322327
0.228397 -1.350334 0.982505 40.000000 11 358.322329
0.227060 -1.342446 0.798950 44.000000 9 358.322332
0.225659 -1.335581 0.635576 44.000000 7 358.322334
0.223608 -1.324847 0.484617 39.000000 5 358.322337
0.221549 -1.312648 0.344212 28.000000 3 358.322339
0.223513 -1.325693 0.213408 18.000000 1 358.322342
0.228497 -1.362475 1.311164 39.000000 14 358.322350
0.226394 -1.349950 1.080229 40.000000 12 358.322352
0.225389 -1.345400 0.886919 44.000000 10 358.322355
0.225143 -1.343943 0.717392 50.000000 8 358.322357
0.223012 -1.332654 0.559150 46.000000 6 358.322360
0.222014 -1.328113 0.415485 37.000000 4 358.322362
0.223468 -1.338243 0.281210 17.000000 2 358.322365
0.220253 -1.320409 0.147676 31.000000 0 358.322368
-0.000765 -0.044995 3.604136 94.000000 31 358.322378
0.078324 -0.560169 3.596204 64.000000 28 358.322381
0.102251 -0.737728 3.604148 40.000000 27 358.322383
0.174794 -1.101687 3.611030 39.000000 25 358.322386
0.234886 -1.429545 3.472523 11.000000 23 358.322388
0.231806 -1.409290 2.683580 30.000000 21 358.322391
0.229838 -1.397338 2.152478 37.000000 19 358.322393
0.227168 -1.381125 1.751830 37.000000 17 358.322396
0.019873 -0.216764 3.593387 95.000000 30 358.322404
0.045067 -0.388524 3.599115 75.000000 29 358.322406
0.138751 -0.916196 3.602694 40.000000 26 358.322409
0.209151 -1.286922 3.599766 38.000000 24 358.322411
0.233421 -1.433145 3.064821 24.000000 22 358.322414
0.229005 -1.404518 2.397875 35.000000 20 358.322416
0.225476 -1.382887 1.929439 38.000000 18 358.322419
0.222771 -1.366312 1.579036 39.000000 16 358.322422
0.226900 -1.369062 1.443520 38.000000 15 358.322379
0.225180 -1.358697 1.192492 39.000000 13 358.322382
0.223682 -1.351123 0.982505 40.000000 11 358.322384
0.222373 -1.343231 0.798950 44.000000 9 358.322387
0.220240 -1.331787 0.633703 44.000000 7 358.322390
0.218982 -1.325619 0.484617 39.000000 5 358.322392
0.216165 -1.308567 0.343280 28.000000 3 358.322395
0.218884 -1.326465 0.213408 18.000000 1 358.322397
0.223135 -1.359580 1.307840 39.000000 14 358.322405
0.221026 -1.346743 1.077286 40.000000 12 358.322408
0.219994 -1.341925 0.884387 44.000000 10 358.322410
0.220450 -1.344721 0.717392 52.000000 8 358.322413
0.217596 -1.328764 0.557507 46.000000 6 358.322415
0.217377 -1.328879 0.415485 37.000000 4 358.322418
0.217996 -1.334128 0.280520 16.000000 2 358.322420
0.214837 -1.316240 0.147474 30.000000 0 358.322423
-0.000922 -0.044992 3.604136 94.000000 31 358.322434
0.076368 -0.560439 3.596204 65.000000 28 358.322436
0.099675 -0.738080 3.604148 39.000000 27 358.322439
0.170947 -1.102291 3.611030 39.000000 25 358.322441
0.229585 -1.428427 3.467920 11.000000 23 358.322444
0.226505 -1.407725 2.679191 30.000000 21 358.322446
0.224512 -1.395354 2.148345 37.000000 19 358.322449
0.221837 -1.378744 1.747993 37.000000 17 358.322451
0.019116 -0.216832 3.593387 95.000000 30 358.322459
0.043711 -0.388679 3.599115 74.000000 29 358.322462
0.135553 -0.916675 3.602694 40.000000 26 358.322464
0.204657 -1.287644 3.599766 38.000000 24 358.322467
0.227732 -1.429650 3.055819 24.000000 22 358.322469
0.223279 -1.400157 2.389343 35.000000 20 358.322472
0.220172 -1.380689 1.925450 38.000000 18 358.322475
0.217466 -1.363733 1.575361 38.000000 16 358.322477
0.221549 -1.366325 1.440016 38.000000 15 358.322435
0.219813 -1.355632 1.189354 39.000000 13 358.322437
0.218296 -1.347768 0.979764 40.000000 11 358.322440
0.216975 -1.339626 0.796632 45.000000 9 358.322442
0.214849 -1.327971 0.631830 42.000000 7 358.322445
0.213588 -1.321640 0.483208 39.000000 5 358.322448
0.210812 -1.304464 0.342347 27.000000 3 358.322450
0.213459 -1.322305 0.212962 16.000000 1 358.322453
0.217796 -1.356663 1.304515 39.000000 14 358.322460
0.215683 -1.343515 1.074342 40.000000 12 358.322463
0.214626 -1.338427 0.881855 44.000000 10 358.322466
0.215036 -1.341001 0.715294 52.000000 8 358.322468
0.212210 -1.324852 0.555864 46.000000 6 358.322471
0.211969 -1.324831 0.414313 37.000000 4 358.322473
0.212556 -1.329990 0.279830 16.000000 2 358.322476
0.210242 -1.316982 0.147474 30.000000 0 358.322478
-0.001079 -0.044989 3.604136 87.000000 31 358.322489
0.074309 -0.559932 3.591265 66.000000 28 358.322492
0.097098 -0.738424 3.604148 39.000000 27 358.322494
0.167099 -1.102881 3.611030 39.000000 25 358.322497
0.223991 -1.425360 3.458715 11.000000 23 358.322499
0.220845 -1.403774 2.670414 30.000000 21 358.322502
0.219202 -1.393349 2.144213 36.000000 19 358.322504
0.216525 -1.376343 1.744156 37.000000 17 358.322507
0.018359 -0.216897 3.593387 93.000000 30 358.322515
0.042354 -0.388829 3.599115 74.000000 29 358.322517
0.132352 -0.917143 3.602694 40.000000 26 358.322520
0.200161 -1.288351 3.599766 38.000000 24 358.322522
0.222405 -1.428284 3.051318 24.000000 22 358.322525
0.217989 -1.398351 2.385077 34.000000 20 358.322528
0.214887 -1.378471 1.921460 38.000000 18 358.322530
0.212182 -1.361134 1.571686 38.000000 16 358.322533
0.216220 -1.363568 1.436511 38.000000 15 358.322490
0.214470 -1.352547 1.186217 39.000000 13 358.322493
0.212936 -1.344392 0.977022 40.000000 11 358.322495
0.212297 -1.340375 0.796632 45.000000 9 358.322498
0.209488 -1.324134 0.629957 44.000000 7 358.322501
0.208225 -1.317639 0.481799 38.000000 5 358.322503
0.206258 -1.305192 0.342347 27.000000 3 358.322506
0.208065 -1.318123 0.212516 16.000000 1 358.322508
0.212480 -1.353726 1.301190 39.000000 14 358.322516
0.210991 -1.344260 1.074342 40.000000 12 358.322519
0.209953 -1.339168 0.881855 44.000000 10 358.322521
0.210354 -1.341743 0.715294 52.000000 8 358.322524
0.207584 -1.325585 0.555864 46.000000 6 358.322526
0.207343 -1.325562 0.414313 37.000000 4 358.322529
0.207148 -1.325831 0.279141 16.000000 2 358.322531
0.204873 -1.312771 0.147273 30.000000 0 358.322534
-0.001236 -0.044985 3.604136 87.000000 31 358.322545
0.072354 -0.560188 3.591265 68.000000 28 358.322547
0.094520 -0.738758 3.604148 40.000000 27 358.322550
0.163248 -1.103457 3.611030 39.000000 25 358.322552
0.218718 -1.424202 3.454113 12.000000 23 358.322555
0.215579 -1.402168 2.666025 30.000000 21 358.322557
0.213482 -1.388543 2.135947 36.000000 19 358.322560
0.210745 -1.370753 1.736482 37.000000 17 358.322562
0.017602 -0.216960 3.593387 94.000000 30 358.322570
0.040996 -0.388974 3.599115 74.000000 29 358.322573
0.129150 -0.917599 3.602694 41.000000 26 358.322575
0.195663 -1.289042 3.599766 38.000000 24 358.322578
0.216763 -1.424746 3.042316 23.000000 22 358.322580
0.212321 -1.393947 2.376545 34.000000 20 358.322583
0.209620 -1.376233 1.917471 38.000000 18 358.322586
0.206919 -1.358515 1.568011 38.000000 16 358.322588
0.210912 -1.360790 1.433007 38.000000 15 358.322546
0.209151 -1.349440 1.183079 39.000000 13 358.322548
0.207602 -1.340995 0.974281 40.000000 11 358.322551
0.206939 -1.336730 0.794314 45.000000 9 358.322554
0.204865 -1.324857 0.629957 44.000000 7 358.322556
0.202892 -1.313616 0.480390 38.000000 5 358.322559
0.200951 -1.301049 0.341414 27.000000 3 358.322561
0.203463 -1.318841 0.212516 17.000000 1 358.322564
0.207187 -1.350768 1.297865 39.000000 14 358.322572
0.205685 -1.340993 1.071399 40.000000 12 358.322574
0.204624 -1.335632 0.879322 44.000000 10 358.322577
0.204982 -1.337983 0.713196 52.000000 8 358.322579
0.202241 -1.321633 0.554222 46.000000 6 358.322582
0.201980 -1.321473 0.413140 36.000000 4 358.322584
0.201771 -1.321651 0.278451 16.000000 2 358.322587
0.199536 -1.308539 0.147071 31.000000 0 358.322589
-0.001388 -0.044937 3.599136 94.000000 31 358.322600
0.070399 -0.560437 3.591265 57.000000 28 358.322603
0.091940 -0.739084 3.604148 40.000000 27 358.322605
0.159395 -1.104020 3.611030 39.000000 25 358.322608
0.213455 -1.423025 3.449510 13.000000 23 358.322610
0.209972 -1.398174 2.657248 30.000000 21 358.322613
0.208216 -1.386497 2.131814 36.000000 19 358.322615
0.205482 -1.368310 1.732646 37.000000 17 358.322618
0.016882 -0.217017 3.593387 95.000000 30 358.322626
0.039706 -0.389108 3.599115 74.000000 29 358.322628
0.126106 -0.918022 3.602694 40.000000 26 358.322631
0.191387 -1.289683 3.599766 38.000000 24 358.322633
0.211148 -1.421186 3.033314 24.000000 22 358.322636
0.207070 -1.392100 2.372279 35.000000 20 358.322639
0.203928 -1.370994 1.909492 38.000000 18 358.322641
0.201914 -1.355841 1.564336 38.000000 16 358.322644
0.206161 -1.361518 1.433007 38.000000 15 358.322601
0.204439 -1.350162 1.183079 39.000000 13 358.322604
0.202295 -1.337577 0.971539 40.000000 11 358.322606
0.202272 -1.337444 0.794314 45.000000 9 358.322609
0.199777 -1.320946 0.628084 42.000000 7 358.322612
0.198534 -1.314282 0.480390 38.000000 5 358.322614
0.196408 -1.301743 0.341414 27.000000 3 358.322617
0.198116 -1.314619 0.212069 17.000000 1 358.322619
0.202471 -1.351483 1.297865 40.000000 14 358.322627
0.200404 -1.337706 1.068456 40.000000 12 358.322630
0.199555 -1.332039 0.876790 44.000000 10 358.322632
0.199871 -1.334167 0.711097 52.000000 8 358.322635
0.197857 -1.322297 0.554222 48.000000 6 358.322637
0.196879 -1.317329 0.411968 36.000000 4 358.322640
0.195925 -1.312517 0.277071 15.000000 2 358.322642
0.195196 -1.309194 0.147071 31.000000 0 358.322645
-0.001537 -0.044932 3.599136 94.000000 31 358.322656
0.068540 -0.560667 3.591265 57.000000 28 358.322658
0.089489 -0.739384 3.604148 40.000000 27 358.322661
0.155733 -1.104543 3.611030 39.000000 25 358.322663
0.208452 -1.421792 3.444908 14.000000 23 358.322666
0.204987 -1.396492 2.652859 30.000000 21 358.322668
0.203208 -1.384396 2.127681 37.000000 19 358.322671
0.200478 -1.365812 1.728809 37.000000 17 358.322674
0.016124 -0.217075 3.593387 95.000000 30 358.322681
0.038399 -0.389776 3.604086 74.000000 29 358.322684
0.122901 -0.918457 3.602694 40.000000 26 358.322686
0.186884 -1.290344 3.599766 38.000000 24 358.322689
0.205808 -1.417568 3.024313 24.000000 22 358.322692
0.202078 -1.390198 2.368013 35.000000 20 358.322694
0.198947 -1.368680 1.905502 38.000000 18 358.322697
0.196692 -1.353182 1.560661 38.000000 16 358.322699
0.201123 -1.358667 1.429502 39.000000 15 358.322657
0.199391 -1.346982 1.179941 38.000000 13 358.322659
0.197246 -1.334104 0.968798 40.000000 11 358.322662
0.197188 -1.333725 0.791996 45.000000 9 358.322665
0.195165 -1.321635 0.628084 42.000000 7 358.322667
0.193246 -1.310221 0.478980 38.000000 5 358.322670
0.191373 -1.297528 0.340482 26.000000 3 358.322672
0.193030 -1.310342 0.211623 17.000000 1 358.322675
0.197447 -1.348452 1.294540 39.000000 14 358.322683
0.195381 -1.334363 1.065513 40.000000 12 358.322685
0.194904 -1.332728 0.876790 44.000000 10 358.322688
0.194556 -1.330366 0.708999 52.000000 8 358.322690
0.192558 -1.318306 0.552579 48.000000 6 358.322693
0.191577 -1.313198 0.410796 36.000000 4 358.322695
0.190629 -1.308292 0.276381 15.000000 2 358.322698
0.189905 -1.304923 0.146870 31.000000 0 358.322700
-0.001693 -0.044926 3.599136 94.000000 31 358.322711
0.066582 -0.560903 3.591265 65.000000 28 358.322714
0.086789 -0.738681 3.599253 39.000000 27 358.322716
0.151876 -1.105080 3.611030 39.000000 25 358.322719
0.203211 -1.420577 3.440305 15.000000 23 358.322721
0.199431 -1.392456 2.644082 31.000000 21 358.322724
0.197577 -1.379525 2.119415 36.000000 19 358.322726
0.195255 -1.363330 1.724972 38.000000 17 358.322729
0.015366 -0.217130 3.593387 93.000000 30 358.322737
0.037038 -0.389907 3.604086 74.000000 29 358.322739
0.119532 -0.917633 3.597854 39.000000 26 358.322742
0.182379 -1.290988 3.599766 38.000000 24 358.322744
0.200248 -1.413965 3.015311 24.000000 22 358.322747
0.196491 -1.385731 2.359481 35.000000 20 358.322750
0.193746 -1.366382 1.901513 38.000000 18 358.322752
0.191492 -1.350504 1.556985 38.000000 16 358.322755
0.195869 -1.355831 1.425998 39.000000 15 358.322712
0.194131 -1.343817 1.176803 38.000000 13 358.322715
0.192588 -1.334784 0.968798 40.000000 11 358.322718
0.191898 -1.330020 0.789678 45.000000 9 358.322720
0.189889 -1.317719 0.626211 40.000000 7 358.322723
0.188671 -1.310887 0.478980 38.000000 5 358.322725
0.186843 -1.298188 0.340482 26.000000 3 358.322728
0.188455 -1.311007 0.211623 17.000000 1 358.322730
0.192211 -1.345436 1.291215 39.000000 14 358.322738
0.190151 -1.331036 1.062570 40.000000 12 358.322741
0.189642 -1.329132 0.874257 44.000000 10 358.322743
0.189270 -1.326544 0.706901 52.000000 8 358.322746
0.187955 -1.318970 0.552579 46.000000 6 358.322748
0.186992 -1.313859 0.410796 36.000000 4 358.322751
0.185364 -1.304047 0.275692 15.000000 2 358.322753
0.185349 -1.305578 0.146870 31.000000 0 358.322756
-0.001850 -0.044920 3.599136 94.000000 31 358.322767
0.064624 -0.561132 3.591265 66.000000 28 358.322769
0.084210 -0.738979 3.599253 39.000000 27 358.322772
0.148018 -1.105603 3.611030 39.000000 25 358.322774
0.197711 -1.417408 3.431100 15.000000 23 358.322777
0.194238 -1.390771 2.639693 31.000000 21 358.322779
0.192371 -1.377420 2.115282 36.000000 19 358.322782
0.190051 -1.360828 1.721135 38.000000 17 358.322785
0.014608 -0.217182 3.593387 94.000000 30 358.322792
0.035677 -0.390034 3.604086 75.000000 29 358.322795
0.116328 -0.918045 3.597854 39.000000 26 358.322797
0.177872 -1.291617 3.599766 38.000000 24 358.322800
0.194716 -1.410341 3.006310 23.000000 22 358.322803
0.191296 -1.383825 2.355215 35.000000 20 358.322805
0.188562 -1.364065 1.897523 38.000000 18 358.322808
0.186312 -1.347806 1.553310 38.000000 16 358.322810
0.190638 -1.352975 1.422493 39.000000 15 358.322768
0.188896 -1.340631 1.173665 39.000000 13 358.322770
0.187345 -1.331308 0.966056 40.000000 11 358.322773
0.186637 -1.326295 0.787360 45.000000 9 358.322776
0.185288 -1.318374 0.626211 40.000000 7 358.322778
0.183427 -1.306787 0.477571 38.000000 5 358.322781
0.181628 -1.293967 0.339549 26.000000 3 358.322783
0.183186 -1.306725 0.211177 17.000000 1 358.322786
0.186998 -1.342400 1.287891 39.000000 14 358.322794
0.184946 -1.327688 1.059627 40.000000 12 358.322796
0.184407 -1.325516 0.871725 44.000000 10 358.322799
0.184639 -1.327196 0.706901 52.000000 8 358.322801
0.182700 -1.314941 0.550936 48.000000 6 358.322804
0.181737 -1.309689 0.409623 36.000000 4 358.322806
0.180131 -1.299781 0.275002 15.000000 2 358.322809
0.180106 -1.301269 0.146668 30.000000 0 358.322812
-0.002007 -0.044913 3.599136 94.000000 31 358.322822
0.062665 -0.561354 3.591265 66.000000 28 358.322825
0.081741 -0.740281 3.604148 40.000000 27 358.322827
0.144158 -1.106113 3.611030 39.000000 25 358.322830
0.192499 -1.416153 3.426497 15.000000 23 358.322832
0.189059 -1.389067 2.635305 30.000000 21 358.322835
0.186803 -1.372506 2.107016 36.000000 19 358.322838
0.185300 -1.361483 1.721135 38.000000 17 358.322840
0.013850 -0.217232 3.593387 91.000000 30 358.322848
0.034315 -0.390157 3.604086 75.000000 29 358.322850
0.113123 -0.918445 3.597854 40.000000 26 358.322853
0.173362 -1.292230 3.599766 38.000000 24 358.322856
0.189211 -1.406696 2.997308 23.000000 22 358.322858
0.186116 -1.381899 2.350949 35.000000 20 358.322861
0.183397 -1.361728 1.893534 38.000000 18 358.322863
0.181154 -1.345088 1.549635 39.000000 16 358.322866
0.185428 -1.350099 1.418988 38.000000 15 358.322823
0.183685 -1.337426 1.170528 39.000000 13 358.322826
0.182697 -1.331953 0.966056 40.000000 11 358.322829
0.182007 -1.326938 0.787360 47.000000 9 358.322831
0.180056 -1.314420 0.624338 42.000000 7 358.322834
0.178864 -1.307420 0.477571 38.000000 5 358.322836
0.177110 -1.294593 0.339549 26.000000 3 358.322839
0.177949 -1.302423 0.210731 17.000000 1 358.322841
0.181808 -1.339345 1.284566 39.000000 14 358.322849
0.180310 -1.328326 1.059627 40.000000 12 358.322852
0.179779 -1.326151 0.871725 44.000000 10 358.322854
0.179395 -1.323335 0.704803 52.000000 8 358.322857
0.177475 -1.310891 0.549294 46.000000 6 358.322859
0.177164 -1.310315 0.409623 35.000000 4 358.322862
0.174930 -1.295494 0.274312 14.000000 2 358.322864
0.175562 -1.301889 0.146668 30.000000 0 358.322867
-0.002170 -0.044949 3.604136 95.000000 31 358.322878
0.060705 -0.561570 3.591265 66.000000 28 358.322880
0.079157 -0.740562 3.604148 40.000000 27 358.322883
0.140296 -1.106610 3.611030 39.000000 25 358.322885
0.187042 -1.412943 3.417292 16.000000 23 358.322888
0.183895 -1.387343 2.630916 30.000000 21 358.322890
0.181641 -1.370360 2.102883 36.000000 19 358.322893
0.180125 -1.358944 1.717298 38.000000 17 358.322896
0.013092 -0.217279 3.593387 89.000000 30 358.322903
0.032953 -0.390274 3.604086 75.000000 29 358.322906
0.109916 -0.918835 3.597854 40.000000 26 358.322908
0.168850 -1.292827 3.599766 38.000000 24 358.322911
0.184017 -1.405188 2.992807 24.000000 22 358.322914
0.180952 -1.379955 2.346683 35.000000 20 358.322916
0.178251 -1.359371 1.889544 38.000000 18 358.322919
0.176017 -1.342351 1.545960 39.000000 16 358.322921
0.180242 -1.347203 1.415484 38.000000 15 358.322879
0.178500 -1.334200 1.167390 39.000000 13 358.322882
0.177493 -1.328439 0.963315 40.000000 11 358.322884
0.176787 -1.323174 0.785042 44.000000 9 358.322887
0.175466 -1.315040 0.624338 42.000000 7 358.322889
0.173666 -1.303281 0.476162 38.000000 5 358.322892
0.171941 -1.290335 0.338616 25.000000 3 358.322894
0.172745 -1.298099 0.210285 16.000000 1 358.322897
0.177132 -1.339971 1.284566 39.000000 14 358.322905
0.175143 -1.324940 1.056684 42.000000 12 358.322907
0.174585 -1.322497 0.869192 44.000000 10 358.322910
0.174181 -1.319454 0.702705 52.000000 8 358.322912
0.172898 -1.311502 0.549294 46.000000 6 358.322915
0.171955 -1.306107 0.408451 35.000000 4 358.322917
0.169761 -1.291187 0.273622 14.000000 2 358.322920
0.170366 -1.297541 0.146467 30.000000 0 358.322923
-0.002327 -0.044941 3.604136 95.000000 31 358.322933
0.058744 -0.561778 3.591265 65.000000 28 358.322936
0.076571 -0.740834 3.604148 40.000000 27 358.322938
0.136250 -1.105610 3.606258 39.000000 25 358.322941
0.181859 -1.411650 3.412690 14.000000 23 358.322943
0.178438 -1.383224 2.622139 30.000000 21 358.322946
0.176496 -1.368195 2.098750 36.000000 19 358.322949
0.174970 -1.356385 1.713461 38.000000 17 358.322951
0.012333 -0.217323 3.593387 87.000000 30 358.322959
0.031591 -0.390387 3.604086 74.000000 29 358.322961
0.106708 -0.919213 3.597854 40.000000 26 358.322964
0.164336 -1.293409 3.599766 38.000000 24 358.322967
0.178560 -1.401502 2.983805 24.000000 22 358.322969
0.175804 -1.377991 2.342417 35.000000 20 358.322972
0.173123 -1.356995 1.885555 38.000000 18 358.322974
0.170901 -1.339594 1.542285 39.000000 16 358.322977
0.175077 -1.344288 1.411979 38.000000 15 358.322934
0.173339 -1.330955 1.164252 39.000000 13 358.322937
0.172315 -1.324903 0.960573 40.000000 11 358.322940
0.172167 -1.323784 0.785042 45.000000 9 358.322942
0.170278 -1.311048 0.622465 40.000000 7 358.322945
0.169116 -1.303879 0.476162 38.000000 5 358.322947
0.167436 -1.290927 0.338616 25.000000 3 358.322950
0.167573 -1.293756 0.209838 16.000000 1 358.322952
0.171977 -1.336877 1.281241 39.000000 14 358.322960
0.170517 -1.325543 1.056684 42.000000 12 358.322963
0.169418 -1.318822 0.866660 45.000000 10 358.322965
0.169574 -1.320054 0.702705 52.000000 8 358.322968
0.167718 -1.307414 0.547651 46.000000 6 358.322970
0.166777 -1.301878 0.407279 35.000000 4 358.322973
0.164625 -1.286859 0.272932 14.000000 2 358.322976
0.165836 -1.298128 0.146467 29.000000 0 358.322978
-0.002483 -0.044933 3.604136 95.000000 31 358.322989
0.056783 -0.561980 3.591265 64.000000 28 358.322991
0.073985 -0.741096 3.604148 39.000000 27 358.322994
0.132390 -1.106079 3.606258 39.000000 25 358.322996
0.176687 -1.410337 3.408087 14.000000 23 358.322999
0.173310 -1.381462 2.617750 30.000000 21 358.323002
0.171019 -1.363218 2.090484 36.000000 19 358.323004
0.169836 -1.353806 1.709624 38.000000 17 358.323007
0.011561 -0.217075 3.588396 85.000000 30 358.323014
0.030188 -0.389962 3.599115 74.000000 29 358.323017
0.103499 -0.919579 3.597854 40.000000 26 358.323020
0.159820 -1.293975 3.599766 38.000000 24 358.323022
0.173399 -1.399955 2.979305 24.000000 22 358.323025
0.170351 -1.373420 2.333885 35.000000 20 358.323027
0.168015 -1.354600 1.881565 38.000000 18 358.323030
0.165807 -1.336818 1.538610 38.000000 16 358.323032
0.169936 -1.341353 1.408475 39.000000 15 358.322990
0.168202 -1.327690 1.161114 39.000000 13 358.322993
0.167689 -1.325497 0.960573 40.000000 11 358.322995
0.166989 -1.319981 0.782724 45.000000 9 358.322998
0.165119 -1.307035 0.620592 40.000000 7 358.323000
0.163963 -1.299702 0.474753 38.000000 5 358.323003
0.162314 -1.286630 0.337684 24.000000 3 358.323005
0.163056 -1.294333 0.209838 16.000000 1 358.323008
0.166846 -1.333764 1.277916 40.000000 14 358.323016
0.165387 -1.322119 1.053740 40.000000 12 358.323018
0.164279 -1.315127 0.864128 45.000000 10 358.323021
0.164402 -1.316134 0.700607 52.000000 8 358.323023
0.163153 -1.307991 0.547651 46.000000 6 358.323026
0.161631 -1.297629 0.406106 35.000000 4 358.323028
0.160132 -1.287426 0.272932 14.000000 2 358.323031
0.160688 -1.293741 0.146265 29.000000 0 358.323034
-0.002634 -0.044881 3.599136 94.000000 31 358.323045
0.054821 -0.562175 3.591265 65.000000 28 358.323048
0.071398 -0.741350 3.604148 39.000000 27 358.323050
0.128528 -1.106534 3.606258 39.000000 25 358.323053
0.171527 -1.409006 3.403485 16.000000 23 358.323055
0.168197 -1.379680 2.613361 29.000000 21 358.323058
0.165919 -1.361014 2.086351 36.000000 19 358.323060
0.164721 -1.351209 1.705787 38.000000 17 358.323063
0.010803 -0.217115 3.588396 86.000000 30 358.323071
0.028826 -0.390065 3.599115 75.000000 29 358.323073
0.100288 -0.919935 3.597854 40.000000 26 358.323076
0.155303 -1.294524 3.599766 38.000000 24 358.323078
0.168251 -1.398389 2.974804 24.000000 22 358.323081
0.165244 -1.371417 2.329619 35.000000 20 358.323083
0.162925 -1.352186 1.877576 38.000000 18 358.323086
0.160734 -1.334023 1.534934 38.000000 16 358.323089
0.165253 -1.341938 1.408475 39.000000 15 358.323046
0.163091 -1.324405 1.157977 39.000000 13 358.323049
0.162551 -1.321924 0.957832 40.000000 11 358.323051
0.161840 -1.316159 0.780406 47.000000 9 358.323054
0.160556 -1.307603 0.620592 40.000000 7 358.323057
0.159425 -1.300266 0.474753 38.000000 5 358.323059
0.157821 -1.287189 0.337684 24.000000 3 358.323062
0.157932 -1.289951 0.209392 16.000000 1 358.323064
0.161739 -1.330631 1.274591 40.000000 14 358.323072
0.160283 -1.318676 1.050797 40.000000 12 358.323075
0.159168 -1.311413 0.861595 45.000000 10 358.323077
0.159260 -1.312195 0.698509 52.000000 8 358.323080
0.158018 -1.303865 0.546008 46.000000 6 358.323082
0.157100 -1.298185 0.406106 35.000000 4 358.323085
0.155043 -1.283061 0.272242 13.000000 2 358.323087
0.156171 -1.294294 0.146265 30.000000 0 358.323090
-0.002791 -0.044871 3.599136 94.000000 31 358.323101
0.052786 -0.561589 3.586325 64.000000 28 358.323103
0.068809 -0.741595 3.604148 40.000000 27 358.323106
0.124665 -1.106976 3.606258 39.000000 25 358.323108
0.166149 -1.405716 3.394280 16.000000 23 358.323111
0.163098 -1.377880 2.608973 29.000000 21 358.323113
0.160836 -1.358790 2.082218 36.000000 19 358.323116
0.159627 -1.348592 1.701950 38.000000 17 358.323118
0.010083 -0.217149 3.588396 86.000000 30 358.323126
0.027533 -0.390159 3.599115 75.000000 29 358.323129
0.097237 -0.920263 3.597854 40.000000 26 358.323131
0.151009 -1.295032 3.599766 38.000000 24 358.323134
0.162864 -1.394642 2.965802 25.000000 22 358.323136
0.160153 -1.369395 2.325354 35.000000 20 358.323139
0.157503 -1.346760 1.869597 38.000000 18 358.323142
0.155915 -1.331182 1.531259 38.000000 16 358.323144
0.160144 -1.338966 1.404970 39.000000 15 358.323102
0.158005 -1.321101 1.154839 39.000000 13 358.323104
0.157440 -1.318331 0.955090 40.000000 11 358.323107
0.157245 -1.316716 0.780406 45.000000 9 358.323109
0.155669 -1.303525 0.618719 40.000000 7 358.323112
0.154544 -1.296024 0.473344 37.000000 5 358.323115
0.152747 -1.282854 0.336751 24.000000 3 358.323117
0.153428 -1.290494 0.209392 16.000000 1 358.323120
0.156655 -1.327479 1.271266 39.000000 14 358.323127
0.155205 -1.315214 1.047854 40.000000 12 358.323130
0.154818 -1.311933 0.861595 45.000000 10 358.323133
0.154908 -1.312716 0.698509 52.000000 8 358.323135
0.153141 -1.299692 0.544366 46.000000 6 358.323138
0.152226 -1.293871 0.404934 34.000000 4 358.323140
0.150787 -1.283568 0.272242 13.000000 2 358.323143
0.151296 -1.289843 0.146063 30.000000 0 358.323145
-0.002939 -0.044862 3.599136 95.000000 31 358.323156
0.050923 -0.561761 3.586325 63.000000 28 358.323159
0.066350 -0.741819 3.604148 40.000000 27 358.323161
0.120993 -1.107383 3.606258 39.000000 25 358.323164
0.161487 -1.406259 3.394280 16.000000 23 358.323166
0.157981 -1.373653 2.600195 31.000000 21 358.323169
0.156008 -1.356520 2.078085 36.000000 19 358.323171
0.154787 -1.345929 1.698113 38.000000 17 358.323174
0.009325 -0.217183 3.588396 86.000000 30 358.323182
0.026170 -0.390252 3.599115 75.000000 29 358.323184
0.094024 -0.920596 3.597854 40.000000 26 358.323187
0.146488 -1.295552 3.599766 38.000000 24 358.323189
0.157747 -1.390847 2.956800 25.000000 22 358.323192
0.155317 -1.367327 2.321088 35.000000 20 358.323195
0.152696 -1.344280 1.865607 38.000000 18 358.323197
0.150884 -1.328349 1.527584 38.000000 16 358.323200
0.155291 -1.335947 1.401466 39.000000 15 358.323157
0.153623 -1.321618 1.154839 39.000000 13 358.323160
0.152585 -1.314693 0.952349 40.000000 11 358.323162
0.152367 -1.312829 0.778088 44.000000 9 358.323165
0.151118 -1.304061 0.618719 42.000000 7 358.323168
0.150019 -1.296556 0.473344 37.000000 5 358.323170
0.148492 -1.283353 0.336751 23.000000 3 358.323173
0.148576 -1.286049 0.208946 16.000000 1 358.323175
0.151827 -1.324281 1.267941 40.000000 14 358.323183
0.150383 -1.311705 1.044911 40.000000 12 358.323186
0.149748 -1.308182 0.859063 45.000000 10 358.323188
0.149809 -1.308739 0.696411 50.000000 8 358.323191
0.148604 -1.300218 0.544366 46.000000 6 358.323193
0.147158 -1.289566 0.403762 34.000000 4 358.323196
0.146306 -1.284086 0.272242 13.000000 2 358.323198
0.146793 -1.290363 0.146063 30.000000 0 358.323201
-0.003096 -0.044851 3.599136 95.000000 31 358.323212
0.048962 -0.561935 3.586325 61.000000 28 358.323214
0.063673 -0.741031 3.599253 40.000000 27 358.323217
0.117127 -1.107799 3.606258 39.000000 25 358.323219
0.156361 -1.404873 3.389677 16.000000 23 358.323222
0.152920 -1.371815 2.595807 31.000000 21 358.323224
0.150960 -1.354260 2.073952 36.000000 19 358.323227
0.149733 -1.343275 1.694276 38.000000 17 358.323229
0.008577 -0.217504 3.593387 84.000000 30 358.323237
0.024808 -0.390341 3.599115 75.000000 29 358.323240
0.090810 -0.920919 3.597854 40.000000 26 358.323242
0.141964 -1.296055 3.599766 38.000000 24 358.323245
0.152416 -1.387060 2.947799 24.000000 22 358.323247
0.150258 -1.365268 2.316822 35.000000 20 358.323250
0.147673 -1.341809 1.861618 37.000000 18 358.323253
0.145876 -1.325498 1.523909 38.000000 16 358.323255
0.150227 -1.332937 1.397961 39.000000 15 358.323213
0.148573 -1.318278 1.151701 39.000000 13 358.323215
0.147995 -1.315217 0.952349 40.000000 11 358.323218
0.147288 -1.308951 0.775770 44.000000 9 358.323221
0.146565 -1.304580 0.618719 40.000000 7 358.323223
0.144958 -1.292304 0.471934 38.000000 5 358.323226
0.143463 -1.278982 0.335819 23.000000 3 358.323228
0.143532 -1.281610 0.208500 16.000000 1 358.323231
0.146791 -1.321091 1.264617 40.000000 14 358.323239
0.145803 -1.312222 1.044911 40.000000 12 358.323241
0.144705 -1.304412 0.856530 45.000000 10 358.323244
0.145240 -1.309254 0.696411 52.000000 8 358.323246
0.143544 -1.296035 0.542723 44.000000 6 358.323249
0.142656 -1.290071 0.403762 34.000000 4 358.323251
0.141279 -1.279667 0.271553 13.000000 2 358.323254
0.142288 -1.290867 0.146063 30.000000 0 358.323256
-0.003252 -0.044840 3.599136 94.000000 31 358.323267
0.047000 -0.562103 3.586325 61.000000 28 358.323270
0.061086 -0.741249 3.599253 40.000000 27 358.323272
0.113259 -1.108201 3.606258 39.000000 25 358.323275
0.151038 -1.401525 3.380472 16.000000 23 358.323277
0.147873 -1.369959 2.591418 31.000000 21 358.323280
0.145930 -1.351981 2.069819 36.000000 19 358.323282
0.144699 -1.340601 1.690439 37.000000 17 358.323285
0.007817 -0.217532 3.593387 83.000000 30 358.323293
0.023445 -0.390425 3.599115 74.000000 29 358.323295
0.087595 -0.921230 3.597854 40.000000 26 358.323298
0.137439 -1.296543 3.599766 38.000000 24 358.323300
0.146871 -1.383278 2.938797 24.000000 22 358.323303
0.144977 -1.363217 2.312556 36.000000 20 358.323306
0.142436 -1.339344 1.857628 37.000000 18 358.323308
0.140658 -1.322653 1.520234 38.000000 16 358.323311
0.145187 -1.329908 1.394457 39.000000 15 358.323268
0.143548 -1.314918 1.148563 39.000000 13 358.323271
0.142950 -1.311569 0.949607 40.000000 11 358.323273
0.142718 -1.309457 0.775770 45.000000 9 358.323276
0.141509 -1.300475 0.616846 40.000000 7 358.323279
0.140446 -1.292802 0.471934 38.000000 5 358.323281
0.138245 -1.274616 0.334886 23.000000 3 358.323284
0.138297 -1.277177 0.208054 15.000000 1 358.323286
0.141549 -1.317908 1.261292 39.000000 14 358.323294
0.140561 -1.308729 1.041968 40.000000 12 358.323297
0.139923 -1.304934 0.856530 45.000000 10 358.323299
0.139956 -1.305265 0.694313 50.000000 8 358.323302
0.138793 -1.296553 0.542723 46.000000 6 358.323304
0.137410 -1.285752 0.402589 34.000000 4 358.323307
0.136588 -1.280176 0.271553 13.000000 2 358.323309
0.137781 -1.291356 0.146063 29.000000 0 358.323312
-0.003417 -0.044828 3.599136 94.000000 31 358.323323
0.044940 -0.562271 3.586325 65.000000 28 358.323325
0.058369 -0.741468 3.599253 40.000000 27 358.323328
0.109197 -1.108609 3.606258 39.000000 25 358.323330
0.145698 -1.400126 3.375870 17.000000 23 358.323333
0.142851 -1.370491 2.591418 31.000000 21 358.323335
0.140682 -1.349708 2.065687 36.000000 19 358.323338
0.139785 -1.341123 1.690439 38.000000 17 358.323341
0.007020 -0.217559 3.593387 83.000000 30 358.323348
0.022014 -0.390509 3.599115 74.000000 29 358.323351
0.084218 -0.921545 3.597854 41.000000 26 358.323353
0.132686 -1.297038 3.599766 38.000000 24 358.323356
0.141597 -1.379449 2.929795 24.000000 22 358.323359
0.139951 -1.361120 2.308290 35.000000 20 358.323361
0.137451 -1.336835 1.853639 38.000000 18 358.323364
0.135694 -1.319763 1.516559 38.000000 16 358.323366
0.139937 -1.326885 1.390952 39.000000 15 358.323324
0.138319 -1.311564 1.145425 39.000000 13 358.323326
0.137705 -1.307926 0.946866 40.000000 11 358.323329
0.137453 -1.305565 0.773452 45.000000 9 358.323332
0.136742 -1.300985 0.616846 40.000000 7 358.323334
0.135206 -1.288537 0.470525 38.000000 5 358.323337
0.133795 -1.275091 0.334886 21.000000 3 358.323339
0.133319 -1.272699 0.207607 14.000000 1 358.323342
0.136948 -1.318394 1.261292 40.000000 14 358.323350
0.135574 -1.305191 1.039025 40.000000 12 358.323352
0.134923 -1.301126 0.853998 44.000000 10 358.323355
0.135399 -1.305746 0.694313 50.000000 8 358.323357
0.134266 -1.297029 0.542723 46.000000 6 358.323360
0.132921 -1.286224 0.402589 34.000000 4 358.323362
0.131610 -1.275719 0.270863 13.000000 2 358.323365
0.133047 -1.291853 0.146063 29.000000 0 358.323367
-0.003573 -0.044816 3.599136 88.000000 31 358.323378
0.042977 -0.562425 3.586325 65.000000 28 358.323381
0.055780 -0.741667 3.599253 40.000000 27 358.323383
0.105326 -1.108983 3.606258 39.000000 25 358.323386
0.140614 -1.398682 3.371267 17.000000 23 358.323388
0.137826 -1.368598 2.587029 32.000000 21 358.323391
0.135970 -1.350191 2.065687 36.000000 19 358.323393
0.134781 -1.338413 1.686602 38.000000 17 358.323396
0.006305 -0.217871 3.598379 80.000000 30 358.323404
0.020719 -0.390580 3.599115 74.000000 29 358.323406
0.081161 -0.921820 3.597854 41.000000 26 358.323409
0.128385 -1.297471 3.599766 38.000000 24 358.323411
0.136566 -1.377768 2.925295 24.000000 22 358.323414
0.134941 -1.359005 2.304024 35.000000 20 358.323417
0.132486 -1.334307 1.849649 38.000000 18 358.323419
0.130981 -1.316832 1.512883 39.000000 16 358.323422
0.135305 -1.327365 1.390952 39.000000 15 358.323379
0.133345 -1.308166 1.142288 39.000000 13 358.323382
0.132715 -1.304238 0.944124 40.000000 11 358.323385
0.132895 -1.306037 0.773452 45.000000 9 358.323387
0.131957 -1.296819 0.614973 42.000000 7 358.323390
0.130932 -1.288978 0.470525 37.000000 5 358.323392
0.128848 -1.270663 0.333953 21.000000 3 358.323395
0.128876 -1.273157 0.207607 14.000000 1 358.323397
0.131972 -1.315148 1.257967 39.000000 14 358.323405
0.130614 -1.301635 1.036081 40.000000 12 358.323408
0.130607 -1.301566 0.853998 44.000000 10 358.323410
0.130615 -1.301672 0.692215 50.000000 8 358.323413
0.129494 -1.292769 0.541080 44.000000 6 358.323415
0.128171 -1.281821 0.401417 34.000000 4 358.323418
0.127379 -1.276148 0.270863 12.000000 2 358.323420
0.128267 -1.287315 0.145862 29.000000 0 358.323423
-0.003722 -0.044804 3.599136 88.000000 31 358.323434
0.041112 -0.562564 3.586325 65.000000 28 358.323436
0.053321 -0.741848 3.599253 41.000000 27 358.323439
0.101512 -1.107839 3.601486 39.000000 25 358.323441
0.135786 -1.397196 3.366665 17.000000 23 358.323444
0.133287 -1.369047 2.587029 32.000000 21 358.323446
0.131219 -1.347833 2.061553 36.000000 19 358.323449
0.130342 -1.338853 1.686602 38.000000 17 358.323452
0.005545 -0.217892 3.598379 79.000000 30 358.323459
0.019356 -0.390649 3.599115 74.000000 29 358.323462
0.077943 -0.922097 3.597854 42.000000 26 358.323464
0.123855 -1.297911 3.599766 39.000000 24 358.323467
0.131582 -1.373878 2.916293 25.000000 22 358.323470
0.130434 -1.359445 2.304024 36.000000 20 358.323472
0.128061 -1.334739 1.849649 38.000000 18 358.323475
0.126060 -1.313907 1.509208 39.000000 16 358.323477
0.130552 -1.324257 1.387447 39.000000 15 358.323435
0.129006 -1.308601 1.142288 39.000000 13 358.323437
0.128389 -1.304672 0.944124 40.000000 11 358.323440
0.128130 -1.302062 0.771134 44.000000 9 358.323443
0.127430 -1.297272 0.614973 42.000000 7 358.323445
0.125964 -1.284653 0.469116 38.000000 5 358.323448
0.124633 -1.271083 0.333953 21.000000 3 358.323450
0.124168 -1.268620 0.207161 15.000000 1 358.323453
0.127611 -1.315578 1.257967 40.000000 14 358.323461
0.125907 -1.298038 1.033138 40.000000 12 358.323463
0.125648 -1.297723 0.851465 45.000000 10 358.323466
0.126071 -1.302120 0.692215 49.000000 8 358.323468
0.124980 -1.293213 0.541080 44.000000 6 358.323471
0.123229 -1.277423 0.400245 33.000000 4 358.323473
0.122449 -1.271656 0.270173 12.000000 2 358.323476
0.123772 -1.287755 0.145862 29.000000 0 358.323479
-0.003878 -0.044791 3.599136 94.000000 31 358.323489
0.039148 -0.562704 3.586325 52.000000 28 358.323492
0.050731 -0.742030 3.599253 41.000000 27 358.323494
0.097644 -1.108187 3.601486 39.000000 25 358.323497
0.130726 -1.395717 3.362062 17.000000 23 358.323499
0.128283 -1.367119 2.582641 33.000000 21 358.323502
0.126251 -1.345481 2.057421 36.000000 19 358.323505
0.125369 -1.336107 1.682765 38.000000 17 358.323507
0.004784 -0.217910 3.598379 80.000000 30 358.323515
0.017992 -0.390715 3.599115 75.000000 29 358.323517
0.074724 -0.922364 3.597854 41.000000 26 358.323520
0.119323 -1.298335 3.599766 38.000000 24 358.323523
0.126585 -1.372160 2.911792 25.000000 22 358.323525
0.125448 -1.357295 2.299758 36.000000 20 358.323528
0.123124 -1.332177 1.845660 38.000000 18 358.323530
0.121161 -1.310963 1.505533 38.000000 16 358.323533
0.125592 -1.321155 1.383943 39.000000 15 358.323490
0.124069 -1.305168 1.139150 39.000000 13 358.323493
0.123439 -1.300949 0.941383 40.000000 11 358.323496
0.123165 -1.298091 0.768816 45.000000 9 358.323498
0.122464 -1.293094 0.613100 40.000000 7 358.323501
0.121027 -1.280309 0.467707 37.000000 5 358.323503
0.120196 -1.271510 0.333953 21.000000 3 358.323506
0.119739 -1.269046 0.207161 15.000000 1 358.323508
0.122670 -1.312298 1.254642 40.000000 14 358.323516
0.121375 -1.298469 1.033138 40.000000 12 358.323519
0.121117 -1.298154 0.851465 45.000000 10 358.323521
0.121103 -1.298033 0.690117 49.000000 8 358.323524
0.120028 -1.288939 0.539438 46.000000 6 358.323526
0.118770 -1.277845 0.400245 33.000000 4 358.323529
0.118009 -1.272076 0.270173 12.000000 2 358.323531
0.118816 -1.283205 0.145660 29.000000 0 358.323534
-0.004034 -0.044777 3.599136 94.000000 31 358.323545
0.037183 -0.562837 3.586325 52.000000 28 358.323547
0.048140 -0.742202 3.599253 40.000000 27 358.323550
0.093775 -1.108521 3.601486 39.000000 25 358.323552
0.125502 -1.392273 3.352857 17.000000 23 358.323555
0.123295 -1.365172 2.578252 34.000000 21 358.323557
0.121300 -1.343111 2.053288 37.000000 19 358.323560
0.120416 -1.333344 1.678928 38.000000 17 358.323563
0.004020 -0.217636 3.593387 75.000000 30 358.323570
0.016628 -0.390775 3.599115 75.000000 29 358.323573
0.071504 -0.922619 3.597854 41.000000 26 358.323575
0.114791 -1.298744 3.599766 38.000000 24 358.323578
0.121602 -1.370425 2.907291 25.000000 22 358.323581
0.120478 -1.355127 2.295492 36.000000 20 358.323583
0.118206 -1.329597 1.841670 38.000000 18 358.323586
0.116584 -1.311378 1.505533 38.000000 16 358.323588
0.120654 -1.318034 1.380438 39.000000 15 358.323546
0.119158 -1.301717 1.136012 39.000000 13 358.323549
0.118517 -1.297208 0.938642 40.000000 11 358.323551
0.118634 -1.298513 0.768816 44.000000 9 358.323554
0.117949 -1.293513 0.613100 42.000000 7 358.323556
0.116123 -1.275946 0.466298 37.000000 5 358.323559
0.115757 -1.271922 0.333953 20.000000 3 358.323561
0.114858 -1.264497 0.206715 15.000000 1 358.323564
0.117754 -1.308999 1.251317 40.000000 14 358.323572
0.116480 -1.294859 1.030195 39.000000 12 358.323574
0.116199 -1.294275 0.848933 44.000000 10 358.323577
0.116165 -1.293927 0.688019 49.000000 8 358.323579
0.115528 -1.289350 0.539438 46.000000 6 358.323582
0.113875 -1.273411 0.399073 32.000000 4 358.323584
0.113128 -1.267547 0.269483 12.000000 2 358.323587
0.113893 -1.278636 0.145459 29.000000 0 358.323590
-0.004191 -0.044762 3.599136 94.000000 31 358.323600
0.035218 -0.562964 3.586325 64.000000 28 358.323603
0.045487 -0.741350 3.594357 39.000000 27 358.323605
0.089905 -1.108842 3.601486 39.000000 25 358.323608
0.120473 -1.390756 3.348254 17.000000 23 358.323610
0.118322 -1.363208 2.573864 33.000000 21 358.323613
0.116368 -1.340723 2.049155 37.000000 19 358.323616
0.115483 -1.330562 1.675091 38.000000 17 358.323618
0.003260 -0.217648 3.593387 75.000000 30 358.323626
0.015264 -0.390831 3.599115 76.000000 29 358.323628
