# .PCD v.7 - Point Cloud Data file format
VERSION .7
FIELDS x y z intensity ring timestamp
SIZE 4 4 4 4 2 8
TYPE F F F F U D
COUNT 1 1 1 1 1 1
WIDTH 924
HEIGHT 1
VIEWPOINT 0 0 0 1 0 0 0
POINTS 924
DATA ascii
0.785825 -1.292929 3.190844 90.000000 22 359.416171
0.720351 -1.184745 2.338151 31.000000 20 359.416174
0.710708 -1.168889 1.885555 35.000000 18 359.416176
0.703353 -1.156798 1.545960 36.000000 16 359.416179
0.709179 -1.159530 1.415484 36.000000 15 359.416136
0.783576 -1.281179 1.292901 48.000000 13 359.416139
0.936818 -1.532337 1.262135 39.000000 11 359.416142
0.895041 -1.464008 0.984392 40.000000 9 359.416144
0.885210 -1.448496 0.774181 46.000000 7 359.416147
0.870482 -1.424955 0.580442 33.000000 5 359.416149
0.891155 -1.458796 0.416024 49.000000 3 359.416152
0.882327 -1.444912 0.244643 35.000000 1 359.416154
0.715073 -1.173303 1.304515 58.000000 14 359.416162
0.857490 -1.406992 1.283307 46.000000 12 359.416165
0.927293 -1.522125 1.132565 40.000000 10 359.416167
0.890766 -1.462172 0.878942 52.000000 8 359.416170
0.879622 -1.444447 0.677423 55.000000 6 359.416172
0.897293 -1.474043 0.506926 65.000000 4 359.416175
0.895769 -1.472119 0.332256 40.000000 2 359.416177
0.879990 -1.446756 0.161984 36.000000 0 359.416180
0.014800 -0.037727 3.089156 91.000000 31 359.416191
0.243683 -0.425397 3.117096 96.000000 28 359.416193
0.320424 -0.560948 3.129311 83.000000 27 359.416196
0.480189 -0.803722 3.038423 56.000000 25 359.416198
0.682093 -1.127561 3.164154 86.000000 23 359.416201
0.885808 -1.463767 3.201442 79.000000 21 359.416203
0.711320 -1.175430 2.090484 33.000000 19 359.416206
0.706407 -1.167316 1.709624 35.000000 17 359.416209
0.086300 -0.168479 3.104210 96.000000 30 359.416216
0.161777 -0.298293 3.116888 95.000000 29 359.416219
0.409731 -0.696883 3.147808 93.000000 26 359.416221
0.590960 -0.980762 3.168032 88.000000 24 359.416224
0.781307 -1.295664 3.190844 84.000000 22 359.416227
0.712170 -1.180553 2.325354 32.000000 20 359.416229
0.703510 -1.166202 1.877576 35.000000 18 359.416232
0.694058 -1.150538 1.534934 35.000000 16 359.416234
0.699577 -1.152852 1.404970 36.000000 15 359.416192
0.779099 -1.283906 1.292901 48.000000 13 359.416194
0.933632 -1.539173 1.264876 40.000000 11 359.416197
0.892223 -1.470911 0.986710 40.000000 9 359.416200
0.882552 -1.455542 0.776054 46.000000 7 359.416202
0.867990 -1.432088 0.581852 36.000000 5 359.416205
0.888604 -1.466099 0.416957 49.000000 3 359.416207
0.879859 -1.452242 0.245089 37.000000 1 359.416210
0.709040 -1.172597 1.301190 58.000000 14 359.416218
0.852573 -1.409977 1.283307 44.000000 12 359.416220
0.924204 -1.529042 1.135097 40.000000 10 359.416223
0.888005 -1.469157 0.881040 54.000000 8 359.416225
0.877017 -1.451551 0.679066 58.000000 6 359.416228
0.894655 -1.481327 0.508098 65.000000 4 359.416230
0.893185 -1.479476 0.332946 40.000000 2 359.416233
0.874934 -1.449818 0.161984 36.000000 0 359.416236
0.014668 -0.037779 3.089156 96.000000 31 359.416246
0.242197 -0.426245 3.117096 87.000000 28 359.416249
0.318464 -0.562063 3.129311 83.000000 27 359.416251
0.476619 -0.804109 3.033651 58.000000 25 359.416254
0.678153 -1.129935 3.164154 87.000000 23 359.416256
0.880693 -1.466850 3.201442 79.000000 21 359.416259
0.702867 -1.170668 2.078085 33.000000 19 359.416262
0.699027 -1.164277 1.701950 35.000000 17 359.416264
0.085711 -0.168780 3.104210 96.000000 30 359.416272
0.160734 -0.298856 3.116888 94.000000 29 359.416274
0.406662 -0.697222 3.142969 90.000000 26 359.416277
0.587533 -0.982819 3.168032 86.000000 24 359.416280
0.776780 -1.298384 3.190844 79.000000 22 359.416282
0.704027 -1.176318 2.312556 32.000000 20 359.416285
0.694791 -1.160892 1.865607 36.000000 18 359.416287
0.686555 -1.147135 1.527584 35.000000 16 359.416290
0.691869 -1.149176 1.397961 36.000000 15 359.416247
0.774613 -1.286618 1.292901 48.000000 13 359.416250
0.932566 -1.549588 1.270359 42.000000 11 359.416253
0.887083 -1.474016 0.986710 40.000000 9 359.416255
0.879856 -1.462586 0.777927 48.000000 7 359.416258
0.865457 -1.439220 0.583261 38.000000 5 359.416260
0.886012 -1.473401 0.417889 49.000000 3 359.416263
0.877350 -1.459573 0.245535 37.000000 1 359.416265
0.704943 -1.175064 1.301190 58.000000 14 359.416273
0.847646 -1.412944 1.283307 46.000000 12 359.416276
0.923295 -1.539653 1.140162 43.000000 10 359.416278
0.885205 -1.476140 0.883138 54.000000 8 359.416281
0.874373 -1.458654 0.680709 58.000000 6 359.416283
0.891977 -1.488610 0.509270 65.000000 4 359.416286
0.888015 -1.482585 0.332946 40.000000 2 359.416288
0.872435 -1.457150 0.162186 37.000000 0 359.416291
0.014536 -0.037830 3.089156 96.000000 31 359.416302
0.240707 -0.427088 3.117096 89.000000 28 359.416304
0.316500 -0.563171 3.129311 83.000000 27 359.416307
0.473052 -0.804480 3.028880 59.000000 25 359.416309
0.674204 -1.132296 3.164154 86.000000 23 359.416312
0.875568 -1.469915 3.201442 79.000000 21 359.416314
0.694456 -1.165862 2.065687 33.000000 19 359.416317
0.691678 -1.161201 1.694276 35.000000 17 359.416320
0.085122 -0.169078 3.104210 96.000000 30 359.416327
0.159690 -0.299415 3.116888 95.000000 29 359.416330
0.404226 -0.698637 3.142969 89.000000 26 359.416332
0.584099 -0.984864 3.168032 86.000000 24 359.416335
0.771131 -1.299215 3.186343 71.000000 22 359.416338
0.695922 -1.172041 2.299758 32.000000 20 359.416340
0.687657 -1.158127 1.857628 36.000000 18 359.416343
0.679085 -1.143695 1.520234 35.000000 16 359.416345
0.682368 -1.142399 1.387447 36.000000 15 359.416303
0.770117 -1.289314 1.292901 46.000000 13 359.416306
0.929294 -1.556424 1.273100 45.000000 11 359.416308
0.884203 -1.480908 0.989028 42.000000 9 359.416311
0.877121 -1.469629 0.779800 49.000000 7 359.416313
0.862886 -1.446352 0.584670 42.000000 5 359.416316
0.883380 -1.480704 0.418822 48.000000 3 359.416318
0.874800 -1.466904 0.245981 37.000000 1 359.416321
0.698927 -1.174309 1.297865 58.000000 14 359.416329
0.842709 -1.415894 1.283307 46.000000 12 359.416331
0.920120 -1.546572 1.142694 43.000000 10 359.416334
0.882368 -1.483122 0.885236 54.000000 8 359.416336
0.869276 -1.461697 0.680709 57.000000 6 359.416339
0.886775 -1.491715 0.509270 65.000000 4 359.416341
0.885364 -1.489933 0.333636 40.000000 2 359.416344
0.869894 -1.464482 0.162387 37.000000 0 359.416347
0.014404 -0.037880 3.089156 95.000000 31 359.416357
0.239215 -0.427926 3.117096 96.000000 28 359.416360
0.314532 -0.564273 3.129311 82.000000 27 359.416362
0.470241 -0.806126 3.028880 59.000000 25 359.416365
0.670248 -1.134642 3.164154 86.000000 23 359.416367
0.870431 -1.472962 3.201442 79.000000 21 359.416370
0.686088 -1.161011 2.053288 33.000000 19 359.416373
0.682727 -1.155329 1.682765 34.000000 17 359.416375
0.084433 -0.169099 3.099218 96.000000 30 359.416383
0.158696 -0.299943 3.116888 95.000000 29 359.416385
0.401281 -0.698883 3.138130 84.000000 26 359.416388
0.580830 -0.986795 3.168032 86.000000 24 359.416391
0.766592 -1.301898 3.186343 71.000000 22 359.416393
0.689179 -1.169969 2.291226 32.000000 20 359.416396
0.679021 -1.152729 1.845660 36.000000 18 359.416398
0.670126 -1.137178 1.509208 35.000000 16 359.416401
0.674740 -1.138638 1.380438 36.000000 15 359.416358
0.765612 -1.291994 1.292901 44.000000 13 359.416361
0.925987 -1.563256 1.275842 45.000000 11 359.416364
0.881286 -1.487797 0.991346 43.000000 9 359.416366
0.874605 -1.476518 0.781673 48.000000 7 359.416369
0.860529 -1.453333 0.586079 45.000000 5 359.416371
0.880708 -1.488006 0.419754 46.000000 3 359.416374
0.872210 -1.474235 0.246428 37.000000 1 359.416376
0.694824 -1.176742 1.297865 58.000000 14 359.416384
0.837762 -1.418827 1.283307 46.000000 12 359.416387
0.917178 -1.553327 1.145227 40.000000 10 359.416389
0.879752 -1.489948 0.887334 54.000000 8 359.416392
0.866824 -1.468639 0.682351 57.000000 6 359.416394
0.884293 -1.498833 0.510443 65.000000 4 359.416397
0.882934 -1.497127 0.334326 40.000000 2 359.416400
0.867570 -1.471662 0.162589 37.000000 0 359.416402
0.014278 -0.037928 3.089156 95.000000 31 359.416413
0.237795 -0.428717 3.117096 96.000000 28 359.416415
0.312659 -0.565313 3.129311 82.000000 27 359.416418
0.466817 -0.806389 3.024108 59.000000 25 359.416420
0.666481 -1.136859 3.164154 87.000000 23 359.416423
0.864330 -1.473774 3.197053 79.000000 21 359.416426
0.677963 -1.155997 2.040889 33.000000 19 359.416428
0.675649 -1.152055 1.675091 34.000000 17 359.416431
0.083842 -0.169393 3.099218 97.000000 30 359.416438
0.157648 -0.300495 3.116888 95.000000 29 359.416441
0.398839 -0.700280 3.138130 81.000000 26 359.416444
0.577382 -0.988817 3.168032 86.000000 24 359.416446
0.761171 -1.302553 3.181842 68.000000 22 359.416449
0.681347 -1.165493 2.278428 33.000000 20 359.416451
0.672153 -1.149771 1.837681 36.000000 18 359.416454
0.662730 -1.133657 1.501858 35.000000 16 359.416456
0.667344 -1.134721 1.373429 36.000000 15 359.416414
0.761323 -1.294526 1.292901 48.000000 13 359.416417
0.922917 -1.569923 1.278583 45.000000 11 359.416419
0.878593 -1.494530 0.993664 43.000000 9 359.416422
0.871795 -1.483559 0.783546 48.000000 7 359.416424
0.857881 -1.460465 0.587488 48.000000 5 359.416427
0.878257 -1.495153 0.420687 46.000000 3 359.416429
0.867317 -1.477119 0.246428 37.000000 1 359.416432
0.689030 -1.175817 1.294540 56.000000 14 359.416440
0.833052 -1.421598 1.283307 46.000000 12 359.416442
0.913929 -1.560239 1.147759 40.000000 10 359.416445
0.876840 -1.496925 0.889432 52.000000 8 359.416447
0.864079 -1.475731 0.683994 57.000000 6 359.416450
0.881511 -1.506106 0.511615 62.000000 4 359.416452
0.880203 -1.504474 0.335016 40.000000 2 359.416455
0.864950 -1.478994 0.162791 37.000000 0 359.416458
0.014145 -0.037977 3.089156 95.000000 31 359.416468
0.236297 -0.429544 3.117096 96.000000 28 359.416471
0.310684 -0.566401 3.129311 83.000000 27 359.416473
0.463999 -0.808013 3.024108 59.000000 25 359.416476
0.662509 -1.139178 3.164154 87.000000 23 359.416478
0.859181 -1.476782 3.197053 79.000000 21 359.416481
0.671094 -1.153492 2.032623 34.000000 19 359.416483
0.668399 -1.148865 1.667417 34.000000 17 359.416486
0.083250 -0.169685 3.099218 96.000000 30 359.416494
0.156599 -0.301044 3.116888 95.000000 29 359.416496
0.395155 -0.699477 3.128452 69.000000 26 359.416499
0.573927 -0.990826 3.168032 86.000000 24 359.416501
0.756620 -1.305202 3.181842 66.000000 22 359.416504
0.673349 -1.161096 2.265630 33.000000 20 359.416506
0.665111 -1.146896 1.829702 36.000000 18 359.416509
0.655367 -1.130098 1.494508 35.000000 16 359.416512
0.659785 -1.130883 1.366420 36.000000 15 359.416469
0.754838 -1.293813 1.289763 48.000000 13 359.416472
0.919538 -1.576747 1.281325 45.000000 11 359.416474
0.875602 -1.501415 0.995982 45.000000 9 359.416477
0.868946 -1.490598 0.785419 48.000000 7 359.416480
0.855193 -1.467596 0.588898 49.000000 5 359.416482
0.875506 -1.502454 0.421620 50.000000 3 359.416485
0.864662 -1.484441 0.246874 37.000000 1 359.416487
0.684921 -1.178215 1.294540 56.000000 14 359.416495
0.826053 -1.421002 1.280364 46.000000 12 359.416498
0.910643 -1.567147 1.150292 42.000000 10 359.416500
0.873889 -1.503901 0.891530 52.000000 8 359.416503
0.861294 -1.482821 0.685637 57.000000 6 359.416505
0.878689 -1.513377 0.512787 58.000000 4 359.416508
0.877432 -1.511820 0.335706 43.000000 2 359.416510
0.862289 -1.486326 0.162992 37.000000 0 359.416513
0.014013 -0.038027 3.089156 95.000000 31 359.416524
0.234796 -0.430366 3.117096 97.000000 28 359.416526
0.308705 -0.567482 3.129311 84.000000 27 359.416529
0.461176 -0.809628 3.024108 63.000000 25 359.416531
0.658529 -1.141484 3.164154 87.000000 23 359.416534
0.854020 -1.479772 3.197053 79.000000 21 359.416536
0.662843 -1.148516 2.020224 34.000000 19 359.416539
0.661179 -1.145638 1.659744 34.000000 17 359.416541
0.082532 -0.169713 3.094226 96.000000 30 359.416549
0.155547 -0.301589 3.116888 94.000000 29 359.416552
0.389638 -0.695365 3.104255 49.000000 26 359.416554
0.569605 -0.991327 3.163339 86.000000 24 359.416557
0.752059 -1.307835 3.181842 65.000000 22 359.416559
0.665391 -1.156657 2.252833 33.000000 20 359.416562
0.656595 -1.141373 1.817733 36.000000 18 359.416565
0.648038 -1.126502 1.487157 35.000000 16 359.416567
0.652261 -1.127006 1.359411 37.000000 15 359.416525
0.750317 -1.296440 1.289763 48.000000 13 359.416527
0.916122 -1.583567 1.284066 45.000000 11 359.416530
0.872575 -1.508297 0.998300 47.000000 9 359.416532
0.866058 -1.497636 0.787292 47.000000 7 359.416535
0.852466 -1.474725 0.590307 50.000000 5 359.416538
0.872714 -1.509754 0.422552 52.000000 3 359.416540
0.861966 -1.491762 0.247320 37.000000 1 359.416543
0.680804 -1.180599 1.294540 56.000000 14 359.416550
0.821088 -1.423877 1.280364 46.000000 12 359.416553
0.907320 -1.574052 1.152824 42.000000 10 359.416556
0.870901 -1.510874 0.893628 52.000000 8 359.416558
0.858471 -1.489911 0.687279 59.000000 6 359.416561
0.873401 -1.516435 0.512787 53.000000 4 359.416563
0.872150 -1.514874 0.335706 43.000000 2 359.416566
0.859588 -1.493657 0.163194 37.000000 0 359.416568
0.013880 -0.038075 3.089156 95.000000 31 359.416579
0.233292 -0.431183 3.117096 96.000000 28 359.416582
0.306239 -0.567659 3.124416 84.000000 27 359.416584
0.458347 -0.811233 3.024108 63.000000 25 359.416587
0.654540 -1.143775 3.164154 85.000000 23 359.416589
0.847660 -1.480665 3.192665 77.000000 21 359.416592
0.656034 -1.145938 2.011958 34.000000 19 359.416594
0.653991 -1.142374 1.652070 34.000000 17 359.416597
0.081939 -0.170000 3.094226 96.000000 30 359.416605
0.154493 -0.302130 3.116888 95.000000 29 359.416607
0.384765 -0.692322 3.084899 35.000000 26 359.416610
0.566141 -0.993310 3.163339 88.000000 24 359.416612
0.747490 -1.310452 3.181842 65.000000 22 359.416615
0.657472 -1.152177 2.240035 33.000000 20 359.416618
0.649620 -1.138422 1.809754 35.000000 18 359.416620
0.640741 -1.122868 1.479807 36.000000 16 359.416623
0.646547 -1.126183 1.355907 37.000000 15 359.416580
0.745787 -1.299051 1.289763 48.000000 13 359.416583
0.912670 -1.590382 1.286808 45.000000 11 359.416585
0.869509 -1.515176 1.000618 47.000000 9 359.416588
0.860825 -1.500650 0.787292 44.000000 7 359.416591
0.849699 -1.481853 0.591716 50.000000 5 359.416593
0.869882 -1.517053 0.423485 52.000000 3 359.416596
0.859231 -1.499082 0.247766 37.000000 1 359.416598
0.676679 -1.182968 1.294540 56.000000 14 359.416606
0.816113 -1.426734 1.280364 46.000000 12 359.416609
0.903961 -1.580952 1.155357 43.000000 10 359.416611
0.867874 -1.517845 0.895726 50.000000 8 359.416614
0.855608 -1.496998 0.688922 59.000000 6 359.416616
0.870514 -1.523695 0.513960 42.000000 4 359.416619
0.869312 -1.522209 0.336395 43.000000 2 359.416621
0.856845 -1.500987 0.163395 37.000000 0 359.416624
0.013747 -0.038124 3.089156 95.000000 31 359.416635
0.231786 -0.431995 3.117096 96.000000 28 359.416637
0.304256 -0.568725 3.124416 84.000000 27 359.416640
0.455513 -0.812828 3.024108 64.000000 25 359.416642
0.649579 -1.144354 3.159551 85.000000 23 359.416645
0.841303 -1.481532 3.188276 75.000000 21 359.416647
0.649251 -1.143327 2.003692 34.000000 19 359.416650
0.645250 -1.136286 1.640559 34.000000 17 359.416652
0.081345 -0.170285 3.094226 96.000000 30 359.416660
0.153438 -0.302667 3.116888 95.000000 29 359.416663
0.379312 -0.688153 3.060703 32.000000 26 359.416665
0.562670 -0.995280 3.163339 86.000000 24 359.416668
0.742911 -1.313054 3.181842 64.000000 22 359.416670
0.650876 -1.149926 2.231503 34.000000 20 359.416673
0.641188 -1.132814 1.797786 35.000000 18 359.416676
0.635148 -1.122147 1.476132 36.000000 16 359.416678
0.639083 -1.122235 1.348898 37.000000 15 359.416636
0.741248 -1.301646 1.289763 48.000000 13 359.416638
0.909182 -1.597192 1.289549 43.000000 11 359.416641
0.868598 -1.525902 1.005255 49.000000 9 359.416644
0.857874 -1.507675 0.789165 44.000000 7 359.416646
0.846893 -1.488981 0.593125 53.000000 5 359.416649
0.867010 -1.524350 0.424418 54.000000 3 359.416651
0.856454 -1.506402 0.248212 37.000000 1 359.416654
0.672545 -1.185323 1.294540 56.000000 14 359.416662
0.811128 -1.429575 1.280364 46.000000 12 359.416664
0.900563 -1.587848 1.157889 43.000000 10 359.416667
0.864810 -1.524813 0.897824 49.000000 8 359.416669
0.852706 -1.504084 0.690565 57.000000 6 359.416672
0.865190 -1.526724 0.513960 37.000000 4 359.416674
0.866435 -1.529543 0.337085 46.000000 2 359.416677
0.854062 -1.508316 0.163597 37.000000 0 359.416679
0.013614 -0.038171 3.089156 96.000000 31 359.416690
0.230276 -0.432801 3.117096 96.000000 28 359.416693
0.302269 -0.569783 3.124416 84.000000 27 359.416695
0.451947 -0.813107 3.019336 64.000000 25 359.416698
0.645581 -1.146615 3.159551 86.000000 23 359.416700
0.831423 -1.476110 3.170721 63.000000 21 359.416703
0.642494 -1.140683 1.995426 34.000000 19 359.416705
0.638133 -1.132945 1.632885 35.000000 17 359.416708
0.080751 -0.170568 3.094226 96.000000 30 359.416716
0.152380 -0.303201 3.116888 95.000000 29 359.416718
0.375098 -0.686161 3.046185 33.000000 26 359.416721
0.559193 -0.997238 3.163339 86.000000 24 359.416723
0.738323 -1.315639 3.181842 63.000000 22 359.416726
0.643028 -1.145368 2.218705 34.000000 20 359.416729
0.634279 -1.129789 1.789807 35.000000 18 359.416731
0.627908 -1.118445 1.468782 36.000000 16 359.416734
0.633407 -1.121354 1.345393 37.000000 15 359.416691
0.736700 -1.304226 1.289763 48.000000 13 359.416694
0.905657 -1.603997 1.292291 43.000000 11 359.416696
0.865445 -1.532783 1.007573 49.000000 9 359.416699
0.854885 -1.514698 0.791038 47.000000 7 359.416702
0.844048 -1.496106 0.594534 53.000000 5 359.416704
0.864098 -1.531645 0.425350 56.000000 3 359.416707
0.853637 -1.513720 0.248659 38.000000 1 359.416709
0.668404 -1.187664 1.294540 56.000000 14 359.416717
0.806132 -1.432397 1.280364 46.000000 12 359.416720
0.897129 -1.594739 1.160421 43.000000 10 359.416722
0.861707 -1.531778 0.899922 49.000000 8 359.416725
0.849766 -1.511168 0.692207 57.000000 6 359.416727
0.859855 -1.529735 0.513960 34.000000 4 359.416730
0.863516 -1.536876 0.337775 45.000000 2 359.416732
0.851239 -1.515644 0.163798 37.000000 0 359.416735
0.013481 -0.038219 3.089156 96.000000 31 359.416746
0.228764 -0.433603 3.117096 96.000000 28 359.416748
0.300278 -0.570835 3.124416 84.000000 27 359.416751
0.449106 -0.814680 3.019336 64.000000 25 359.416753
0.641574 -1.148861 3.159551 86.000000 23 359.416756
0.814581 -1.458088 3.126835 47.000000 21 359.416758
0.635764 -1.138005 1.987161 34.000000 19 359.416761
0.631047 -1.129568 1.625211 35.000000 17 359.416764
0.080155 -0.170849 3.094226 97.000000 30 359.416771
0.151084 -0.303253 3.111916 95.000000 29 359.416774
0.371502 -0.685255 3.036507 35.000000 26 359.416776
0.554869 -0.997675 3.158646 86.000000 24 359.416779
0.733726 -1.318208 3.181842 66.000000 22 359.416782
0.635220 -1.140770 2.205907 34.000000 20 359.416784
0.627399 -1.126730 1.781828 35.000000 18 359.416787
0.620701 -1.114706 1.461431 36.000000 16 359.416789
0.627746 -1.120447 1.341888 38.000000 15 359.416747
0.732143 -1.306790 1.289763 46.000000 13 359.416749
0.900052 -1.607148 1.292291 40.000000 11 359.416752
0.862254 -1.539660 1.009891 49.000000 9 359.416755
0.851857 -1.521718 0.792911 47.000000 7 359.416757
0.841163 -1.503229 0.595944 55.000000 5 359.416760
0.861145 -1.538939 0.426283 56.000000 3 359.416762
0.850779 -1.521037 0.249105 38.000000 1 359.416765
0.662434 -1.186729 1.291215 56.000000 14 359.416773
0.801127 -1.435202 1.280364 46.000000 12 359.416775
0.893658 -1.601626 1.162954 45.000000 10 359.416778
0.858567 -1.538740 0.902020 47.000000 8 359.416780
0.846786 -1.518249 0.693850 57.000000 6 359.416783
0.854510 -1.532727 0.513960 30.000000 4 359.416785
0.860557 -1.544207 0.338465 46.000000 2 359.416788
0.848374 -1.522971 0.164000 37.000000 0 359.416790
0.013357 -0.038308 3.094156 95.000000 31 359.416801
0.227249 -0.434398 3.117096 96.000000 28 359.416804
0.298284 -0.571880 3.124416 84.000000 27 359.416806
0.446260 -0.816243 3.019336 64.000000 25 359.416809
0.637560 -1.151094 3.159551 86.000000 23 359.416811
0.627696 -1.132833 1.974762 34.000000 19 359.416816
0.623993 -1.126156 1.617537 35.000000 17 359.416819
0.079558 -0.171127 3.094226 96.000000 30 359.416827
0.150024 -0.303778 3.111916 95.000000 29 359.416829
0.368513 -0.685439 3.031667 38.000000 26 359.416832
0.551384 -0.999606 3.158646 86.000000 24 359.416834
0.729120 -1.320761 3.181842 68.000000 22 359.416837
0.628712 -1.138414 2.197376 34.000000 20 359.416840
0.620548 -1.123636 1.773849 35.000000 18 359.416842
0.613529 -1.110931 1.454081 36.000000 16 359.416845
0.620367 -1.116397 1.334879 38.000000 15 359.416802
0.727577 -1.309337 1.289763 48.000000 13 359.416805
0.896467 -1.613936 1.295032 40.000000 11 359.416808
0.861177 -1.550406 1.014527 49.000000 9 359.416810
0.848790 -1.528735 0.794784 47.000000 7 359.416813
0.838238 -1.510351 0.597353 55.000000 5 359.416815
0.858151 -1.546231 0.427215 56.000000 3 359.416818
0.847880 -1.528352 0.249551 38.000000 1 359.416820
0.658287 -1.189034 1.291215 54.000000 14 359.416828
0.796113 -1.437990 1.280364 46.000000 12 359.416831
0.890149 -1.608508 1.165486 47.000000 10 359.416833
0.857585 -1.549670 0.906216 52.000000 8 359.416836
0.843767 -1.525328 0.695493 58.000000 6 359.416838
0.851507 -1.539955 0.515132 29.000000 4 359.416841
0.857557 -1.551535 0.339155 46.000000 2 359.416843
0.843053 -1.525923 0.164000 37.000000 0 359.416846
0.013224 -0.038354 3.094156 95.000000 31 359.416857
0.225732 -0.435189 3.117096 96.000000 28 359.416859
0.296286 -0.572918 3.124416 83.000000 27 359.416862
0.443408 -0.817796 3.019336 64.000000 25 359.416864
0.633538 -1.153312 3.159551 86.000000 23 359.416867
0.649773 -1.182390 2.538754 24.000000 21 359.416869
0.621027 -1.130085 1.966496 35.000000 19 359.416872
0.615426 -1.119898 1.606026 35.000000 17 359.416875
0.078960 -0.171404 3.094226 96.000000 30 359.416882
0.148963 -0.304300 3.111916 94.000000 29 359.416885
0.365526 -0.685611 3.026828 40.000000 26 359.416887
0.547891 -1.001525 3.158646 86.000000 24 359.416890
0.723459 -1.321388 3.177341 65.000000 22 359.416893
0.620976 -1.133740 2.184578 34.000000 20 359.416895
0.613726 -1.120509 1.765870 35.000000 18 359.416898
0.606390 -1.107119 1.446730 37.000000 16 359.416900
0.614745 -1.115432 1.331375 39.000000 15 359.416858
0.723002 -1.311869 1.289763 48.000000 13 359.416860
0.890828 -1.617055 1.295032 38.000000 11 359.416863
0.857897 -1.557283 1.016845 47.000000 9 359.416866
0.845685 -1.535749 0.796657 47.000000 7 359.416868
0.835274 -1.517471 0.598762 57.000000 5 359.416871
0.855117 -1.553520 0.428148 56.000000 3 359.416873
0.844940 -1.535666 0.249997 38.000000 1 359.416876
0.654133 -1.191324 1.291215 54.000000 14 359.416884
0.791088 -1.440760 1.280364 46.000000 12 359.416886
0.886603 -1.615385 1.168019 49.000000 10 359.416889
0.854354 -1.556633 0.908314 52.000000 8 359.416891
0.840709 -1.532404 0.697135 58.000000 6 359.416894
0.846126 -1.542917 0.515132 29.000000 4 359.416896
0.854516 -1.558862 0.339844 45.000000 2 359.416899
0.840122 -1.533238 0.164201 38.000000 0 359.416902
0.013090 -0.038400 3.094156 96.000000 31 359.416912
0.224211 -0.435974 3.117096 96.000000 28 359.416915
0.294284 -0.573948 3.124416 83.000000 27 359.416917
0.440550 -0.819338 3.019336 64.000000 25 359.416920
0.629508 -1.155517 3.159551 87.000000 23 359.416922
0.623859 -1.144682 2.455370 26.000000 21 359.416925
0.613039 -1.124833 1.954097 35.000000 19 359.416928
0.608445 -1.116410 1.598352 35.000000 17 359.416930
0.078361 -0.171679 3.094226 96.000000 30 359.416938
0.147900 -0.304818 3.111916 95.000000 29 359.416940
0.362543 -0.685771 3.021989 49.000000 26 359.416943
0.544392 -1.003431 3.158646 86.000000 24 359.416946
0.718843 -1.323906 3.177341 65.000000 22 359.416948
0.614525 -1.131317 2.176046 34.000000 20 359.416951
0.605496 -1.114699 1.753901 35.000000 18 359.416953
0.599285 -1.103271 1.439380 37.000000 16 359.416956
0.607427 -1.111313 1.324366 39.000000 15 359.416913
0.718418 -1.314385 1.289763 48.000000 13 359.416916
0.883173 -1.616485 1.292291 38.000000 11 359.416919
0.854580 -1.564156 1.019163 47.000000 9 359.416921
0.842541 -1.542761 0.798530 49.000000 7 359.416924
0.829972 -1.520377 0.598762 57.000000 5 359.416926
0.852043 -1.560807 0.429081 56.000000 3 359.416929
0.841960 -1.542977 0.250443 38.000000 1 359.416931
0.649970 -1.193600 1.291215 54.000000 14 359.416939
0.786054 -1.443513 1.280364 46.000000 12 359.416942
0.883020 -1.622256 1.170551 49.000000 10 359.416944
0.851085 -1.563591 0.910412 52.000000 8 359.416947
0.837611 -1.539478 0.698778 60.000000 6 359.416949
0.840735 -1.545862 0.515132 29.000000 4 359.416952
0.851435 -1.566186 0.340534 46.000000 2 359.416954
0.834765 -1.536161 0.164201 38.000000 0 359.416957
0.012955 -0.038446 3.094156 96.000000 31 359.416968
0.222688 -0.436754 3.117096 97.000000 28 359.416970
0.292279 -0.574972 3.124416 84.000000 27 359.416973
0.437688 -0.820871 3.019336 63.000000 25 359.416975
0.624542 -1.155988 3.154948 87.000000 23 359.416978
0.615303 -1.138422 2.437815 27.000000 21 359.416980
0.605095 -1.119539 1.941698 35.000000 19 359.416983
0.601496 -1.112886 1.590678 35.000000 17 359.416986
0.077761 -0.171951 3.094226 96.000000 30 359.416993
0.146835 -0.305332 3.111916 95.000000 29 359.416996
0.360147 -0.687032 3.021989 55.000000 26 359.416998
0.541703 -1.006845 3.163339 86.000000 24 359.417001
0.713985 -1.326531 3.177341 65.000000 22 359.417004
0.607902 -1.128969 2.167514 34.000000 20 359.417006
0.598548 -1.111603 1.745922 35.000000 18 359.417009
0.592023 -1.099490 1.432030 36.000000 16 359.417011
0.601844 -1.110291 1.320861 42.000000 15 359.416969
0.713826 -1.316885 1.289763 48.000000 13 359.416972
0.877525 -1.619558 1.292291 38.000000 11 359.416974
0.851225 -1.571025 1.021481 45.000000 9 359.416977
0.839359 -1.549769 0.800403 47.000000 7 359.416979
0.826944 -1.527484 0.600171 57.000000 5 359.416982
0.848655 -1.568240 0.430013 54.000000 3 359.416984
0.838669 -1.550433 0.250890 36.000000 1 359.416987
0.645591 -1.195975 1.291215 54.000000 14 359.416995
0.780758 -1.446384 1.280364 46.000000 12 359.416997
0.879115 -1.629276 1.173084 47.000000 10 359.417000
0.845349 -1.566700 0.910412 50.000000 8 359.417002
0.834205 -1.546694 0.700421 58.000000 6 359.417005
0.835064 -1.548933 0.515132 29.000000 4 359.417007
0.848038 -1.573656 0.341224 46.000000 2 359.417010
0.831767 -1.543463 0.164403 38.000000 0 359.417013
0.012814 -0.038493 3.094156 93.000000 31 359.417023
0.221086 -0.437568 3.117096 97.000000 28 359.417026
0.290169 -0.576039 3.124416 84.000000 27 359.417028
0.434676 -0.822470 3.019336 63.000000 25 359.417031
0.620301 -1.158269 3.154948 87.000000 23 359.417033
0.609995 -1.138558 2.433426 30.000000 21 359.417036
0.598330 -1.116789 1.933432 36.000000 19 359.417039
0.594385 -1.109431 1.583005 35.000000 17 359.417041
0.077161 -0.172222 3.094226 95.000000 30 359.417049
0.145768 -0.305843 3.111916 95.000000 29 359.417051
0.357167 -0.687169 3.017150 57.000000 26 359.417054
0.538185 -1.008730 3.163339 88.000000 24 359.417057
0.708325 -1.327094 3.172840 66.000000 22 359.417059
0.601501 -1.126483 2.158982 35.000000 20 359.417062
0.591825 -1.108368 1.737943 36.000000 18 359.417064
0.585179 -1.095467 1.424680 37.000000 16 359.417067
0.594395 -1.106206 1.313852 42.000000 15 359.417024
0.708995 -1.319492 1.289763 48.000000 13 359.417027
0.871583 -1.622764 1.292291 38.000000 11 359.417030
0.847558 -1.578037 1.023799 47.000000 9 359.417032
0.836137 -1.556773 0.802276 47.000000 7 359.417035
0.823876 -1.534588 0.601580 57.000000 5 359.417037
0.843175 -1.571193 0.430013 56.000000 3 359.417040
0.835606 -1.557740 0.251336 36.000000 1 359.417042
0.641413 -1.198221 1.291215 56.000000 14 359.417050
0.775705 -1.449101 1.280364 46.000000 12 359.417053
0.877777 -1.639784 1.178148 47.000000 10 359.417055
0.842291 -1.573496 0.912510 50.000000 8 359.417058
0.831299 -1.553615 0.702063 55.000000 6 359.417060
0.832215 -1.555979 0.516304 29.000000 4 359.417063
0.842815 -1.576459 0.341224 48.000000 2 359.417066
0.828729 -1.550764 0.164604 38.000000 0 359.417068
0.012687 -0.038535 3.094156 93.000000 31 359.417079
0.219286 -0.437603 3.112157 96.000000 28 359.417081
0.288258 -0.576998 3.124416 84.000000 27 359.417084
0.431946 -0.823907 3.019336 64.000000 25 359.417086
0.616457 -1.160320 3.154948 87.000000 23 359.417089
0.601719 -1.132112 2.415872 30.000000 21 359.417092
0.591982 -1.113797 1.925166 37.000000 19 359.417094
0.587694 -1.105734 1.575331 35.000000 17 359.417097
0.076559 -0.172490 3.094226 95.000000 30 359.417104
0.144700 -0.306350 3.111916 94.000000 29 359.417107
0.354766 -0.688412 3.017150 61.000000 26 359.417110
0.534661 -1.010602 3.163339 88.000000 24 359.417112
0.703920 -1.329436 3.172840 66.000000 22 359.417115
0.594099 -1.121558 2.146184 35.000000 20 359.417117
0.585325 -1.104998 1.729964 36.000000 18 359.417120
0.578178 -1.091511 1.417329 37.000000 16 359.417122
0.589046 -1.105024 1.310348 49.000000 15 359.417080
0.704615 -1.321836 1.289763 50.000000 13 359.417083
0.864231 -1.621955 1.289549 40.000000 11 359.417085
0.844403 -1.584749 1.026117 45.000000 9 359.417088
0.832877 -1.563774 0.804149 47.000000 7 359.417090
0.820769 -1.541689 0.602990 55.000000 5 359.417093
0.840269 -1.578316 0.430946 56.000000 3 359.417095
0.832775 -1.564898 0.251782 38.000000 1 359.417098
0.639187 -1.203640 1.294540 56.000000 14 359.417106
0.770895 -1.451665 1.280364 46.000000 12 359.417108
0.874069 -1.646646 1.180681 47.000000 10 359.417111
0.838921 -1.580436 0.914608 50.000000 8 359.417113
0.828085 -1.560679 0.703706 55.000000 6 359.417116
0.826779 -1.558875 0.516304 28.000000 4 359.417118
0.839626 -1.583767 0.341914 46.000000 2 359.417121
0.825650 -1.558062 0.164806 39.000000 0 359.417124
0.012552 -0.038579 3.094156 96.000000 31 359.417135
0.217757 -0.438366 3.112157 90.000000 28 359.417138
0.286242 -0.578001 3.124416 84.000000 27 359.417140
0.429068 -0.825409 3.019336 64.000000 25 359.417143
0.612403 -1.162465 3.154948 87.000000 23 359.417145
0.594412 -1.127847 2.402706 31.000000 21 359.417148
0.585466 -1.110878 1.916900 36.000000 19 359.417150
0.580841 -1.102107 1.567657 35.000000 17 359.417153
0.075956 -0.172756 3.094226 97.000000 30 359.417161
0.143630 -0.306853 3.111916 94.000000 29 359.417163
0.352361 -0.689646 3.017150 66.000000 26 359.417166
0.530328 -1.010934 3.158646 88.000000 24 359.417168
0.699275 -1.331885 3.172840 68.000000 22 359.417171
0.587755 -1.119007 2.137652 35.000000 20 359.417173
0.578661 -1.101698 1.721985 35.000000 18 359.417176
0.571211 -1.087520 1.409979 37.000000 16 359.417179
0.583518 -1.103921 1.306843 49.000000 15 359.417136
0.699997 -1.324287 1.289763 48.000000 13 359.417139
0.858564 -1.624962 1.289549 40.000000 11 359.417141
0.840936 -1.591603 1.028435 42.000000 9 359.417144
0.829579 -1.570771 0.806022 45.000000 7 359.417147
0.817622 -1.548787 0.604399 55.000000 5 359.417149
0.837048 -1.585584 0.431878 56.000000 3 359.417152
0.829632 -1.572200 0.252228 38.000000 1 359.417154
0.634982 -1.205863 1.294540 56.000000 14 359.417162
0.765823 -1.454347 1.280364 46.000000 12 359.417165
0.872332 -1.657317 1.185746 47.000000 10 359.417167
0.835513 -1.587371 0.916707 50.000000 8 359.417170
0.824831 -1.567740 0.705349 55.000000 6 359.417172
0.823595 -1.566053 0.517477 28.000000 4 359.417175
0.834093 -1.586688 0.341914 48.000000 2 359.417177
0.822531 -1.565357 0.165007 39.000000 0 359.417180
0.012417 -0.038623 3.094156 96.000000 31 359.417191
0.216225 -0.439124 3.112157 90.000000 28 359.417193
0.284222 -0.578997 3.124416 83.000000 27 359.417196
0.425500 -0.825575 3.014565 64.000000 25 359.417198
0.608341 -1.164595 3.154948 86.000000 23 359.417201
0.587143 -1.123546 2.389540 31.000000 21 359.417203
0.578978 -1.107926 1.908634 37.000000 19 359.417206
0.574021 -1.098445 1.559983 36.000000 17 359.417208
0.075353 -0.173020 3.094226 96.000000 30 359.417216
0.142558 -0.307353 3.111916 95.000000 29 359.417219
0.349384 -0.689749 3.012311 66.000000 26 359.417221
0.526796 -1.012779 3.158646 86.000000 24 359.417224
0.694622 -1.334318 3.172840 69.000000 22 359.417226
0.580232 -1.114112 2.124855 35.000000 20 359.417229
0.572028 -1.098365 1.714006 36.000000 18 359.417232
0.564280 -1.083493 1.402629 37.000000 16 359.417234
0.578006 -1.102792 1.303338 55.000000 15 359.417192
0.695370 -1.326723 1.289763 44.000000 13 359.417194
0.854827 -1.631653 1.292291 39.000000 11 359.417197
0.837431 -1.598454 1.030753 39.000000 9 359.417199
0.826241 -1.577764 0.807896 47.000000 7 359.417202
0.814436 -1.555882 0.605808 56.000000 5 359.417205
0.833786 -1.592848 0.432811 54.000000 3 359.417207
0.826447 -1.579499 0.252674 38.000000 1 359.417210
0.630769 -1.208073 1.294540 56.000000 14 359.417217
0.760742 -1.457012 1.280364 46.000000 12 359.417220
0.868536 -1.664174 1.188278 40.000000 10 359.417223
0.834166 -1.598324 0.920903 50.000000 8 359.417225
0.821537 -1.574796 0.706991 53.000000 6 359.417228
0.818123 -1.568919 0.517477 28.000000 4 359.417230
0.830838 -1.593981 0.342604 48.000000 2 359.417233
0.819370 -1.572649 0.165209 39.000000 0 359.417235
0.012283 -0.038666 3.094156 96.000000 31 359.417246
0.214691 -0.439876 3.112157 96.000000 28 359.417249
0.282200 -0.579985 3.124416 81.000000 27 359.417251
0.422615 -0.827055 3.014565 64.000000 25 359.417254
0.604273 -1.166712 3.154948 86.000000 23 359.417256
0.579911 -1.119207 2.376374 31.000000 21 359.417259
0.573813 -1.107442 1.904502 37.000000 19 359.417261
0.567233 -1.094749 1.552309 36.000000 17 359.417264
0.074749 -0.173282 3.094226 96.000000 30 359.417272
0.141484 -0.307849 3.111916 95.000000 29 359.417274
0.346974 -0.690965 3.012311 68.000000 26 359.417277
0.523258 -1.014612 3.158646 86.000000 24 359.417279
0.689960 -1.336734 3.172840 66.000000 22 359.417282
0.573946 -1.111496 2.116323 34.000000 20 359.417285
0.565425 -1.094999 1.706027 35.000000 18 359.417287
0.557384 -1.079432 1.395278 37.000000 16 359.417290
0.574153 -1.104803 1.303338 55.000000 15 359.417247
0.690734 -1.329142 1.289763 44.000000 13 359.417250
0.849126 -1.634627 1.292291 38.000000 11 359.417252
0.833889 -1.605298 1.033071 35.000000 9 359.417255
0.820729 -1.580639 0.807896 45.000000 7 359.417258
0.811210 -1.562973 0.607217 55.000000 5 359.417260
0.830484 -1.600109 0.433744 56.000000 3 359.417263
0.823222 -1.586795 0.253121 38.000000 1 359.417265
0.626548 -1.210267 1.294540 54.000000 14 359.417273
0.755651 -1.459658 1.280364 44.000000 12 359.417276
0.864703 -1.671025 1.190811 38.000000 10 359.417278
0.830668 -1.605257 0.923001 39.000000 8 359.417281
0.818205 -1.581849 0.708634 53.000000 6 359.417283
0.814874 -1.576083 0.518649 28.000000 4 359.417286
0.827543 -1.601271 0.343293 48.000000 2 359.417288
0.816168 -1.579938 0.165410 39.000000 0 359.417291
0.012147 -0.038708 3.094156 96.000000 31 359.417302
0.213155 -0.440622 3.112157 96.000000 28 359.417304
0.280173 -0.580967 3.124416 81.000000 27 359.417307
0.419051 -0.827192 3.009793 64.000000 25 359.417309
0.600196 -1.168814 3.154948 87.000000 23 359.417312
0.573811 -1.116962 2.367596 32.000000 21 359.417314
0.567372 -1.104432 1.896236 37.000000 19 359.417317
0.560478 -1.091019 1.544635 36.000000 17 359.417319
0.074143 -0.173542 3.094226 97.000000 30 359.417327
0.140408 -0.308341 3.111916 95.000000 29 359.417330
0.344560 -0.692172 3.012311 68.000000 26 359.417332
0.519713 -1.016432 3.158646 86.000000 24 359.417335
0.686048 -1.341193 3.177341 68.000000 22 359.417337
0.566304 -1.106627 2.103525 34.000000 20 359.417340
0.558661 -1.091698 1.698048 36.000000 18 359.417343
0.550335 -1.075432 1.387928 38.000000 16 359.417345
0.568659 -1.103630 1.299834 58.000000 15 359.417303
0.686091 -1.331545 1.289763 50.000000 13 359.417305
0.845330 -1.641298 1.295032 37.000000 11 359.417308
0.830308 -1.612138 1.035389 30.000000 9 359.417311
0.817328 -1.587616 0.809769 36.000000 7 359.417313
0.805749 -1.565795 0.607217 50.000000 5 359.417316
0.826860 -1.607510 0.434676 56.000000 3 359.417318
0.819678 -1.594230 0.253567 38.000000 1 359.417321
0.622108 -1.212555 1.294540 56.000000 14 359.417329
0.750296 -1.462418 1.280364 46.000000 12 359.417331
0.858573 -1.674183 1.190811 38.000000 10 359.417334
0.826850 -1.612329 0.925099 29.000000 8 359.417336
0.812402 -1.584837 0.708634 31.000000 6 359.417339
0.809092 -1.579059 0.518649 29.000000 4 359.417341
0.823926 -1.608701 0.343983 53.000000 2 359.417344
0.812926 -1.587224 0.165612 40.000000 0 359.417346
0.012006 -0.038753 3.094156 96.000000 31 359.417357
0.211538 -0.441401 3.112157 96.000000 28 359.417360
0.278042 -0.581990 3.124416 84.000000 27 359.417362
0.416016 -0.828723 3.009793 61.000000 25 359.417365
0.595908 -1.171006 3.154948 87.000000 23 359.417367
0.566453 -1.112653 2.354430 32.000000 21 359.417370
0.560767 -1.101489 1.887970 36.000000 19 359.417372
0.555021 -1.090209 1.540798 36.000000 17 359.417375
0.073507 -0.173813 3.094226 97.000000 30 359.417383
0.139277 -0.308853 3.111916 95.000000 29 359.417385
0.342021 -0.693430 3.012311 72.000000 26 359.417388
0.515984 -1.018330 3.158646 78.000000 24 359.417390
0.681362 -1.343580 3.177341 68.000000 22 359.417393
0.560078 -1.103945 2.094993 34.000000 20 359.417396
0.552120 -1.088265 1.690069 36.000000 18 359.417398
0.545044 -1.074323 1.384253 38.000000 16 359.417401
0.564611 -1.105707 1.299834 58.000000 15 359.417358
0.681206 -1.334051 1.289763 48.000000 13 359.417361
0.841209 -1.648110 1.297774 35.000000 11 359.417363
0.824394 -1.615170 1.035389 28.000000 9 359.417366
0.813611 -1.594730 0.811642 29.000000 7 359.417369
0.800005 -1.568738 0.607217 26.000000 5 359.417371
0.823476 -1.614763 0.435609 34.000000 3 359.417374
0.816370 -1.601519 0.254013 39.000000 1 359.417376
0.616178 -1.211391 1.291215 56.000000 14 359.417384
0.745187 -1.465028 1.280364 46.000000 12 359.417387
0.850770 -1.673326 1.188278 40.000000 10 359.417389
0.823274 -1.619252 0.927197 28.000000 8 359.417392
0.809004 -1.591873 0.710277 30.000000 6 359.417394
0.805776 -1.586207 0.519821 29.000000 4 359.417397
0.820547 -1.615983 0.344673 34.000000 2 359.417399
0.809364 -1.594648 0.165813 55.000000 0 359.417402
0.011870 -0.038794 3.094156 96.000000 31 359.417413
0.209996 -0.442136 3.112157 97.000000 28 359.417415
0.276009 -0.582957 3.124416 86.000000 27 359.417418
0.413121 -0.830170 3.009793 61.000000 25 359.417420
0.591817 -1.173079 3.154948 87.000000 23 359.417423
0.560407 -1.110346 2.345653 32.000000 21 359.417425
0.554383 -1.098415 1.879704 37.000000 19 359.417428
0.548324 -1.086416 1.533124 36.000000 17 359.417431
0.072900 -0.174068 3.094226 97.000000 30 359.417438
0.138198 -0.309337 3.111916 95.000000 29 359.417441
0.339598 -0.694620 3.012311 72.000000 26 359.417443
0.512426 -1.020125 3.158646 42.000000 24 359.417446
0.676668 -1.345950 3.177341 71.000000 22 359.417449
0.553877 -1.101234 2.086461 34.000000 20 359.417451
0.546964 -1.087493 1.686080 36.000000 18 359.417454
0.538244 -1.070161 1.376902 38.000000 16 359.417456
0.559137 -1.104490 1.296329 56.000000 15 359.417414
0.676545 -1.336420 1.289763 48.000000 13 359.417416
0.837339 -1.654767 1.300515 30.000000 11 359.417419
0.820751 -1.621991 1.037707 28.000000 9 359.417422
0.808039 -1.597561 0.811642 29.000000 7 359.417424
0.796688 -1.575802 0.608626 27.000000 5 359.417427
0.817834 -1.617627 0.435609 34.000000 3 359.417429
0.810774 -1.604359 0.254013 35.000000 1 359.417432
0.611946 -1.213534 1.291215 58.000000 14 359.417440
0.740069 -1.467620 1.280364 46.000000 12 359.417442
0.841043 -1.668586 1.183213 39.000000 10 359.417445
0.819659 -1.626168 0.929295 28.000000 8 359.417447
0.805567 -1.598905 0.711920 30.000000 6 359.417450
0.800234 -1.589010 0.519821 29.000000 4 359.417452
0.814901 -1.618837 0.344673 34.000000 2 359.417455
0.803793 -1.597463 0.165813 36.000000 0 359.417457
0.011735 -0.038836 3.094156 96.000000 31 359.417468
0.208451 -0.442867 3.112157 97.000000 28 359.417471
0.273540 -0.582995 3.119520 84.000000 27 359.417473
0.410221 -0.831607 3.009793 63.000000 25 359.417476
0.587719 -1.175138 3.154948 85.000000 23 359.417478
0.554384 -1.108010 2.336876 33.000000 21 359.417481
0.548027 -1.095310 1.871438 37.000000 19 359.417483
0.541659 -1.082589 1.525450 36.000000 17 359.417486
0.072291 -0.174322 3.094226 96.000000 30 359.417494
0.137118 -0.309818 3.111916 94.000000 29 359.417496
0.337171 -0.695801 3.012311 72.000000 26 359.417499
0.671966 -1.348304 3.177341 81.000000 22 359.417504
0.546539 -1.096159 2.073663 35.000000 20 359.417507
0.540475 -1.084001 1.678101 36.000000 18 359.417509
0.532992 -1.069000 1.373227 38.000000 16 359.417512
0.555278 -1.106435 1.296329 56.000000 15 359.417469
0.670130 -1.335294 1.286625 46.000000 13 359.417472
0.833433 -1.661417 1.303257 30.000000 11 359.417475
0.817071 -1.628806 1.040025 28.000000 9 359.417477
0.804536 -1.604516 0.813515 30.000000 7 359.417480
0.791183 -1.578573 0.608626 27.000000 5 359.417482
0.812183 -1.620472 0.435609 48.000000 3 359.417485
0.805169 -1.607179 0.254013 35.000000 1 359.417487
0.607706 -1.215663 1.291215 56.000000 14 359.417495
0.734941 -1.470195 1.280364 46.000000 12 359.417498
0.831359 -1.663799 1.178148 40.000000 10 359.417500
0.816006 -1.633080 0.931393 30.000000 8 359.417503
0.802091 -1.605932 0.713562 30.000000 6 359.417505
0.796854 -1.596142 0.520994 29.000000 4 359.417508
0.809246 -1.621672 0.344673 42.000000 2 359.417510
0.800442 -1.604730 0.166015 36.000000 0 359.417513
0.011599 -0.038876 3.094156 96.000000 31 359.417524
0.206904 -0.443592 3.112157 97.000000 28 359.417526
0.271504 -0.583946 3.119520 84.000000 27 359.417529
0.407315 -0.833034 3.009793 64.000000 25 359.417531
0.583613 -1.177182 3.154948 85.000000 23 359.417534
0.547319 -1.103500 2.323710 33.000000 21 359.417536
0.540449 -1.089654 1.859039 37.000000 19 359.417539
0.535028 -1.078729 1.517776 37.000000 17 359.417542
0.071683 -0.174573 3.094226 96.000000 30 359.417549
0.136035 -0.310295 3.111916 94.000000 29 359.417552
0.334740 -0.696973 3.012311 72.000000 26 359.417554
0.446481 -0.904525 2.797303 4.000000 24 359.417557
0.667255 -1.350641 3.177341 89.000000 22 359.417560
0.540398 -1.093384 2.065132 36.000000 20 359.417562
0.534017 -1.080477 1.670122 36.000000 18 359.417565
0.526253 -1.064775 1.365877 38.000000 16 359.417567
0.549824 -1.105173 1.292825 55.000000 15 359.417525
0.665464 -1.337626 1.286625 46.000000 13 359.417527
0.825767 -1.660572 1.300515 33.000000 11 359.417530
0.813353 -1.635615 1.042343 30.000000 9 359.417533
0.800993 -1.611466 0.815388 30.000000 7 359.417535
0.789937 -1.589918 0.611445 28.000000 5 359.417538
0.806521 -1.623297 0.435609 48.000000 3 359.417540
0.799554 -1.609980 0.254013 35.000000 1 359.417543
0.603459 -1.217777 1.291215 56.000000 14 359.417551
0.729805 -1.472751 1.280364 46.000000 12 359.417553
0.821719 -1.658964 1.173084 40.000000 10 359.417556
0.812315 -1.639985 0.933491 31.000000 8 359.417558
0.798576 -1.612954 0.715205 32.000000 6 359.417561
0.791277 -1.598914 0.520994 29.000000 4 359.417563
0.803580 -1.624487 0.344673 42.000000 2 359.417566
0.792621 -1.603036 0.165813 36.000000 0 359.417569
0.011463 -0.038917 3.094156 96.000000 31 359.417579
0.205355 -0.444311 3.112157 97.000000 28 359.417582
0.269464 -0.584890 3.119520 84.000000 27 359.417584
0.404405 -0.834451 3.009793 64.000000 25 359.417587
0.579500 -1.179212 3.154948 87.000000 23 359.417589
0.541350 -1.101103 2.314933 33.000000 21 359.417592
0.534159 -1.086483 1.850773 38.000000 19 359.417595
0.528430 -1.074836 1.510103 37.000000 17 359.417597
0.071073 -0.174822 3.094226 96.000000 30 359.417605
0.134951 -0.310768 3.111916 95.000000 29 359.417607
0.332305 -0.698138 3.012311 72.000000 26 359.417610
0.315154 -0.644111 2.004226 7.000000 24 359.417613
0.662537 -1.352962 3.177341 94.000000 22 359.417615
0.534284 -1.090579 2.056600 37.000000 20 359.417618
0.527590 -1.076922 1.662143 37.000000 18 359.417620
0.521042 -1.063561 1.362202 39.000000 16 359.417623
0.545963 -1.107086 1.292825 55.000000 15 359.417580
0.660791 -1.339940 1.286625 48.000000 13 359.417583
0.818116 -1.659694 1.297774 37.000000 11 359.417586
0.807639 -1.638444 1.042343 34.000000 9 359.417588
0.797412 -1.618410 0.817261 32.000000 7 359.417591
0.786502 -1.596969 0.612854 29.000000 5 359.417593
0.798679 -1.621696 0.434676 48.000000 3 359.417596
0.789530 -1.603825 0.253121 35.000000 1 359.417598
0.599205 -1.219876 1.291215 58.000000 14 359.417606
0.724659 -1.475290 1.280364 46.000000 12 359.417609
0.812123 -1.654082 1.168019 39.000000 10 359.417611
0.808586 -1.646884 0.935589 36.000000 8 359.417614
0.795022 -1.619971 0.716848 33.000000 6 359.417616
0.787832 -1.606030 0.522166 30.000000 4 359.417619
0.793544 -1.618389 0.343293 40.000000 2 359.417621
0.787020 -1.605793 0.165813 37.000000 0 359.417624
0.011327 -0.038956 3.094156 96.000000 31 359.417635
0.203802 -0.445025 3.112157 97.000000 28 359.417637
0.267420 -0.585827 3.119520 84.000000 27 359.417640
0.400843 -0.834511 3.005021 64.000000 25 359.417642
0.575381 -1.181228 3.154948 87.000000 23 359.417645
0.535404 -1.098679 2.306155 33.000000 21 359.417647
0.527898 -1.083282 1.842507 38.000000 19 359.417650
0.523271 -1.073792 1.506266 37.000000 17 359.417653
0.070462 -0.175069 3.094226 96.000000 30 359.417660
0.133656 -0.310746 3.106945 95.000000 29 359.417663
0.329866 -0.699293 3.012311 72.000000 26 359.417665
0.313657 -0.646760 2.008919 17.000000 24 359.417668
0.657810 -1.355266 3.177341 94.000000 22 359.417671
0.528195 -1.087745 2.048068 36.000000 20 359.417673
0.522511 -1.076046 1.658153 37.000000 18 359.417676
0.515845 -1.062324 1.358527 39.000000 16 359.417678
0.542095 -1.108985 1.292825 55.000000 15 359.417636
0.656110 -1.342239 1.286625 48.000000 13 359.417639
0.810482 -1.658783 1.295032 39.000000 11 359.417641
0.801914 -1.641253 1.042343 38.000000 9 359.417644
0.791758 -1.621184 0.817261 37.000000 7 359.417646
0.783027 -1.604016 0.614263 32.000000 5 359.417649
0.788704 -1.615645 0.432811 48.000000 3 359.417651
0.781743 -1.602096 0.252674 35.000000 1 359.417654
0.594943 -1.221960 1.291215 56.000000 14 359.417662
0.717736 -1.474177 1.277421 44.000000 12 359.417664
0.802571 -1.649154 1.162954 40.000000 10 359.417667
0.800846 -1.645616 0.933491 45.000000 8 359.417669
0.789362 -1.622737 0.716848 39.000000 6 359.417672
0.782221 -1.608771 0.522166 39.000000 4 359.417674
0.785725 -1.616695 0.342604 39.000000 2 359.417677
0.777044 -1.599543 0.165410 37.000000 0 359.417680
0.011191 -0.038996 3.094156 96.000000 31 359.417690
0.202248 -0.445734 3.112157 97.000000 28 359.417693
0.265374 -0.586757 3.119520 84.000000 27 359.417695
0.397928 -0.835905 3.005021 64.000000 25 359.417698
0.570405 -1.181470 3.150346 87.000000 23 359.417700
0.529482 -1.096227 2.297378 34.000000 21 359.417703
0.522890 -1.082584 1.838374 38.000000 19 359.417706
0.516731 -1.069838 1.498592 38.000000 17 359.417708
0.069851 -0.175314 3.094226 96.000000 30 359.417716
0.132779 -0.311702 3.111916 95.000000 29 359.417718
0.327423 -0.700441 3.012311 72.000000 26 359.417721
0.308407 -0.641630 1.990148 27.000000 24 359.417724
0.653075 -1.357554 3.177341 94.000000 22 359.417726
0.523264 -1.087232 2.043802 36.000000 20 359.417729
0.516138 -1.072431 1.650174 37.000000 18 359.417731
0.509194 -1.058009 1.351176 39.000000 16 359.417734
0.538221 -1.110870 1.292825 55.000000 15 359.417691
0.651421 -1.344521 1.286625 48.000000 13 359.417694
0.802864 -1.657838 1.292291 39.000000 11 359.417697
0.794250 -1.640055 1.040025 40.000000 9 359.417699
0.786094 -1.623938 0.817261 42.000000 7 359.417702
0.777423 -1.606740 0.614263 39.000000 5 359.417704
0.780920 -1.613967 0.431878 48.000000 3 359.417707
0.771810 -1.595848 0.251782 35.000000 1 359.417709
0.590674 -1.224030 1.291215 56.000000 14 359.417717
0.712586 -1.476673 1.277421 46.000000 12 359.417720
0.793064 -1.644179 1.157889 40.000000 10 359.417722
0.793126 -1.644314 0.931393 45.000000 8 359.417725
0.781642 -1.621228 0.715205 50.000000 6 359.417727
0.776601 -1.611491 0.522166 53.000000 4 359.417730
0.775779 -1.610505 0.341224 39.000000 2 359.417733
0.769289 -1.597744 0.165209 36.000000 0 359.417735
0.011055 -0.039034 3.094156 96.000000 31 359.417746
0.200691 -0.446437 3.112157 97.000000 28 359.417748
0.263324 -0.587680 3.119520 84.000000 27 359.417751
0.395008 -0.837289 3.005021 64.000000 25 359.417753
0.566277 -1.183454 3.150346 88.000000 23 359.417756
0.522549 -1.091585 2.284212 35.000000 21 359.417759
0.516677 -1.079326 1.830108 38.000000 19 359.417761
0.511609 -1.068744 1.494755 38.000000 17 359.417764
0.069238 -0.175557 3.094226 97.000000 30 359.417771
0.131690 -0.312164 3.111916 95.000000 29 359.417774
