# .PCD v.7 - Point Cloud Data file format
VERSION .7
FIELDS x y z intensity ring timestamp
SIZE 4 4 4 4 2 8
TYPE F F F F U D
COUNT 1 1 1 1 1 1
WIDTH 907
HEIGHT 1
VIEWPOINT 0 0 0 1 0 0 0
POINTS 907
DATA ascii
-0.936555 -0.809565 1.296329 39.000000 15 359.338897
-0.932956 -0.806450 1.076394 44.000000 13 359.338899
-0.931834 -0.805197 0.892037 43.000000 11 359.338902
-0.929628 -0.803286 0.729409 40.000000 9 359.338905
-0.926814 -0.800573 0.583132 39.000000 7 359.338907
-0.922526 -0.796588 0.447978 33.000000 5 359.338910
-0.907183 -0.783339 0.319031 13.000000 3 359.338912
-0.908379 -0.784095 0.200468 12.000000 1 359.338915
-0.933412 -0.804290 1.178171 40.000000 14 359.338923
-0.929780 -0.801157 0.977218 46.000000 12 359.338925
-0.925788 -0.797435 0.803349 45.000000 10 359.338928
-0.936181 -0.806383 0.658646 49.000000 8 359.338930
-0.930872 -0.801528 0.516440 39.000000 6 359.338933
-0.913718 -0.786480 0.381488 24.000000 4 359.338935
-0.915844 -0.788032 0.260516 9.000000 2 359.338938
-0.935338 -0.804521 0.143444 26.000000 0 359.338941
-0.034926 -0.020812 3.104155 98.000000 31 359.338951
-0.367286 -0.299521 3.013371 39.000000 28 359.338954
-0.468752 -0.381328 2.928607 68.000000 27 359.338956
-0.631382 -0.534453 2.690087 36.000000 25 359.338959
-0.980387 -0.839134 3.099718 18.000000 23 359.338961
-0.966598 -0.827618 2.398317 35.000000 21 359.338964
-0.953848 -0.816697 1.916900 37.000000 19 359.338967
-0.948752 -0.812331 1.571494 39.000000 17 359.338969
-0.151207 -0.111948 3.084243 97.000000 30 359.338977
-0.264946 -0.205989 3.082088 95.000000 29 359.338979
-0.575297 -0.480074 2.920366 75.000000 26 359.338982
-0.661124 -0.563886 2.417189 74.000000 24 359.338985
-0.973590 -0.830960 2.709255 28.000000 22 359.338987
-0.963252 -0.822421 2.141918 36.000000 20 359.338990
-0.950985 -0.811944 1.729964 38.000000 18 359.338992
-0.944535 -0.806434 1.424680 39.000000 16 359.338995
-0.942082 -0.808613 1.299834 39.000000 15 359.338952
-0.935766 -0.803189 1.076394 42.000000 13 359.338955
-0.934639 -0.801939 0.892037 43.000000 11 359.338958
-0.935788 -0.802921 0.731727 40.000000 9 359.338960
-0.929603 -0.797333 0.583132 39.000000 7 359.338963
-0.925301 -0.793362 0.447978 33.000000 5 359.338965
-0.913641 -0.783365 0.319964 13.000000 3 359.338968
-0.911110 -0.780919 0.200468 13.000000 1 359.338970
-0.939052 -0.803454 1.181495 40.000000 14 359.338978
-0.935642 -0.800534 0.980161 46.000000 12 359.338981
-0.931842 -0.797001 0.805882 45.000000 10 359.338983
-0.942439 -0.806061 0.660744 49.000000 8 359.338986
-0.933664 -0.798274 0.516440 39.000000 6 359.338988
-0.916458 -0.783285 0.381488 24.000000 4 359.338991
-0.922354 -0.788047 0.261205 9.000000 2 359.338993
-0.938141 -0.801251 0.143444 26.000000 0 359.338996
-0.034998 -0.020690 3.104155 98.000000 31 359.339007
-0.369537 -0.299214 3.023250 39.000000 28 359.339009
-0.470080 -0.379690 2.928607 68.000000 27 359.339012
-0.634387 -0.533207 2.694859 36.000000 25 359.339014
-0.984799 -0.836972 3.104321 18.000000 23 359.339017
-0.971307 -0.825790 2.402706 35.000000 21 359.339019
-0.956693 -0.813363 1.916900 37.000000 19 359.339022
-0.954025 -0.811091 1.575331 39.000000 17 359.339025
-0.151597 -0.111420 3.084243 97.000000 30 359.339032
-0.265664 -0.205063 3.082088 95.000000 29 359.339035
-0.576969 -0.478063 2.920366 75.000000 26 359.339037
-0.663088 -0.561575 2.417189 74.000000 24 359.339040
-0.978146 -0.828965 2.713755 29.000000 22 359.339043
-0.968107 -0.820741 2.146184 36.000000 20 359.339045
-0.953813 -0.808620 1.729964 39.000000 18 359.339048
-0.949930 -0.805324 1.428355 39.000000 16 359.339050
-0.944899 -0.805320 1.299834 39.000000 15 359.339008
-0.941526 -0.802443 1.079532 40.000000 13 359.339011
-0.940616 -0.801383 0.894778 43.000000 11 359.339013
-0.938585 -0.799650 0.731727 40.000000 9 359.339016
-0.935910 -0.797089 0.585005 38.000000 7 359.339018
-0.928065 -0.790128 0.447978 33.000000 5 359.339021
-0.916370 -0.780171 0.319964 13.000000 3 359.339023
-0.913831 -0.777734 0.200468 13.000000 1 359.339026
-0.944697 -0.802589 1.184820 40.000000 14 359.339034
-0.938431 -0.797263 0.980161 44.000000 12 359.339036
-0.934619 -0.793743 0.805882 45.000000 10 359.339039
-0.945247 -0.802766 0.660744 49.000000 8 359.339041
-0.940045 -0.798066 0.518083 39.000000 6 359.339044
-0.919186 -0.780082 0.381488 25.000000 4 359.339046
-0.928876 -0.788026 0.261895 9.000000 2 359.339049
-0.944742 -0.801203 0.143645 26.000000 0 359.339052
-0.035070 -0.020568 3.104155 97.000000 31 359.339062
-0.371792 -0.298895 3.033128 50.000000 28 359.339065
-0.471402 -0.378046 2.928607 64.000000 27 359.339067
-0.637392 -0.531946 2.699631 36.000000 25 359.339070
-0.989208 -0.834789 3.108923 18.000000 23 359.339072
-0.976014 -0.823940 2.407094 35.000000 21 359.339075
-0.961676 -0.811834 1.921033 37.000000 19 359.339078
-0.959300 -0.809824 1.579168 39.000000 17 359.339080
-0.151985 -0.110890 3.084243 97.000000 30 359.339088
-0.266378 -0.204134 3.082088 95.000000 29 359.339090
-0.578635 -0.476046 2.920366 75.000000 26 359.339093
-0.665045 -0.559257 2.417189 71.000000 24 359.339096
-0.982700 -0.826948 2.718256 29.000000 22 359.339098
-0.970966 -0.817356 2.146184 36.000000 20 359.339101
-0.958936 -0.807226 1.733954 39.000000 18 359.339103
-0.952735 -0.802003 1.428355 39.000000 16 359.339106
-0.950426 -0.804321 1.303338 39.000000 15 359.339063
-0.944322 -0.799151 1.079532 39.000000 13 359.339066
-0.943407 -0.798095 0.894778 43.000000 11 359.339069
-0.944753 -0.799230 0.734045 42.000000 9 359.339071
-0.938687 -0.793817 0.585005 38.000000 7 359.339074
-0.934481 -0.789980 0.449387 33.000000 5 359.339076
-0.922839 -0.780139 0.320897 13.000000 3 359.339079
-0.920343 -0.777754 0.200914 13.000000 1 359.339081
-0.947492 -0.799287 1.184820 40.000000 14 359.339089
-0.944298 -0.796589 0.983104 44.000000 12 359.339092
-0.937383 -0.790476 0.805882 45.000000 10 359.339094
-0.948043 -0.799461 0.660744 47.000000 8 359.339097
-0.942825 -0.794780 0.518083 39.000000 6 359.339099
-0.921904 -0.776868 0.381488 26.000000 4 359.339102
-0.931621 -0.784779 0.261895 9.000000 2 359.339105
-0.947533 -0.797900 0.143645 27.000000 0 359.339107
-0.035142 -0.020446 3.104155 97.000000 31 359.339118
-0.373440 -0.298080 3.038068 61.000000 28 359.339120
-0.472719 -0.376399 2.928607 64.000000 27 359.339123
-0.640395 -0.530671 2.704402 35.000000 25 359.339125
-0.993613 -0.832586 3.113526 17.000000 23 359.339128
-0.980720 -0.822067 2.411483 35.000000 21 359.339131
-0.966661 -0.810279 1.925166 37.000000 19 359.339133
-0.964578 -0.808530 1.583005 39.000000 17 359.339136
-0.152371 -0.110359 3.084243 97.000000 30 359.339143
-0.267089 -0.203203 3.082088 95.000000 29 359.339146
-0.580293 -0.474024 2.920366 75.000000 26 359.339149
-0.666993 -0.556932 2.417189 70.000000 24 359.339151
-0.987252 -0.824909 2.722757 29.000000 22 359.339154
-0.975814 -0.815634 2.150450 36.000000 20 359.339156
-0.964060 -0.805807 1.737943 39.000000 18 359.339159
-0.958130 -0.800847 1.432030 39.000000 16 359.339161
-0.953228 -0.800998 1.303338 39.000000 15 359.339119
-0.950086 -0.798354 1.082670 42.000000 13 359.339122
-0.946188 -0.794797 0.894778 42.000000 11 359.339124
-0.947537 -0.795927 0.734045 42.000000 9 359.339127
-0.945002 -0.793517 0.586878 37.000000 7 359.339129
-0.937233 -0.786714 0.449387 33.000000 5 359.339132
-0.929319 -0.780071 0.321829 13.000000 3 359.339134
-0.923053 -0.774536 0.200914 13.000000 1 359.339137
-0.953139 -0.798373 1.188145 40.000000 14 359.339145
-0.947073 -0.793288 0.983104 44.000000 12 359.339147
-0.943443 -0.789967 0.808414 44.000000 10 359.339150
-0.954308 -0.799061 0.662842 47.000000 8 359.339152
-0.945593 -0.791484 0.518083 39.000000 6 359.339155
-0.928337 -0.776765 0.382660 26.000000 4 359.339157
-0.938153 -0.784699 0.262585 9.000000 2 359.339160
-0.950312 -0.794588 0.143645 27.000000 0 359.339163
-0.035173 -0.020305 3.099155 97.000000 31 359.339173
-0.375088 -0.297257 3.043007 62.000000 28 359.339176
-0.474030 -0.374746 2.928607 68.000000 27 359.339178
-0.644550 -0.530330 2.713946 35.000000 25 359.339181
-0.999517 -0.831611 3.122731 17.000000 23 359.339183
-0.985425 -0.820172 2.415872 34.000000 21 359.339186
-0.971646 -0.808700 1.929299 37.000000 19 359.339188
-0.967394 -0.805158 1.583005 39.000000 17 359.339191
-0.152755 -0.109826 3.084243 97.000000 30 359.339199
-0.267796 -0.202270 3.082088 96.000000 29 359.339201
-0.581944 -0.471995 2.920366 77.000000 26 359.339204
-0.668933 -0.554600 2.417189 67.000000 24 359.339206
-0.990125 -0.821457 2.722757 29.000000 22 359.339209
-0.980662 -0.813889 2.154716 36.000000 20 359.339211
-0.969186 -0.804362 1.741933 38.000000 18 359.339214
-0.963528 -0.799663 1.435705 39.000000 16 359.339217
-0.958757 -0.799951 1.306843 39.000000 15 359.339174
-0.952867 -0.795033 1.082670 42.000000 13 359.339177
-0.952167 -0.794168 0.897520 42.000000 11 359.339179
-0.953712 -0.795452 0.736363 42.000000 9 359.339182
-0.947767 -0.790213 0.586878 37.000000 7 359.339185
-0.939973 -0.783437 0.449387 33.000000 5 359.339187
-0.932036 -0.776822 0.321829 13.000000 3 359.339190
-0.925751 -0.771310 0.200914 13.000000 1 359.339192
-0.955920 -0.795041 1.188145 40.000000 14 359.339200
-0.952944 -0.792561 0.986048 44.000000 12 359.339203
-0.946194 -0.786669 0.808414 44.000000 10 359.339205
-0.957091 -0.795725 0.662842 49.000000 8 359.339208
-0.951982 -0.791197 0.519725 39.000000 6 359.339210
-0.931043 -0.773519 0.382660 26.000000 4 359.339213
-0.940887 -0.781420 0.262585 9.000000 2 359.339215
-0.953080 -0.791266 0.143645 27.000000 0 359.339218
-0.035244 -0.020182 3.099155 97.000000 31 359.339229
-0.376734 -0.296425 3.047946 72.000000 28 359.339231
-0.475335 -0.373089 2.928607 69.000000 27 359.339234
-0.647554 -0.529022 2.718718 35.000000 25 359.339236
-1.003920 -0.829362 3.127333 18.000000 23 359.339239
-0.990129 -0.818253 2.420260 34.000000 21 359.339241
-0.976632 -0.807096 1.933432 37.000000 19 359.339244
-0.972670 -0.803819 1.586842 38.000000 17 359.339246
-0.153118 -0.109319 3.084243 97.000000 30 359.339254
-0.268466 -0.201380 3.082088 95.000000 29 359.339257
-0.583506 -0.470063 2.920366 77.000000 26 359.339259
-0.670768 -0.552379 2.417189 67.000000 24 359.339262
-0.994667 -0.819381 2.727258 29.000000 22 359.339264
-0.985510 -0.812119 2.158982 36.000000 20 359.339267
-0.974314 -0.802890 1.745922 38.000000 18 359.339270
-0.966175 -0.796463 1.435705 39.000000 16 359.339272
-0.961543 -0.796599 1.306843 39.000000 15 359.339230
-0.958634 -0.794186 1.085808 44.000000 13 359.339232
-0.954934 -0.790839 0.897520 44.000000 11 359.339235
-0.956483 -0.792118 0.736363 42.000000 9 359.339237
-0.950382 -0.787066 0.586878 38.000000 7 359.339240
-0.942566 -0.780316 0.449387 34.000000 5 359.339243
-0.938527 -0.776696 0.322762 14.000000 3 359.339245
-0.932275 -0.771248 0.201360 13.000000 1 359.339248
-0.961569 -0.794077 1.191470 40.000000 14 359.339255
-0.955704 -0.789230 0.986048 44.000000 12 359.339258
-0.952122 -0.786272 0.810947 44.000000 10 359.339261
-0.963224 -0.795437 0.664940 47.000000 8 359.339263
-0.954601 -0.788035 0.519725 39.000000 6 359.339266
-0.937352 -0.773521 0.383832 26.000000 4 359.339268
-0.943473 -0.778296 0.262585 9.000000 2 359.339271
-0.959553 -0.791279 0.143847 27.000000 0 359.339273
-0.035311 -0.020065 3.099155 97.000000 31 359.339284
-0.378328 -0.295652 3.052886 75.000000 28 359.339287
-0.476570 -0.371511 2.928607 68.000000 27 359.339289
-0.650465 -0.527812 2.723489 36.000000 25 359.339292
-1.008175 -0.827267 3.131936 16.000000 23 359.339294
-0.992837 -0.814965 2.420260 34.000000 21 359.339297
-0.981479 -0.805639 1.937565 37.000000 19 359.339299
-0.977808 -0.802623 1.590678 38.000000 17 359.339302
-0.153499 -0.108784 3.084243 97.000000 30 359.339310
-0.269167 -0.200442 3.082088 95.000000 29 359.339312
-0.585143 -0.468023 2.920366 77.000000 26 359.339315
-0.672692 -0.550034 2.417189 61.000000 24 359.339317
-0.999207 -0.817282 2.731759 28.000000 22 359.339320
-0.990357 -0.810326 2.163248 36.000000 20 359.339323
-0.977111 -0.799485 1.745922 39.000000 18 359.339325
-0.971711 -0.795063 1.439380 39.000000 16 359.339328
-0.966933 -0.795672 1.310348 39.000000 15 359.339285
-0.961262 -0.791002 1.085808 42.000000 13 359.339288
-0.957551 -0.787668 0.897520 42.000000 11 359.339290
-0.962525 -0.791757 0.738681 42.000000 9 359.339293
-0.953123 -0.783744 0.586878 38.000000 7 359.339296
-0.948990 -0.780067 0.450796 34.000000 5 359.339298
-0.941232 -0.773415 0.322762 14.000000 3 359.339301
-0.934961 -0.767989 0.201360 13.000000 1 359.339303
-0.967223 -0.793083 1.194795 40.000000 14 359.339311
-0.961579 -0.788452 0.988991 44.000000 12 359.339314
-0.954997 -0.782777 0.810947 44.000000 10 359.339316
-0.966133 -0.791901 0.664940 47.000000 8 359.339319
-0.961136 -0.787524 0.521368 39.000000 6 359.339321
-0.940181 -0.770081 0.383832 27.000000 4 359.339324
-0.946319 -0.774832 0.262585 9.000000 2 359.339326
-0.962309 -0.787925 0.143847 27.000000 0 359.339329
-0.035384 -0.019935 3.099155 97.000000 31 359.339340
-0.380023 -0.294740 3.057825 79.000000 28 359.339342
-0.477928 -0.369762 2.928607 68.000000 27 359.339345
-0.653558 -0.526361 2.728261 35.000000 25 359.339347
-1.014230 -0.826034 3.141141 16.000000 23 359.339350
-0.997674 -0.812834 2.424649 34.000000 21 359.339352
-0.984425 -0.802036 1.937565 37.000000 19 359.339355
-0.980743 -0.799033 1.590678 39.000000 17 359.339357
-0.153878 -0.108247 3.084243 97.000000 30 359.339365
-0.269865 -0.199501 3.082088 95.000000 29 359.339368
-0.586773 -0.465978 2.920366 78.000000 26 359.339370
-0.675948 -0.548770 2.421882 51.000000 24 359.339373
-1.003744 -0.815162 2.736259 28.000000 22 359.339375
-0.995204 -0.808508 2.167514 36.000000 20 359.339378
-0.982235 -0.797969 1.749912 39.000000 18 359.339381
-0.974343 -0.791837 1.439380 39.000000 16 359.339383
-0.972605 -0.794379 1.313852 39.000000 15 359.339341
-0.967170 -0.789936 1.088945 42.000000 13 359.339343
-0.963670 -0.786798 0.900261 42.000000 11 359.339346
-0.965421 -0.788224 0.738681 42.000000 9 359.339349
-0.955853 -0.780412 0.586878 39.000000 7 359.339351
-0.951707 -0.776750 0.450796 33.000000 5 359.339354
-0.943926 -0.770125 0.322762 14.000000 3 359.339356
-0.941495 -0.767868 0.201807 13.000000 1 359.339359
-0.969986 -0.789702 1.194795 40.000000 14 359.339367
-0.964325 -0.785091 0.988991 44.000000 12 359.339369
-0.960931 -0.782328 0.813479 44.000000 10 359.339372
-0.968754 -0.788693 0.664940 47.000000 8 359.339374
-0.963742 -0.784333 0.521368 39.000000 6 359.339377
-0.946500 -0.770026 0.385005 27.000000 4 359.339379
-0.952725 -0.774814 0.263275 9.000000 2 359.339382
-0.968931 -0.787713 0.144048 28.000000 0 359.339384
-0.035450 -0.019818 3.099155 97.000000 31 359.339395
-0.380998 -0.293478 3.057825 82.000000 28 359.339398
-0.479152 -0.368175 2.928607 68.000000 27 359.339400
-0.656466 -0.525124 2.733033 35.000000 25 359.339403
-1.018483 -0.823895 3.145743 20.000000 23 359.339405
-1.002227 -0.811028 2.429038 33.000000 21 359.339408
-0.989267 -0.800537 1.941698 37.000000 19 359.339410
-0.985880 -0.797793 1.594515 39.000000 17 359.339413
-0.154255 -0.107709 3.084243 97.000000 30 359.339421
-0.270560 -0.198558 3.082088 95.000000 29 359.339423
-0.588396 -0.463927 2.920366 77.000000 26 359.339426
-0.681890 -0.549656 2.435960 46.000000 24 359.339428
-1.008279 -0.813021 2.740760 28.000000 22 359.339431
-1.000050 -0.806667 2.171780 36.000000 20 359.339434
-0.987360 -0.796428 1.753901 38.000000 18 359.339436
-0.979877 -0.790389 1.443055 39.000000 16 359.339439
-0.975234 -0.791149 1.313852 39.000000 15 359.339396
-0.969784 -0.786725 1.088945 40.000000 13 359.339399
-0.966274 -0.783598 0.900261 42.000000 11 359.339401
-0.968029 -0.785018 0.738681 40.000000 9 359.339404
-0.962173 -0.779990 0.588751 39.000000 7 359.339407
-0.958140 -0.776444 0.452206 34.000000 5 359.339409
-0.950426 -0.769917 0.323695 14.000000 3 359.339412
-0.948040 -0.767711 0.202253 13.000000 1 359.339414
-0.975640 -0.788659 1.198120 40.000000 14 359.339422
-0.970203 -0.784261 0.991934 44.000000 12 359.339425
-0.967146 -0.781510 0.816011 44.000000 10 359.339427
-0.975168 -0.787989 0.667038 45.000000 8 359.339430
-0.966610 -0.780795 0.521368 39.000000 6 359.339432
-0.949316 -0.766552 0.385005 27.000000 4 359.339435
-0.955559 -0.771317 0.263275 9.000000 2 359.339437
-0.971674 -0.784326 0.144048 27.000000 0 359.339440
-0.035522 -0.019688 3.099155 97.000000 31 359.339451
-0.382072 -0.292079 3.057825 90.000000 28 359.339453
-0.480498 -0.366416 2.928607 69.000000 27 359.339456
-0.659557 -0.523643 2.737805 35.000000 25 359.339458
-1.023019 -0.821379 3.150346 20.000000 23 359.339461
-1.007061 -0.808849 2.433426 33.000000 21 359.339463
-0.994388 -0.798668 1.945831 37.000000 19 359.339466
-0.991297 -0.796182 1.598352 38.000000 17 359.339469
-0.154648 -0.107143 3.084243 97.000000 30 359.339476
-0.271286 -0.197565 3.082088 96.000000 29 359.339479
-0.590093 -0.461767 2.920366 77.000000 26 359.339481
-0.691985 -0.553622 2.464117 40.000000 24 359.339484
-1.012811 -0.810857 2.745261 28.000000 22 359.339487
-1.004895 -0.804802 2.176046 36.000000 20 359.339489
-0.992487 -0.794861 1.757891 38.000000 18 359.339492
-0.985276 -0.789083 1.446730 39.000000 16 359.339494
-0.980905 -0.789806 1.317357 39.000000 15 359.339452
-0.975693 -0.785606 1.092083 40.000000 13 359.339454
-0.972397 -0.782673 0.903003 42.000000 11 359.339457
-0.974351 -0.784242 0.740999 40.000000 9 359.339460
-0.965025 -0.776458 0.588751 39.000000 7 359.339462
-0.960979 -0.772927 0.452206 33.000000 5 359.339465
-0.953107 -0.766595 0.323695 14.000000 3 359.339467
-0.950714 -0.764397 0.202253 13.000000 1 359.339470
-0.978387 -0.785249 1.198120 40.000000 14 359.339478
-0.972935 -0.780870 0.991934 44.000000 12 359.339480
-0.969868 -0.778129 0.816011 44.000000 10 359.339483
-0.977913 -0.784581 0.667038 45.000000 8 359.339485
-0.973014 -0.780371 0.523011 39.000000 6 359.339488
-0.955778 -0.766274 0.386177 27.000000 4 359.339490
-0.958245 -0.767977 0.263275 9.000000 2 359.339493
-0.978441 -0.783883 0.144250 27.000000 0 359.339495
-0.035591 -0.019564 3.099155 97.000000 31 359.339506
-0.383089 -0.290744 3.057825 91.000000 28 359.339509
-0.481774 -0.364737 2.928607 68.000000 27 359.339511
-0.662553 -0.522262 2.742576 35.000000 25 359.339514
-1.028935 -0.820239 3.159551 20.000000 23 359.339516
-1.011751 -0.806823 2.437815 34.000000 21 359.339519
-0.999370 -0.796947 1.949964 37.000000 19 359.339521
-0.994070 -0.792717 1.598352 39.000000 17 359.339524
-0.155021 -0.106603 3.084243 97.000000 30 359.339532
-0.271974 -0.196617 3.082088 95.000000 29 359.339534
-0.591701 -0.459704 2.920366 77.000000 26 359.339537
-1.017340 -0.808672 2.749762 28.000000 22 359.339542
-1.009740 -0.802912 2.180312 36.000000 20 359.339545
-0.995255 -0.791391 1.757891 38.000000 18 359.339547
-0.990678 -0.787749 1.450406 39.000000 16 359.339550
-0.986441 -0.788604 1.320861 39.000000 15 359.339507
-0.981470 -0.784627 1.095221 42.000000 13 359.339510
-0.975123 -0.779274 0.903003 42.000000 11 359.339513
-0.977083 -0.780836 0.740999 42.000000 9 359.339515
-0.971352 -0.775979 0.590624 39.000000 7 359.339518
-0.967420 -0.772561 0.453615 33.000000 5 359.339520
-0.959616 -0.766329 0.324627 14.000000 3 359.339523
-0.957269 -0.764181 0.202699 14.000000 1 359.339525
-0.984043 -0.784156 1.201445 40.000000 14 359.339533
-0.978816 -0.779988 0.994877 44.000000 12 359.339536
-0.975950 -0.777425 0.818544 44.000000 10 359.339538
-0.984195 -0.783990 0.669136 47.000000 8 359.339541
-0.975732 -0.776970 0.523011 39.000000 6 359.339543
-0.958447 -0.762933 0.386177 27.000000 4 359.339546
-0.964795 -0.767711 0.263965 9.000000 2 359.339548
-0.981172 -0.780463 0.144250 28.000000 0 359.339551
-0.035659 -0.019439 3.099155 97.000000 31 359.339562
-0.384101 -0.289405 3.057825 91.000000 28 359.339564
-0.483044 -0.363053 2.928607 68.000000 27 359.339567
-0.665549 -0.520866 2.747348 35.000000 25 359.339569
-1.033324 -0.817855 3.164154 19.000000 23 359.339572
-1.016439 -0.804773 2.442204 34.000000 21 359.339574
-1.004352 -0.795200 1.954097 37.000000 19 359.339577
-0.999345 -0.791232 1.602189 39.000000 17 359.339580
-0.155374 -0.106088 3.084243 97.000000 30 359.339587
-0.272624 -0.195714 3.082088 95.000000 29 359.339590
-0.593222 -0.457740 2.920366 78.000000 26 359.339592
-0.884058 -0.697465 3.116411 21.000000 24 359.339595
-1.021866 -0.806465 2.754263 28.000000 22 359.339598
-1.014583 -0.800999 2.184578 36.000000 20 359.339600
-1.000377 -0.789780 1.761880 39.000000 18 359.339603
-0.993285 -0.784459 1.450406 39.000000 16 359.339605
-0.989188 -0.785156 1.320861 39.000000 15 359.339563
-0.984203 -0.781196 1.095221 42.000000 13 359.339565
-0.977838 -0.775865 0.903003 42.000000 11 359.339568
-0.983273 -0.780174 0.743317 40.000000 9 359.339571
-0.973920 -0.772753 0.590624 39.000000 7 359.339573
-0.969977 -0.769349 0.453615 34.000000 5 359.339576
-0.966134 -0.766026 0.325560 14.000000 3 359.339578
-0.959930 -0.760835 0.202699 14.000000 1 359.339581
-0.986774 -0.780716 1.201445 40.000000 14 359.339589
-0.981533 -0.776566 0.994877 44.000000 12 359.339591
-0.978523 -0.774185 0.818544 44.000000 10 359.339594
-0.986790 -0.780722 0.669136 47.000000 8 359.339596
-0.978303 -0.773730 0.523011 39.000000 6 359.339599
-0.964785 -0.762765 0.387349 27.000000 4 359.339601
-0.967336 -0.764507 0.263965 9.000000 2 359.339604
-0.987675 -0.780302 0.144451 28.000000 0 359.339607
-0.035723 -0.019321 3.099155 97.000000 31 359.339617
-0.385059 -0.288130 3.057825 93.000000 28 359.339620
-0.484246 -0.361449 2.928607 68.000000 27 359.339622
-0.668452 -0.519573 2.752120 35.000000 25 359.339625
-1.037566 -0.815631 3.168756 17.000000 23 359.339627
-1.020986 -0.802879 2.446592 33.000000 21 359.339630
-1.009196 -0.793605 1.958230 37.000000 19 359.339633
-1.001963 -0.787914 1.602189 38.000000 17 359.339635
-0.155744 -0.105545 3.084243 97.000000 30 359.339643
-0.273306 -0.194761 3.082088 95.000000 29 359.339645
-0.593818 -0.454901 2.915527 78.000000 26 359.339648
-0.902790 -0.707144 3.172725 23.000000 24 359.339651
-1.026249 -0.804415 2.758764 27.000000 22 359.339653
-1.019286 -0.799239 2.188844 36.000000 20 359.339656
-1.005363 -0.788318 1.765870 38.000000 18 359.339658
-0.998685 -0.783079 1.454081 39.000000 16 359.339661
-0.994587 -0.784079 1.324366 39.000000 15 359.339618
-0.989846 -0.780338 1.098359 40.000000 13 359.339621
-0.983689 -0.775206 0.905744 42.000000 11 359.339624
-0.985855 -0.776910 0.743317 40.000000 9 359.339626
-0.980253 -0.772218 0.592497 39.000000 7 359.339629
-0.976425 -0.768926 0.455024 34.000000 5 359.339631
-0.976388 -0.768897 0.327425 14.000000 3 359.339634
-0.962448 -0.757647 0.202699 14.000000 1 359.339636
-0.992294 -0.779747 1.204769 40.000000 14 359.339644
-0.987281 -0.775804 0.997820 42.000000 12 359.339647
-0.984610 -0.773428 0.821076 44.000000 10 359.339649
-0.993078 -0.780076 0.671234 47.000000 8 359.339652
-0.984712 -0.773227 0.524653 39.000000 6 359.339654
-0.971265 -0.762394 0.388522 28.000000 4 359.339657
-0.969998 -0.761126 0.263965 9.000000 2 359.339659
-0.990392 -0.776849 0.144451 28.000000 0 359.339662
-0.035790 -0.019196 3.099155 97.000000 31 359.339673
-0.386062 -0.286784 3.057825 94.000000 28 359.339675
-0.485504 -0.359756 2.928607 68.000000 27 359.339678
-0.672626 -0.519061 2.761663 35.000000 25 359.339680
-1.040407 -0.812004 3.168756 17.000000 23 359.339683
-1.025671 -0.800785 2.450981 33.000000 21 359.339685
-1.014178 -0.791809 1.962363 37.000000 19 359.339688
-1.007234 -0.786385 1.606026 38.000000 17 359.339691
-0.156111 -0.105001 3.084243 97.000000 30 359.339698
-0.273984 -0.193806 3.082088 95.000000 29 359.339701
-0.595402 -0.452826 2.915527 77.000000 26 359.339703
-0.914789 -0.711404 3.205574 24.000000 24 359.339706
-1.030769 -0.802166 2.763264 27.000000 22 359.339709
-1.024128 -0.797278 2.193110 36.000000 20 359.339711
-1.010487 -0.786655 1.769859 38.000000 18 359.339714
-1.004087 -0.781671 1.457756 39.000000 16 359.339716
-1.000126 -0.782800 1.327870 39.000000 15 359.339674
-0.995629 -0.779277 1.101497 40.000000 13 359.339677
-0.986389 -0.771768 0.905744 40.000000 11 359.339679
-0.992050 -0.776194 0.745636 40.000000 9 359.339682
-0.982942 -0.768791 0.592497 39.000000 7 359.339684
-0.979103 -0.765513 0.455024 34.000000 5 359.339687
-0.982935 -0.768509 0.328358 15.000000 3 359.339689
-0.969011 -0.757350 0.203145 12.000000 1 359.339692
-0.995010 -0.776278 1.204769 40.000000 14 359.339700
-0.989983 -0.772353 0.997820 42.000000 12 359.339702
-0.987303 -0.769986 0.821076 44.000000 10 359.339705
-0.995795 -0.776605 0.671234 47.000000 8 359.339707
-0.987405 -0.769785 0.524653 39.000000 6 359.339710
-0.973920 -0.758999 0.388522 28.000000 4 359.339712
-0.972649 -0.757736 0.263965 9.000000 2 359.339715
-0.997040 -0.776457 0.144653 27.000000 0 359.339718
-0.035857 -0.019071 3.099155 94.000000 31 359.339728
-0.387061 -0.285434 3.057825 94.000000 28 359.339731
-0.486757 -0.358059 2.928607 68.000000 27 359.339733
-0.675620 -0.517618 2.766435 35.000000 25 359.339736
-1.043235 -0.808368 3.168756 16.000000 23 359.339738
-1.030353 -0.798667 2.455370 34.000000 21 359.339741
-1.019159 -0.789988 1.966496 37.000000 19 359.339744
-1.009973 -0.782864 1.606026 38.000000 17 359.339746
-0.156477 -0.104455 3.084243 96.000000 30 359.339754
-0.274659 -0.192848 3.082088 95.000000 29 359.339756
-0.596979 -0.450745 2.915527 77.000000 26 359.339759
-0.925462 -0.714534 3.233731 18.000000 24 359.339762
-1.035286 -0.799894 2.767766 27.000000 22 359.339764
-1.028968 -0.795293 2.197376 36.000000 20 359.339767
-1.013226 -0.783123 1.769859 38.000000 18 359.339769
-1.009492 -0.780234 1.461431 39.000000 16 359.339772
-1.002853 -0.779305 1.327870 39.000000 15 359.339729
-0.998343 -0.775797 1.101497 40.000000 13 359.339732
-0.992379 -0.770885 0.908485 42.000000 11 359.339735
-0.994753 -0.772726 0.745636 40.000000 9 359.339737
-0.989282 -0.768199 0.594370 39.000000 7 359.339740
-0.985559 -0.765032 0.456433 34.000000 5 359.339742
-0.989492 -0.768086 0.329290 15.000000 3 359.339745
-0.971649 -0.753963 0.203145 12.000000 1 359.339747
-1.000666 -0.775087 1.208094 40.000000 14 359.339755
-0.992673 -0.768893 0.997820 42.000000 12 359.339758
-0.993394 -0.769174 0.823609 42.000000 10 359.339760
-1.002088 -0.775903 0.673332 47.000000 8 359.339763
-0.993820 -0.769224 0.526296 39.000000 6 359.339765
-0.980408 -0.758569 0.389694 28.000000 4 359.339768
-0.975289 -0.754336 0.263965 9.000000 2 359.339771
-0.999744 -0.772972 0.144653 28.000000 0 359.339773
-0.035923 -0.018946 3.099155 94.000000 31 359.339784
-0.388055 -0.284082 3.057825 96.000000 28 359.339786
-0.488004 -0.356358 2.928607 68.000000 27 359.339789
-0.678611 -0.516160 2.771207 34.000000 25 359.339791
-1.046051 -0.804721 3.168756 16.000000 23 359.339794
-1.035033 -0.796527 2.459758 34.000000 21 359.339797
-1.024141 -0.788142 1.970629 37.000000 19 359.339799
-1.015240 -0.781289 1.609863 38.000000 17 359.339802
-0.156840 -0.103908 3.084243 96.000000 30 359.339809
-0.275330 -0.191888 3.082088 95.000000 29 359.339812
-0.598549 -0.448658 2.915527 77.000000 26 359.339815
-0.925212 -0.709200 3.224345 15.000000 24 359.339817
-1.039800 -0.797601 2.772266 27.000000 22 359.339820
-1.033807 -0.793284 2.201642 36.000000 20 359.339822
-1.018345 -0.781416 1.773849 38.000000 18 359.339825
-1.012210 -0.776706 1.461431 39.000000 16 359.339827
-1.008390 -0.777978 1.331375 39.000000 15 359.339785
-1.004127 -0.774685 1.104634 40.000000 13 359.339788
-0.995064 -0.767416 0.908485 42.000000 11 359.339790
-0.997445 -0.769249 0.745636 40.000000 9 359.339793
-0.991957 -0.764741 0.594370 39.000000 7 359.339795
-0.988223 -0.761588 0.456433 34.000000 5 359.339798
-0.996058 -0.767626 0.330223 15.000000 3 359.339800
-0.978220 -0.753606 0.203591 14.000000 1 359.339803
-1.006325 -0.773866 1.211419 40.000000 14 359.339811
-0.998555 -0.767887 1.000763 42.000000 12 359.339813
-0.996073 -0.765702 0.823609 42.000000 10 359.339816
-1.004790 -0.772400 0.673332 47.000000 8 359.339818
-0.996500 -0.765750 0.526296 39.000000 6 359.339821
-0.983050 -0.755142 0.389694 29.000000 4 359.339823
-0.981843 -0.753943 0.264655 10.000000 2 359.339826
-1.002436 -0.769477 0.144653 28.000000 0 359.339829
-0.035993 -0.018814 3.099155 97.000000 31 359.339840
-0.389094 -0.282657 3.057825 93.000000 28 359.339843
-0.489307 -0.354567 2.928607 68.000000 27 359.339845
-0.682883 -0.515469 2.780750 34.000000 25 359.339848
-1.048993 -0.800882 3.168756 15.000000 23 359.339850
-1.037946 -0.792728 2.459758 33.000000 21 359.339853
-1.029259 -0.786091 1.974762 37.000000 19 359.339855
-1.020645 -0.779508 1.613700 38.000000 17 359.339858
-0.157220 -0.103333 3.084243 97.000000 30 359.339866
-0.276032 -0.190878 3.082088 95.000000 29 359.339868
-0.600189 -0.446461 2.915527 77.000000 26 359.339871
-0.927805 -0.705804 3.224345 15.000000 24 359.339873
-1.044449 -0.795103 2.776767 27.000000 22 359.339876
-1.038783 -0.791070 2.205907 36.000000 20 359.339878
-1.023600 -0.779505 1.777838 38.000000 18 359.339881
-1.017747 -0.775044 1.465106 39.000000 16 359.339884
-1.014066 -0.776445 1.334879 39.000000 15 359.339841
-1.006960 -0.771000 1.104634 40.000000 13 359.339844
-1.001191 -0.766306 0.911227 42.000000 11 359.339846
-1.003775 -0.768281 0.747954 40.000000 9 359.339849
-0.998435 -0.763917 0.596243 39.000000 7 359.339852
-0.994819 -0.760875 0.457842 35.000000 5 359.339854
-1.002767 -0.766954 0.331156 15.000000 3 359.339857
-0.980975 -0.750015 0.203591 14.000000 1 359.339859
-1.009155 -0.770172 1.211419 40.000000 14 359.339867
-1.001362 -0.764222 1.000763 42.000000 12 359.339870
-1.002300 -0.764661 0.826141 44.000000 10 359.339872
-1.011223 -0.771465 0.675431 45.000000 8 359.339875
-1.003055 -0.764956 0.527939 39.000000 6 359.339877
-0.989676 -0.754481 0.390866 29.000000 4 359.339880
-0.984600 -0.750339 0.264655 10.000000 2 359.339882
-1.005250 -0.765798 0.144653 29.000000 0 359.339885
-0.036058 -0.018688 3.099155 97.000000 31 359.339896
-0.390078 -0.281297 3.057825 93.000000 28 359.339898
-0.490542 -0.352857 2.928607 69.000000 27 359.339901
-0.685873 -0.513978 2.785522 33.000000 25 359.339903
-1.051782 -0.797215 3.168756 14.000000 23 359.339906
-1.042616 -0.790548 2.464147 33.000000 21 359.339908
-1.034239 -0.784193 1.978895 37.000000 19 359.339911
-1.025914 -0.777878 1.617537 38.000000 17 359.339913
-0.157580 -0.102783 3.084243 97.000000 30 359.339921
-0.276696 -0.189913 3.082088 95.000000 29 359.339924
-0.601744 -0.444364 2.915527 77.000000 26 359.339926
-0.926131 -0.699441 3.210267 22.000000 24 359.339929
-1.050693 -0.794079 2.785769 27.000000 22 359.339931
-1.043618 -0.789012 2.210173 36.000000 20 359.339934
-1.028719 -0.777745 1.781828 38.000000 18 359.339937
-1.020446 -0.771487 1.465106 39.000000 16 359.339939
-1.019610 -0.775058 1.338384 39.000000 15 359.339897
-1.009645 -0.767480 1.104634 40.000000 13 359.339899
-1.007189 -0.765336 0.913968 40.000000 11 359.339902
-1.006451 -0.764772 0.747954 40.000000 9 359.339904
-1.004787 -0.763231 0.598116 39.000000 7 359.339907
-1.001289 -0.760299 0.459252 34.000000 5 359.339910
-1.009350 -0.766419 0.332088 16.000000 3 359.339912
-0.983587 -0.746587 0.203591 15.000000 1 359.339915
-1.014814 -0.768900 1.214744 42.000000 14 359.339922
-1.007246 -0.763163 1.003707 40.000000 12 359.339925
-1.004963 -0.761158 0.826141 44.000000 10 359.339928
-1.013910 -0.767931 0.675431 45.000000 8 359.339930
-1.005719 -0.761450 0.527939 39.000000 6 359.339933
-0.992304 -0.751022 0.390866 29.000000 4 359.339935
-0.987213 -0.746898 0.264655 10.000000 2 359.339938
-1.007917 -0.762285 0.144653 28.000000 0 359.339940
-0.036123 -0.018562 3.099155 97.000000 31 359.339951
-0.391057 -0.279934 3.057825 97.000000 28 359.339954
-0.491770 -0.351143 2.928607 68.000000 27 359.339956
-0.690060 -0.513363 2.795065 33.000000 25 359.339959
-1.054559 -0.793539 3.168756 13.000000 23 359.339961
-1.047283 -0.788344 2.468536 33.000000 21 359.339964
-1.036970 -0.780578 1.978895 37.000000 19 359.339966
-1.028623 -0.774292 1.617537 38.000000 17 359.339969
-0.157920 -0.102260 3.084243 96.000000 30 359.339977
-0.277325 -0.188995 3.082088 95.000000 29 359.339979
-0.603214 -0.442366 2.915527 75.000000 26 359.339982
-0.927065 -0.695331 3.205574 31.000000 24 359.339984
-1.055200 -0.791713 2.790269 27.000000 22 359.339987
-1.048452 -0.786930 2.214439 36.000000 20 359.339990
-1.033838 -0.775958 1.785817 39.000000 18 359.339992
-1.025710 -0.770134 1.468782 39.000000 16 359.339995
-1.025156 -0.773643 1.341888 39.000000 15 359.339952
-1.015425 -0.766296 1.107772 40.000000 13 359.339955
-1.009854 -0.761816 0.913968 40.000000 11 359.339957
-1.012651 -0.763922 0.750272 40.000000 9 359.339960
-1.007313 -0.759895 0.598116 40.000000 7 359.339963
-1.003805 -0.756974 0.459252 35.000000 5 359.339965
-1.015942 -0.765848 0.333021 16.000000 3 359.339968
-0.990165 -0.746146 0.204038 15.000000 1 359.339970
-1.020476 -0.767598 1.218069 40.000000 14 359.339978
-1.009904 -0.759642 1.003707 42.000000 12 359.339981
-1.010927 -0.760412 0.828674 44.000000 10 359.339983
-1.020078 -0.767292 0.677529 47.000000 8 359.339986
-1.012013 -0.760949 0.529581 39.000000 6 359.339988
-0.994789 -0.747727 0.390866 29.000000 4 359.339991
-0.993644 -0.746595 0.265344 10.000000 2 359.339993
-1.014434 -0.761938 0.144854 28.000000 0 359.339996
-0.036184 -0.018442 3.099155 97.000000 31 359.340007
-0.391984 -0.278636 3.057825 97.000000 28 359.340009
-0.492932 -0.349510 2.928607 68.000000 27 359.340012
-0.695363 -0.513734 2.809381 33.000000 25 359.340014
-1.057184 -0.790038 3.168756 13.000000 23 359.340017
-1.051810 -0.786301 2.472924 33.000000 21 359.340019
-1.041807 -0.778820 1.983027 38.000000 19 359.340022
-1.033753 -0.772796 1.621374 38.000000 17 359.340024
-0.158276 -0.101709 3.084243 97.000000 30 359.340032
-0.277983 -0.188026 3.082088 95.000000 29 359.340035
-0.604755 -0.440257 2.915527 74.000000 26 359.340037
-0.926718 -0.690029 3.196188 37.000000 24 359.340040
-1.059566 -0.789511 2.794770 27.000000 22 359.340042
-1.053146 -0.785007 2.218705 36.000000 20 359.340045
-1.036405 -0.772526 1.785817 38.000000 18 359.340048
-1.031110 -0.768575 1.472457 39.000000 16 359.340050
-1.027716 -0.770239 1.341888 39.000000 15 359.340008
-1.017961 -0.762925 1.107772 40.000000 13 359.340010
-1.015722 -0.760970 0.916710 40.000000 11 359.340013
-1.015179 -0.760560 0.750272 40.000000 9 359.340016
-1.013670 -0.759153 0.599989 40.000000 7 359.340018
-1.010282 -0.756341 0.460661 35.000000 5 359.340021
-1.018476 -0.762475 0.333021 16.000000 3 359.340023
-0.996621 -0.745842 0.204484 15.000000 1 359.340026
-1.023016 -0.764210 1.218069 40.000000 14 359.340034
-1.015655 -0.758708 1.006650 40.000000 12 359.340036
-1.017030 -0.759459 0.831206 42.000000 10 359.340039
-1.022750 -0.763727 0.677529 47.000000 8 359.340041
-1.014663 -0.757412 0.529581 39.000000 6 359.340044
-0.997393 -0.744250 0.390866 29.000000 4 359.340046
-1.000213 -0.746083 0.266034 10.000000 2 359.340049
-1.017087 -0.758393 0.144854 28.000000 0 359.340051
-0.036249 -0.018316 3.099155 97.000000 31 359.340062
-0.392954 -0.277266 3.057825 97.000000 28 359.340065
-0.494149 -0.347787 2.928607 69.000000 27 359.340067
-0.701970 -0.514836 2.828467 33.000000 25 359.340070
-1.059936 -0.786343 3.168756 13.000000 23 359.340072
-1.056472 -0.784053 2.477313 33.000000 21 359.340075
-1.046779 -0.776856 1.987161 37.000000 19 359.340077
-1.039019 -0.771094 1.625211 38.000000 17 359.340080
-0.158630 -0.101155 3.084243 97.000000 30 359.340088
-0.278637 -0.187054 3.082088 95.000000 29 359.340090
-0.606288 -0.438144 2.915527 77.000000 26 359.340093
-0.927734 -0.685764 3.191496 39.000000 24 359.340095
-1.065817 -0.788398 2.803772 27.000000 22 359.340098
-1.057977 -0.782878 2.222971 36.000000 20 359.340101
-1.041519 -0.770696 1.789807 38.000000 18 359.340103
-1.036512 -0.766988 1.476132 39.000000 16 359.340106
-1.033259 -0.768775 1.345393 39.000000 15 359.340063
-1.023741 -0.761690 1.110910 40.000000 13 359.340066
-1.018372 -0.757420 0.916710 40.000000 11 359.340068
-1.021382 -0.759655 0.752590 42.000000 9 359.340071
-1.016314 -0.755610 0.599989 40.000000 7 359.340074
-1.012916 -0.752809 0.460661 35.000000 5 359.340076
-1.025074 -0.761846 0.333953 16.000000 3 359.340079
-0.999218 -0.742359 0.204484 15.000000 1 359.340081
-1.028677 -0.762859 1.221394 40.000000 14 359.340089
-1.018297 -0.755158 1.006650 40.000000 12 359.340092
-1.019675 -0.755904 0.831206 42.000000 10 359.340094
-1.029056 -0.762855 0.679627 45.000000 8 359.340097
-1.017300 -0.753866 0.529581 39.000000 6 359.340099
-1.003891 -0.743657 0.392039 29.000000 4 359.340102
-1.002812 -0.742587 0.266034 10.000000 2 359.340104
-1.019728 -0.754838 0.144854 29.000000 0 359.340107
-0.036312 -0.018189 3.099155 97.000000 31 359.340118
-0.393919 -0.275892 3.057825 97.000000 28 359.340120
-0.495360 -0.346060 2.928607 68.000000 27 359.340123
-0.711008 -0.517656 2.857098 33.000000 25 359.340125
-1.064247 -0.783796 3.173359 14.000000 23 359.340128
-1.061132 -0.781781 2.481702 33.000000 21 359.340130
-1.054016 -0.776535 1.995426 37.000000 19 359.340133
-1.044285 -0.769364 1.629048 38.000000 17 359.340136
-0.158982 -0.100601 3.084243 97.000000 30 359.340143
-0.279288 -0.186080 3.082088 95.000000 29 359.340146
-0.607813 -0.436025 2.915527 77.000000 26 359.340148
-0.928731 -0.681501 3.186803 39.000000 24 359.340151
-1.070318 -0.785962 2.808273 26.000000 22 359.340154
-1.062805 -0.780724 2.227237 36.000000 20 359.340156
-1.046631 -0.768840 1.793796 38.000000 18 359.340159
-1.041915 -0.765372 1.479807 39.000000 16 359.340161
-1.038805 -0.767283 1.348898 39.000000 15 359.340119
-1.029525 -0.760425 1.114048 40.000000 13 359.340121
-1.024373 -0.756344 0.919451 40.000000 11 359.340124
-1.027592 -0.758717 0.754908 42.000000 9 359.340127
-1.022675 -0.754811 0.601862 39.000000 7 359.340129
-1.019398 -0.752117 0.462070 35.000000 5 359.340132
-1.027727 -0.758263 0.333953 16.000000 3 359.340134
-1.005811 -0.741822 0.204930 15.000000 1 359.340137
-1.031333 -0.759263 1.221394 40.000000 14 359.340145
-1.024182 -0.753996 1.009593 40.000000 12 359.340147
-1.025779 -0.754895 0.833738 44.000000 10 359.340150
-1.031712 -0.759258 0.679627 45.000000 8 359.340152
-1.023730 -0.753108 0.531224 39.000000 6 359.340155
-1.006480 -0.740148 0.392039 29.000000 4 359.340157
-1.009388 -0.742015 0.266724 10.000000 2 359.340160
-1.026383 -0.754232 0.145056 29.000000 0 359.340162
-0.036375 -0.018062 3.099155 96.000000 31 359.340173
-0.394880 -0.274516 3.057825 97.000000 28 359.340176
-0.496565 -0.344329 2.928607 68.000000 27 359.340178
-0.720074 -0.520419 2.885728 33.000000 25 359.340181
-1.066977 -0.780077 3.173359 16.000000 23 359.340183
-1.065788 -0.779487 2.486090 33.000000 21 359.340186
-1.058991 -0.774513 1.999559 37.000000 19 359.340188
-1.049552 -0.767606 1.632885 39.000000 17 359.340191
-0.159332 -0.100045 3.084243 96.000000 30 359.340199
-0.279936 -0.185104 3.082088 95.000000 29 359.340201
-0.609332 -0.433900 2.915527 77.000000 26 359.340204
-0.931104 -0.678255 3.186803 39.000000 24 359.340206
-1.074815 -0.783503 2.812774 26.000000 22 359.340209
-1.067631 -0.778546 2.231503 36.000000 20 359.340212
-1.049309 -0.765182 1.793796 38.000000 18 359.340214
-1.044580 -0.761731 1.479807 39.000000 16 359.340217
-1.041477 -0.763652 1.348898 39.000000 15 359.340174
-1.032173 -0.756827 1.114048 40.000000 13 359.340177
-1.027007 -0.752763 0.919451 40.000000 11 359.340180
-1.030234 -0.755125 0.754908 42.000000 9 359.340182
-1.025304 -0.751237 0.601862 40.000000 7 359.340185
-1.022017 -0.748554 0.462070 35.000000 5 359.340187
-1.034331 -0.757573 0.334886 16.000000 3 359.340190
-1.008394 -0.738307 0.204930 15.000000 1 359.340192
-1.036992 -0.757862 1.224718 40.000000 14 359.340200
-1.026808 -0.750416 1.009593 42.000000 12 359.340203
-1.028408 -0.751310 0.833738 44.000000 10 359.340205
-1.038021 -0.758329 0.681725 45.000000 8 359.340208
-1.026352 -0.749530 0.531224 39.000000 6 359.340210
-1.012984 -0.739496 0.393211 30.000000 4 359.340213
-1.011972 -0.738487 0.266724 10.000000 2 359.340215
-1.029009 -0.750645 0.145056 29.000000 0 359.340218
-0.036438 -0.017935 3.099155 96.000000 31 359.340229
-0.395836 -0.273136 3.057825 97.000000 28 359.340231
-0.497764 -0.342593 2.928607 69.000000 27 359.340234
-0.729168 -0.523126 2.914358 34.000000 25 359.340236
-1.069693 -0.776348 3.173359 17.000000 23 359.340239
-1.070441 -0.777169 2.490479 33.000000 21 359.340241
-1.063965 -0.772465 2.003692 37.000000 19 359.340244
-1.054819 -0.765821 1.636722 38.000000 17 359.340247
-0.159680 -0.099489 3.084243 97.000000 30 359.340254
-0.280581 -0.184126 3.082088 95.000000 29 359.340257
-0.610843 -0.431771 2.915527 77.000000 26 359.340259
-0.933466 -0.675000 3.186803 39.000000 24 359.340262
-1.079307 -0.781024 2.817275 26.000000 22 359.340265
-1.072455 -0.776344 2.235769 36.000000 20 359.340267
-1.054415 -0.763282 1.797786 38.000000 18 359.340270
-1.049979 -0.760068 1.483482 39.000000 16 359.340272
-1.047020 -0.762111 1.352402 39.000000 15 359.340230
-1.037956 -0.755510 1.117185 39.000000 13 359.340232
-1.029628 -0.749174 0.919451 40.000000 11 359.340235
-1.036446 -0.754131 0.757226 40.000000 9 359.340238
-1.027920 -0.747653 0.601862 40.000000 7 359.340240
-1.028503 -0.747803 0.463479 35.000000 5 359.340243
-1.036969 -0.753958 0.334886 17.000000 3 359.340245
-1.014994 -0.737710 0.205376 15.000000 1 359.340248
-1.042654 -0.756431 1.228043 40.000000 14 359.340256
-1.032693 -0.749201 1.012536 42.000000 12 359.340258
-1.034514 -0.750247 0.836271 45.000000 10 359.340261
-1.040662 -0.754702 0.681725 45.000000 8 359.340263
-1.032786 -0.748715 0.532867 39.000000 6 359.340266
-1.015559 -0.735956 0.393211 30.000000 4 359.340268
-1.018554 -0.737855 0.267414 10.000000 2 359.340271
-1.031623 -0.747048 0.145056 29.000000 0 359.340274
-0.036501 -0.017808 3.099155 97.000000 31 359.340284
-0.396787 -0.271752 3.057825 97.000000 28 359.340287
-0.498957 -0.340854 2.928607 68.000000 27 359.340289
-0.735856 -0.524042 2.933445 34.000000 25 359.340292
-1.070811 -0.771467 3.168756 26.000000 23 359.340294
-1.075091 -0.774829 2.494868 32.000000 21 359.340297
-1.066655 -0.768746 2.003692 37.000000 19 359.340300
-1.060087 -0.764009 1.640559 39.000000 17 359.340302
-0.160027 -0.098931 3.084243 97.000000 30 359.340310
-0.281222 -0.183145 3.082088 96.000000 29 359.340312
-0.612346 -0.429636 2.915527 77.000000 26 359.340315
-0.935816 -0.671738 3.186803 39.000000 24 359.340318
-1.085565 -0.779792 2.826276 26.000000 22 359.340320
-1.079394 -0.775639 2.244301 36.000000 20 359.340323
-1.059520 -0.761355 1.801775 38.000000 18 359.340325
-1.052626 -0.756398 1.483482 39.000000 16 359.340328
-1.052564 -0.760540 1.355907 39.000000 15 359.340285
-1.040587 -0.751882 1.117185 39.000000 13 359.340288
-1.035627 -0.748024 0.922193 40.000000 11 359.340291
-1.039072 -0.750509 0.757226 42.000000 9 359.340293
-1.034282 -0.746774 0.603735 40.000000 7 359.340296
-1.031108 -0.744209 0.463479 36.000000 5 359.340298
-1.039594 -0.750334 0.334886 17.000000 3 359.340301
-1.021601 -0.737076 0.205822 15.000000 1 359.340303
-1.045288 -0.752786 1.228043 40.000000 14 359.340311
-1.038582 -0.747953 1.015479 40.000000 12 359.340314
-1.037127 -0.746631 0.836271 44.000000 10 359.340316
-1.046973 -0.753716 0.683823 45.000000 8 359.340319
-1.035393 -0.745105 0.532867 39.000000 6 359.340321
-1.022067 -0.735245 0.394383 30.000000 4 359.340324
-1.021123 -0.734295 0.267414 10.000000 2 359.340326
-1.034225 -0.743443 0.145056 29.000000 0 359.340329
-0.036563 -0.017681 3.099155 97.000000 31 359.340340
-0.397733 -0.270366 3.057825 97.000000 28 359.340342
-0.499300 -0.338539 2.923711 68.000000 27 359.340345
-0.752317 -0.531814 2.990706 40.000000 25 359.340347
-1.071909 -0.766588 3.164154 30.000000 23 359.340350
-1.079737 -0.772465 2.499256 32.000000 21 359.340352
-1.071621 -0.766655 2.007825 37.000000 19 359.340355
-1.065355 -0.762169 1.644396 38.000000 17 359.340358
-0.160371 -0.098372 3.084243 96.000000 30 359.340365
-0.281859 -0.182163 3.082088 96.000000 29 359.340368
-0.613842 -0.427496 2.915527 77.000000 26 359.340370
-0.938155 -0.668467 3.186803 39.000000 24 359.340373
-1.090053 -0.777262 2.830777 26.000000 22 359.340376
-1.084218 -0.773381 2.248567 36.000000 20 359.340378
-1.064625 -0.759402 1.805765 38.000000 18 359.340381
-1.058020 -0.754688 1.487157 39.000000 16 359.340383
-1.058110 -0.758940 1.359411 39.000000 15 359.340341
-1.046368 -0.750514 1.120323 39.000000 13 359.340344
-1.038232 -0.744404 0.922193 40.000000 11 359.340346
-1.041685 -0.746877 0.757226 40.000000 9 359.340349
-1.036882 -0.743159 0.603735 40.000000 7 359.340351
-1.037599 -0.743399 0.464888 35.000000 5 359.340354
-1.042207 -0.746701 0.334886 17.000000 3 359.340356
-1.028217 -0.736406 0.206269 15.000000 1 359.340359
-1.050948 -0.751305 1.231368 40.000000 14 359.340367
-1.044474 -0.746674 1.018422 40.000000 12 359.340369
-1.043235 -0.745513 0.838803 42.000000 10 359.340372
-1.049598 -0.750057 0.683823 45.000000 8 359.340374
-1.041830 -0.744231 0.534510 39.000000 6 359.340377
-1.028583 -0.734497 0.395556 30.000000 4 359.340379
-1.027711 -0.733604 0.268104 11.000000 2 359.340382
-1.040880 -0.742730 0.145257 29.000000 0 359.340385
-0.036624 -0.017553 3.099155 97.000000 31 359.340395
-0.398674 -0.268976 3.057825 97.000000 28 359.340398
-0.500479 -0.336794 2.923711 69.000000 27 359.340400
-0.767618 -0.538620 3.043195 66.000000 25 359.340403
-1.072985 -0.761711 3.159551 35.000000 23 359.340405
-1.084381 -0.770079 2.503645 33.000000 21 359.340408
-1.076585 -0.764539 2.011958 37.000000 19 359.340411
-1.070623 -0.760302 1.648233 39.000000 17 359.340413
-0.160713 -0.097811 3.084243 96.000000 30 359.340421
-0.282493 -0.181178 3.082088 96.000000 29 359.340423
-0.615330 -0.425351 2.915527 77.000000 26 359.340426
-0.939074 -0.664192 3.182110 39.000000 24 359.340429
-1.094537 -0.774711 2.835278 26.000000 22 359.340431
-1.089040 -0.771099 2.252833 36.000000 20 359.340434
-1.069729 -0.757423 1.809754 38.000000 18 359.340436
-1.060647 -0.750990 1.487157 39.000000 16 359.340439
-1.063658 -0.757310 1.362916 39.000000 15 359.340396
-1.052153 -0.749115 1.123461 39.000000 13 359.340399
-1.044231 -0.743200 0.924934 40.000000 11 359.340402
-1.047895 -0.745805 0.759544 40.000000 9 359.340404
-1.043248 -0.742223 0.605608 40.000000 7 359.340407
-1.040187 -0.739772 0.464888 35.000000 5 359.340409
-1.044807 -0.743058 0.334886 17.000000 3 359.340412
-1.030781 -0.732812 0.206269 15.000000 1 359.340414
-1.056609 -0.749793 1.234693 40.000000 14 359.340422
-1.047075 -0.743024 1.018422 40.000000 12 359.340425
-1.045830 -0.741867 0.838803 42.000000 10 359.340427
-1.055911 -0.749014 0.685921 47.000000 8 359.340430
-1.044422 -0.740590 0.534510 39.000000 6 359.340432
-1.035106 -0.733713 0.396728 30.000000 4 359.340435
-1.030265 -0.730012 0.268104 11.000000 2 359.340438
-1.043466 -0.739092 0.145257 29.000000 0 359.340440
-0.036685 -0.017425 3.099155 96.000000 31 359.340451
-0.399611 -0.267582 3.057825 97.000000 28 359.340453
-0.501652 -0.335045 2.923711 69.000000 27 359.340456
-0.781751 -0.544472 3.090912 74.000000 25 359.340458
-1.075637 -0.757961 3.159551 36.000000 23 359.340461
-1.089020 -0.767669 2.508034 33.000000 21 359.340464
-1.081547 -0.762398 2.016091 37.000000 19 359.340466
-1.075891 -0.758407 1.652070 39.000000 17 359.340469
-0.161054 -0.097250 3.084243 96.000000 30 359.340476
-0.282673 -0.179905 3.077116 95.000000 29 359.340479
-0.616812 -0.423200 2.915527 77.000000 26 359.340482
-0.941387 -0.660910 3.182110 39.000000 24 359.340484
-1.099017 -0.772137 2.839779 26.000000 22 359.340487
-1.093858 -0.768792 2.257098 36.000000 20 359.340489
-1.072367 -0.753684 1.809754 38.000000 18 359.340492
-1.066036 -0.749232 1.490833 39.000000 16 359.340494
-1.066295 -0.753592 1.362916 39.000000 15 359.340452
-1.054761 -0.745438 1.123461 39.000000 13 359.340455
-1.050234 -0.741963 0.927676 40.000000 11 359.340457
-1.050492 -0.742143 0.759544 40.000000 9 359.340460
-1.049619 -0.741251 0.607481 40.000000 7 359.340462
-1.046683 -0.738904 0.466298 36.000000 5 359.340465
-1.047395 -0.739406 0.334886 18.000000 3 359.340467
-1.037402 -0.732081 0.206715 15.000000 1 359.340470
-1.062273 -0.748250 1.238018 40.000000 14 359.340478
-1.052966 -0.741692 1.021366 40.000000 12 359.340480
-1.051939 -0.740694 0.841336 42.000000 10 359.340483
-1.058519 -0.745324 0.685921 43.000000 8 359.340485
