# .PCD v.7 - Point Cloud Data file format
VERSION .7
FIELDS x y z intensity ring timestamp
SIZE 4 4 4 4 2 8
TYPE F F F F U D
COUNT 1 1 1 1 1 1
WIDTH 924
HEIGHT 1
VIEWPOINT 0 0 0 1 0 0 0
POINTS 924
DATA ascii
0.036929 -0.015719 3.044158 96.000000 31 359.703325
0.464382 -0.122031 3.052886 96.000000 28 359.703328
0.612787 -0.161831 3.070568 82.000000 27 359.703330
0.927122 -0.225557 3.095684 89.000000 25 359.703333
1.251747 -0.297264 3.090513 91.000000 23 359.703335
1.559801 -0.370143 3.003952 25.000000 21 359.703338
1.468204 -0.348409 2.288866 33.000000 19 359.703340
1.430487 -0.339461 1.836243 33.000000 17 359.703343
0.177042 -0.055482 3.039319 96.000000 30 359.703351
0.320459 -0.092223 3.062202 95.000000 29 359.703353
0.764614 -0.191722 3.070381 87.000000 26 359.703356
1.086747 -0.260079 3.092948 86.000000 24 359.703358
1.427095 -0.341016 3.096326 90.000000 22 359.703361
1.510988 -0.360791 2.611171 29.000000 20 359.703364
1.424397 -0.340117 2.013219 35.000000 18 359.703366
1.422341 -0.339629 1.663565 37.000000 16 359.703369
1.406164 -0.331877 1.499593 37.000000 15 359.703326
1.370714 -0.323513 1.217594 37.000000 13 359.703329
1.284004 -0.303284 0.949607 29.000000 11 359.703332
1.225886 -0.289559 0.745636 4.000000 9 359.703334
1.241485 -0.293472 0.603735 40.000000 7 359.703337
1.218794 -0.288333 0.457842 17.000000 5 359.703339
1.238092 -0.292898 0.333021 29.000000 3 359.703342
1.240392 -0.293671 0.207161 22.000000 1 359.703344
1.380393 -0.328084 1.344413 38.000000 14 359.703352
1.343502 -0.319319 1.089058 40.000000 12 359.703355
1.268404 -0.301703 0.851465 40.000000 10 359.703357
1.210885 -0.288024 0.662842 6.000000 8 359.703360
1.227168 -0.292124 0.527939 42.000000 6 359.703362
1.257872 -0.299665 0.402589 38.000000 4 359.703365
1.252341 -0.298578 0.271553 20.000000 2 359.703367
1.219490 -0.290971 0.144250 36.000000 0 359.703370
0.036874 -0.015848 3.044158 96.000000 31 359.703381
0.463953 -0.123651 3.052886 96.000000 28 359.703383
0.612218 -0.163969 3.070568 81.000000 27 359.703386
0.926329 -0.228792 3.095684 87.000000 25 359.703388
1.250702 -0.301631 3.090513 91.000000 23 359.703391
1.558499 -0.375585 3.003952 25.000000 21 359.703393
1.464243 -0.352872 2.284733 33.000000 19 359.703396
1.429293 -0.344452 1.836243 33.000000 17 359.703399
0.176847 -0.056100 3.039319 96.000000 30 359.703406
0.320135 -0.093341 3.062202 95.000000 29 359.703409
0.763940 -0.194390 3.070381 87.000000 26 359.703411
1.085832 -0.263871 3.092948 86.000000 24 359.703414
1.425896 -0.345996 3.096326 90.000000 22 359.703417
1.509720 -0.366063 2.611171 29.000000 20 359.703419
1.420272 -0.344377 2.009229 35.000000 18 359.703422
1.417852 -0.343792 1.659890 37.000000 16 359.703424
1.404997 -0.336783 1.499593 37.000000 15 359.703382
1.365790 -0.327388 1.214457 38.000000 13 359.703384
1.282938 -0.307764 0.949607 29.000000 11 359.703387
1.229175 -0.294869 0.747954 4.000000 9 359.703390
1.240453 -0.297804 0.603735 40.000000 7 359.703392
1.217780 -0.292585 0.457842 17.000000 5 359.703395
1.232286 -0.296071 0.332088 29.000000 3 359.703397
1.239360 -0.297999 0.207161 22.000000 1 359.703400
1.375609 -0.332025 1.341088 38.000000 14 359.703408
1.342379 -0.324006 1.089058 39.000000 12 359.703410
1.267343 -0.306129 0.851465 40.000000 10 359.703413
1.209873 -0.292249 0.662842 8.000000 8 359.703415
1.221550 -0.295296 0.526296 42.000000 6 359.703418
1.256818 -0.304054 0.402589 38.000000 4 359.703420
1.251291 -0.302948 0.271553 20.000000 2 359.703423
1.218467 -0.295226 0.144250 36.000000 0 359.703426
0.036819 -0.015976 3.044158 96.000000 31 359.703436
0.463519 -0.125270 3.052886 96.000000 28 359.703439
0.611642 -0.166105 3.070568 86.000000 27 359.703441
0.925525 -0.232024 3.095684 85.000000 25 359.703444
1.249641 -0.305995 3.090513 91.000000 23 359.703446
1.554852 -0.380454 2.999564 24.000000 21 359.703449
1.463003 -0.357981 2.284733 33.000000 19 359.703452
1.428082 -0.349439 1.836243 33.000000 17 359.703454
0.176650 -0.056717 3.039319 96.000000 30 359.703462
0.319807 -0.094458 3.062202 95.000000 29 359.703464
0.763257 -0.197056 3.070381 87.000000 26 359.703467
1.084905 -0.267659 3.092948 88.000000 24 359.703470
1.424680 -0.350971 3.096326 88.000000 22 359.703472
1.505900 -0.370708 2.606905 29.000000 20 359.703475
1.419061 -0.349332 2.009229 36.000000 18 359.703477
1.416643 -0.348740 1.659890 37.000000 16 359.703480
1.400347 -0.340842 1.496089 37.000000 15 359.703437
1.364639 -0.332153 1.214457 38.000000 13 359.703440
1.277793 -0.311251 0.946866 29.000000 11 359.703443
1.232443 -0.300207 0.750272 4.000000 9 359.703445
1.239406 -0.302132 0.603735 40.000000 7 359.703448
1.216752 -0.296834 0.457842 17.000000 5 359.703450
1.231245 -0.300370 0.332088 29.000000 3 359.703453
1.238312 -0.302323 0.207161 23.000000 1 359.703455
1.374442 -0.336824 1.341088 38.000000 14 359.703463
1.337314 -0.327728 1.086115 39.000000 12 359.703466
1.262079 -0.309524 0.848933 40.000000 10 359.703468
1.217661 -0.298633 0.667038 6.000000 8 359.703471
1.220512 -0.299558 0.526296 44.000000 6 359.703473
1.255749 -0.308439 0.402589 38.000000 4 359.703476
1.250226 -0.307314 0.271553 19.000000 2 359.703478
1.212578 -0.298284 0.144048 36.000000 0 359.703481
0.036763 -0.016105 3.044158 96.000000 31 359.703492
0.462330 -0.126681 3.047946 97.000000 28 359.703494
0.610077 -0.167968 3.065673 86.000000 27 359.703497
0.924709 -0.235253 3.095684 89.000000 25 359.703499
1.248565 -0.310355 3.090513 91.000000 23 359.703502
1.553514 -0.385879 2.999564 24.000000 21 359.703504
1.459013 -0.362407 2.280600 33.000000 19 359.703507
1.423742 -0.353649 1.832406 34.000000 17 359.703510
0.176451 -0.057333 3.039319 97.000000 30 359.703517
0.319475 -0.095574 3.062202 95.000000 29 359.703520
0.762564 -0.199719 3.070381 87.000000 26 359.703522
1.083964 -0.271445 3.092948 86.000000 24 359.703525
1.423446 -0.355942 3.096326 90.000000 22 359.703528
1.504597 -0.375962 2.606905 29.000000 20 359.703530
1.414909 -0.353553 2.005240 36.000000 18 359.703533
1.415417 -0.353682 1.659890 37.000000 16 359.703535
1.395687 -0.344873 1.492584 37.000000 15 359.703493
1.363472 -0.336915 1.214457 38.000000 13 359.703496
1.276699 -0.315709 0.946866 31.000000 11 359.703498
1.235688 -0.305570 0.752590 4.000000 9 359.703501
1.233844 -0.305343 0.601862 40.000000 7 359.703503
1.215708 -0.301080 0.457842 17.000000 5 359.703506
1.230189 -0.304666 0.332088 30.000000 3 359.703508
1.232415 -0.305446 0.206715 23.000000 1 359.703511
1.369634 -0.340719 1.337763 38.000000 14 359.703519
1.336162 -0.332394 1.086115 40.000000 12 359.703521
1.260991 -0.313928 0.848933 40.000000 10 359.703524
1.225419 -0.305074 0.671234 5.000000 8 359.703526
1.219459 -0.303817 0.526296 42.000000 6 359.703529
1.249949 -0.311645 0.401417 38.000000 4 359.703531
1.249146 -0.311676 0.271553 19.000000 2 359.703534
1.211529 -0.302515 0.144048 37.000000 0 359.703537
0.036706 -0.016233 3.044158 96.000000 31 359.703547
0.461885 -0.128294 3.047946 97.000000 28 359.703550
0.609487 -0.170097 3.065673 86.000000 27 359.703552
0.923883 -0.238479 3.095684 89.000000 25 359.703555
1.247474 -0.314712 3.090513 82.000000 23 359.703557
1.549835 -0.390714 2.995175 24.000000 21 359.703560
1.455010 -0.366810 2.276467 33.000000 19 359.703563
1.422499 -0.358616 1.832406 33.000000 17 359.703565
0.176524 -0.058041 3.044310 96.000000 30 359.703573
0.319140 -0.096689 3.062202 95.000000 29 359.703575
0.761862 -0.202379 3.070381 87.000000 26 359.703578
1.083010 -0.275227 3.092948 88.000000 24 359.703581
1.422195 -0.360909 3.096326 88.000000 22 359.703583
1.500748 -0.380570 2.602639 29.000000 20 359.703586
1.413666 -0.358490 2.005240 37.000000 18 359.703588
1.410888 -0.357788 1.656215 37.000000 16 359.703591
1.394475 -0.349742 1.492584 37.000000 15 359.703548
1.358511 -0.340725 1.211319 38.000000 13 359.703551
1.275589 -0.320164 0.946866 31.000000 11 359.703554
1.238911 -0.310960 0.754908 4.000000 9 359.703556
1.232770 -0.309648 0.601862 40.000000 7 359.703559
1.214650 -0.305322 0.457842 17.000000 5 359.703561
1.224354 -0.307761 0.331156 29.000000 3 359.703564
1.231342 -0.309746 0.206715 23.000000 1 359.703566
1.368436 -0.345497 1.337763 38.000000 14 359.703574
1.334993 -0.337056 1.086115 40.000000 12 359.703577
1.255708 -0.317271 0.846401 40.000000 10 359.703579
1.233147 -0.311574 0.675431 26.000000 8 359.703582
1.218391 -0.308071 0.526296 40.000000 6 359.703584
1.248853 -0.316006 0.401417 38.000000 4 359.703587
1.248050 -0.316034 0.271553 19.000000 2 359.703590
1.210466 -0.306742 0.144048 37.000000 0 359.703592
0.036649 -0.016361 3.044158 96.000000 31 359.703603
0.461434 -0.129906 3.047946 96.000000 28 359.703605
0.608889 -0.172223 3.065673 86.000000 27 359.703608
0.923045 -0.241703 3.095684 89.000000 25 359.703610
1.246368 -0.319064 3.090513 82.000000 23 359.703613
1.548461 -0.396121 2.995175 24.000000 21 359.703616
1.453721 -0.371887 2.276467 33.000000 19 359.703618
1.421238 -0.363580 1.832406 33.000000 17 359.703621
0.176321 -0.058657 3.044310 96.000000 30 359.703628
0.318800 -0.097802 3.062202 95.000000 29 359.703631
0.761151 -0.205037 3.070381 87.000000 26 359.703634
1.082042 -0.279005 3.092948 88.000000 24 359.703636
1.420926 -0.365871 3.096326 90.000000 22 359.703639
1.496884 -0.385157 2.598373 29.000000 20 359.703641
1.412407 -0.363422 2.005240 37.000000 18 359.703644
1.409630 -0.362710 1.656215 37.000000 16 359.703646
1.389789 -0.353728 1.489079 37.000000 15 359.703604
1.357314 -0.345465 1.211319 38.000000 13 359.703607
1.274464 -0.324615 0.946866 32.000000 11 359.703609
1.246404 -0.317470 0.759544 14.000000 9 359.703612
1.231682 -0.313949 0.601862 40.000000 7 359.703614
1.213576 -0.309560 0.457842 17.000000 5 359.703617
1.223272 -0.312033 0.331156 29.000000 3 359.703619
1.225428 -0.312811 0.206269 23.000000 1 359.703622
1.367222 -0.350272 1.337763 38.000000 14 359.703630
1.333809 -0.341714 1.086115 40.000000 12 359.703632
1.254593 -0.321653 0.846401 40.000000 10 359.703635
1.240845 -0.318131 0.679627 34.000000 8 359.703637
1.217308 -0.312323 0.526296 40.000000 6 359.703640
1.247743 -0.320363 0.401417 38.000000 4 359.703642
1.242143 -0.319157 0.270863 19.000000 2 359.703645
1.209388 -0.310965 0.144048 36.000000 0 359.703648
0.036592 -0.016489 3.044158 96.000000 31 359.703658
0.460978 -0.131516 3.047946 96.000000 28 359.703661
0.608285 -0.174348 3.065673 86.000000 27 359.703663
0.922195 -0.244923 3.095684 87.000000 25 359.703666
1.243356 -0.322922 3.085911 91.000000 23 359.703668
1.544750 -0.400922 2.990786 22.000000 21 359.703671
1.449690 -0.376252 2.272334 33.000000 19 359.703673
1.419961 -0.368538 1.832406 33.000000 17 359.703676
0.176115 -0.059272 3.044310 96.000000 30 359.703684
0.318457 -0.098914 3.062202 95.000000 29 359.703686
0.760431 -0.207693 3.070381 89.000000 26 359.703689
1.081062 -0.282781 3.092948 86.000000 24 359.703691
1.419640 -0.370829 3.096326 90.000000 22 359.703694
1.495531 -0.390380 2.598373 29.000000 20 359.703696
1.408213 -0.367589 2.001250 38.000000 18 359.703699
1.408355 -0.367629 1.656215 37.000000 16 359.703702
1.388546 -0.358577 1.489079 37.000000 15 359.703659
1.356099 -0.350201 1.211319 38.000000 13 359.703662
1.273323 -0.329061 0.946866 32.000000 11 359.703664
1.245288 -0.321819 0.759544 29.000000 9 359.703667
1.230578 -0.318247 0.601862 42.000000 7 359.703670
1.212488 -0.313794 0.457842 17.000000 5 359.703672
1.222176 -0.316301 0.331156 29.000000 3 359.703675
1.224328 -0.317086 0.206269 23.000000 1 359.703677
1.365991 -0.355042 1.337763 38.000000 14 359.703685
1.332608 -0.346368 1.086115 40.000000 12 359.703688
1.253462 -0.326030 0.846401 40.000000 10 359.703690
1.244119 -0.323602 0.681725 40.000000 8 359.703693
1.216211 -0.316570 0.526296 40.000000 6 359.703695
1.246617 -0.324717 0.401417 37.000000 4 359.703698
1.241021 -0.323491 0.270863 19.000000 2 359.703700
1.208295 -0.315185 0.144048 37.000000 0 359.703703
0.036534 -0.016617 3.044158 96.000000 31 359.703714
0.460516 -0.133124 3.047946 96.000000 28 359.703716
0.607672 -0.176470 3.065673 86.000000 27 359.703719
0.921335 -0.248141 3.095684 87.000000 25 359.703721
1.242221 -0.327260 3.085911 91.000000 23 359.703724
1.541025 -0.405702 2.986398 22.000000 21 359.703726
1.448368 -0.381310 2.272334 33.000000 19 359.703729
1.418666 -0.373493 1.832406 33.000000 17 359.703731
0.175907 -0.059886 3.044310 97.000000 30 359.703739
0.318110 -0.100025 3.062202 95.000000 29 359.703742
0.759701 -0.210346 3.070381 87.000000 26 359.703744
1.080068 -0.286553 3.092948 86.000000 24 359.703747
1.418337 -0.375782 3.096326 90.000000 22 359.703749
1.491638 -0.394930 2.594107 29.000000 20 359.703752
1.406921 -0.372502 2.001250 37.000000 18 359.703755
1.403786 -0.371675 1.652540 38.000000 16 359.703757
1.383836 -0.362518 1.485575 37.000000 15 359.703715
1.351103 -0.353946 1.208181 38.000000 13 359.703717
1.272166 -0.333504 0.946866 33.000000 11 359.703720
1.248443 -0.327287 0.761862 38.000000 9 359.703722
1.229460 -0.322540 0.601862 40.000000 7 359.703725
1.211386 -0.318024 0.457842 16.000000 5 359.703728
1.216313 -0.319318 0.330223 28.000000 3 359.703730
1.223214 -0.321358 0.206269 24.000000 1 359.703733
1.364743 -0.359808 1.337763 38.000000 14 359.703740
1.327482 -0.349987 1.083172 40.000000 12 359.703743
1.252317 -0.330403 0.846401 40.000000 10 359.703746
1.242982 -0.327943 0.681725 43.000000 8 359.703748
1.215098 -0.320813 0.526296 40.000000 6 359.703751
1.240776 -0.327825 0.400245 37.000000 4 359.703753
1.239885 -0.327821 0.270863 19.000000 2 359.703756
1.202357 -0.318123 0.143847 36.000000 0 359.703758
0.036476 -0.016744 3.044158 96.000000 31 359.703769
0.460048 -0.134731 3.047946 96.000000 28 359.703772
0.608029 -0.178878 3.070568 86.000000 27 359.703774
0.920463 -0.251356 3.095684 89.000000 25 359.703777
1.241071 -0.331594 3.085911 91.000000 23 359.703779
1.539599 -0.411079 2.986398 24.000000 21 359.703782
1.447028 -0.386364 2.272334 33.000000 19 359.703784
1.417353 -0.378443 1.832406 33.000000 17 359.703787
0.175697 -0.060500 3.044310 96.000000 30 359.703795
0.317759 -0.101135 3.062202 96.000000 29 359.703797
0.758962 -0.212997 3.070381 87.000000 26 359.703800
1.079061 -0.290321 3.092948 86.000000 24 359.703802
1.417017 -0.380730 3.096326 90.000000 22 359.703805
1.490250 -0.400134 2.594107 29.000000 20 359.703808
1.402702 -0.376629 1.997261 37.000000 18 359.703810
1.402480 -0.376573 1.652540 38.000000 16 359.703813
1.382562 -0.367347 1.485575 37.000000 15 359.703770
1.349859 -0.358660 1.208181 38.000000 13 359.703773
1.266953 -0.336868 0.944124 34.000000 11 359.703775
1.247293 -0.331643 0.761862 39.000000 9 359.703778
1.228327 -0.326830 0.601862 40.000000 7 359.703781
1.210268 -0.322251 0.457842 16.000000 5 359.703783
1.215191 -0.323562 0.330223 28.000000 3 359.703786
1.222085 -0.325626 0.206269 23.000000 1 359.703788
1.363479 -0.364570 1.337763 38.000000 14 359.703796
1.326252 -0.354619 1.083172 40.000000 12 359.703799
1.251156 -0.334773 0.846401 40.000000 10 359.703801
1.241830 -0.332280 0.681725 43.000000 8 359.703804
1.209409 -0.323831 0.524653 40.000000 6 359.703806
1.239624 -0.332154 0.400245 37.000000 4 359.703809
1.238733 -0.332147 0.270863 18.000000 2 359.703811
1.201240 -0.322318 0.143847 37.000000 0 359.703814
0.036417 -0.016871 3.044158 96.000000 31 359.703825
0.459575 -0.136336 3.047946 96.000000 28 359.703827
0.607401 -0.180999 3.070568 89.000000 27 359.703830
0.919580 -0.254567 3.095684 89.000000 25 359.703832
1.241792 -0.336435 3.090513 91.000000 23 359.703835
1.535842 -0.415824 2.982009 24.000000 21 359.703837
1.442955 -0.390677 2.268201 33.000000 19 359.703840
1.416023 -0.383388 1.832406 33.000000 17 359.703842
0.175484 -0.061113 3.044310 97.000000 30 359.703850
0.317404 -0.102244 3.062202 95.000000 29 359.703853
0.758214 -0.215645 3.070381 89.000000 26 359.703855
1.078041 -0.294086 3.092948 86.000000 24 359.703858
1.415679 -0.385674 3.096326 90.000000 22 359.703860
1.486328 -0.404649 2.589841 29.000000 20 359.703863
1.401379 -0.381523 1.997261 37.000000 18 359.703866
1.401157 -0.381466 1.652540 38.000000 16 359.703868
1.377828 -0.371243 1.482070 37.000000 15 359.703826
1.348599 -0.363370 1.208181 38.000000 13 359.703828
1.265770 -0.341289 0.944124 35.000000 11 359.703831
1.241850 -0.334842 0.759544 40.000000 9 359.703834
1.227178 -0.331115 0.601862 40.000000 7 359.703836
1.209136 -0.326474 0.457842 17.000000 5 359.703839
1.214054 -0.327802 0.330223 28.000000 3 359.703841
1.225748 -0.331189 0.206715 22.000000 1 359.703844
1.358594 -0.368350 1.334438 38.000000 14 359.703852
1.325006 -0.359246 1.083172 40.000000 12 359.703854
1.249979 -0.339138 0.846401 40.000000 10 359.703857
1.240662 -0.336613 0.681725 43.000000 8 359.703859
1.208271 -0.328051 0.524653 40.000000 6 359.703862
1.238457 -0.336479 0.400245 37.000000 4 359.703864
1.237566 -0.336468 0.270863 18.000000 2 359.703867
1.200107 -0.326509 0.143847 37.000000 0 359.703869
0.036358 -0.016998 3.044158 96.000000 31 359.703880
0.459096 -0.137939 3.047946 96.000000 28 359.703883
0.606766 -0.183118 3.070568 90.000000 27 359.703885
0.918686 -0.257775 3.095684 89.000000 25 359.703888
1.240610 -0.340768 3.090513 91.000000 23 359.703890
1.532071 -0.420549 2.977620 24.000000 21 359.703893
1.441582 -0.395711 2.268201 34.000000 19 359.703895
1.414677 -0.388328 1.832406 32.000000 17 359.703898
0.175270 -0.061725 3.044310 96.000000 30 359.703906
0.317045 -0.103351 3.062202 95.000000 29 359.703908
0.757457 -0.218290 3.070381 87.000000 26 359.703911
1.077008 -0.297847 3.092948 86.000000 24 359.703913
1.414324 -0.390614 3.096326 90.000000 22 359.703916
1.484906 -0.409835 2.589841 29.000000 20 359.703919
1.397133 -0.385611 1.993271 37.000000 18 359.703921
1.399817 -0.386355 1.652540 38.000000 16 359.703924
1.376524 -0.376050 1.482070 37.000000 15 359.703881
1.343567 -0.367049 1.205043 38.000000 13 359.703884
1.264571 -0.345705 0.944124 36.000000 11 359.703886
1.240674 -0.339174 0.759544 40.000000 9 359.703889
1.221543 -0.334174 0.599989 40.000000 7 359.703892
1.203362 -0.329426 0.456433 17.000000 5 359.703894
1.212902 -0.332037 0.330223 28.000000 3 359.703897
1.224585 -0.335465 0.206715 22.000000 1 359.703899
1.357300 -0.373090 1.334438 38.000000 14 359.703907
1.323744 -0.363869 1.083172 40.000000 12 359.703910
1.248788 -0.343499 0.846401 40.000000 10 359.703912
1.235104 -0.339738 0.679627 43.000000 8 359.703915
1.207119 -0.332267 0.524653 42.000000 6 359.703917
1.232589 -0.339509 0.399073 37.000000 4 359.703920
1.236384 -0.340786 0.270863 18.000000 2 359.703922
1.198960 -0.330696 0.143847 37.000000 0 359.703925
0.036299 -0.017125 3.044158 96.000000 31 359.703936
0.458612 -0.139541 3.047946 96.000000 28 359.703938
0.606123 -0.185235 3.070568 89.000000 27 359.703941
0.917780 -0.260981 3.095684 87.000000 25 359.703943
1.239413 -0.345096 3.090513 91.000000 23 359.703946
1.530594 -0.425894 2.977620 24.000000 21 359.703948
1.437481 -0.399987 2.264068 34.000000 19 359.703951
1.413312 -0.393264 1.832406 32.000000 17 359.703954
0.175054 -0.062336 3.044310 97.000000 30 359.703961
0.316682 -0.104457 3.062202 95.000000 29 359.703964
0.756690 -0.220933 3.070381 87.000000 26 359.703966
1.075962 -0.301605 3.092948 86.000000 24 359.703969
1.412952 -0.395548 3.096326 90.000000 22 359.703972
1.480955 -0.414313 2.585575 29.000000 20 359.703974
1.392876 -0.389673 1.989282 36.000000 18 359.703977
1.395195 -0.390325 1.648865 38.000000 16 359.703979
1.375203 -0.380853 1.482070 37.000000 15 359.703937
1.342278 -0.371737 1.205043 38.000000 13 359.703939
1.259327 -0.349000 0.941383 36.000000 11 359.703942
1.239482 -0.343503 0.759544 40.000000 9 359.703945
1.220369 -0.338436 0.599989 40.000000 7 359.703947
1.202205 -0.333624 0.456433 17.000000 5 359.703950
1.211736 -0.336269 0.330223 28.000000 3 359.703952
1.223406 -0.339738 0.206715 19.000000 1 359.703955
1.355989 -0.377826 1.334438 38.000000 14 359.703963
1.318573 -0.367403 1.080229 40.000000 12 359.703965
1.247581 -0.347856 0.846401 40.000000 10 359.703968
1.233910 -0.344047 0.679627 43.000000 8 359.703970
1.205952 -0.336478 0.524653 42.000000 6 359.703973
1.231397 -0.343809 0.399073 37.000000 4 359.703975
1.235187 -0.345100 0.270863 18.000000 2 359.703978
1.197799 -0.334879 0.143847 36.000000 0 359.703980
0.036239 -0.017252 3.044158 95.000000 31 359.703991
0.458865 -0.141370 3.052886 96.000000 28 359.703994
0.605472 -0.187350 3.070568 89.000000 27 359.703996
0.916864 -0.264183 3.095684 87.000000 25 359.703999
1.238201 -0.349421 3.090513 91.000000 23 359.704001
1.526792 -0.430584 2.973232 24.000000 21 359.704004
1.436076 -0.405002 2.264068 34.000000 19 359.704006
1.408846 -0.397325 1.828569 32.000000 17 359.704009
0.174835 -0.062947 3.044310 96.000000 30 359.704017
0.316316 -0.105562 3.062202 95.000000 29 359.704019
0.755914 -0.223573 3.070381 86.000000 26 359.704022
1.074903 -0.305359 3.092948 88.000000 24 359.704024
1.411563 -0.400478 3.096326 90.000000 22 359.704027
1.479500 -0.419480 2.585575 29.000000 20 359.704030
1.391507 -0.394533 1.989282 36.000000 18 359.704032
1.393824 -0.395193 1.648865 38.000000 16 359.704035
1.373865 -0.385651 1.482070 37.000000 15 359.703992
1.340972 -0.376420 1.205043 38.000000 13 359.703995
1.258101 -0.353394 0.941383 37.000000 11 359.703998
1.238276 -0.347828 0.759544 40.000000 9 359.704000
1.214718 -0.341439 0.598116 40.000000 7 359.704003
1.196415 -0.336520 0.455024 16.000000 5 359.704005
1.210555 -0.340497 0.330223 28.000000 3 359.704008
1.217419 -0.342657 0.206269 19.000000 1 359.704010
1.354662 -0.382557 1.334438 38.000000 14 359.704018
1.317282 -0.372003 1.080229 40.000000 12 359.704021
1.242211 -0.351037 0.843868 40.000000 10 359.704023
1.232702 -0.348352 0.679627 43.000000 8 359.704026
1.200226 -0.339401 0.523011 40.000000 6 359.704028
1.230189 -0.348106 0.399073 36.000000 4 359.704031
1.233975 -0.349410 0.270863 18.000000 2 359.704033
1.191816 -0.337697 0.143645 36.000000 0 359.704036
0.036178 -0.017378 3.044158 95.000000 31 359.704047
0.458368 -0.142971 3.052886 96.000000 28 359.704049
0.604815 -0.189462 3.070568 87.000000 27 359.704052
0.915936 -0.267382 3.095684 87.000000 25 359.704054
1.235095 -0.353204 3.085911 91.000000 23 359.704057
1.522976 -0.435252 2.968843 24.000000 21 359.704059
1.431948 -0.409239 2.259935 34.000000 19 359.704062
1.407450 -0.402240 1.828569 31.000000 17 359.704065
0.174614 -0.063557 3.044310 96.000000 30 359.704072
0.315945 -0.106665 3.062202 95.000000 29 359.704075
0.755130 -0.226210 3.070381 87.000000 26 359.704077
1.073830 -0.309109 3.092948 88.000000 24 359.704080
1.410156 -0.405403 3.096326 90.000000 22 359.704083
1.475520 -0.423921 2.581310 29.000000 20 359.704085
1.387225 -0.398556 1.985292 36.000000 18 359.704088
1.389178 -0.399120 1.645189 38.000000 16 359.704090
1.372510 -0.390444 1.482070 37.000000 15 359.704048
1.335905 -0.380033 1.201905 38.000000 13 359.704050
1.252838 -0.356639 0.938642 38.000000 11 359.704053
1.232793 -0.350935 0.757226 40.000000 9 359.704056
1.213519 -0.345677 0.598116 42.000000 7 359.704058
1.195233 -0.340694 0.455024 16.000000 5 359.704061
1.209359 -0.344720 0.330223 27.000000 3 359.704063
1.216215 -0.346904 0.206269 22.000000 1 359.704066
1.349728 -0.386256 1.331114 38.000000 14 359.704074
1.315975 -0.376599 1.080229 40.000000 12 359.704076
1.240978 -0.355371 0.843868 40.000000 10 359.704079
1.231478 -0.352653 0.679627 45.000000 8 359.704081
1.199034 -0.343588 0.523011 42.000000 6 359.704084
1.224294 -0.351058 0.397900 36.000000 4 359.704086
1.232747 -0.353715 0.270863 18.000000 2 359.704089
1.190629 -0.341855 0.143645 36.000000 0 359.704092
0.036117 -0.017504 3.044158 96.000000 31 359.704102
0.457867 -0.144570 3.052886 90.000000 28 359.704105
0.604150 -0.191572 3.070568 87.000000 27 359.704107
0.914997 -0.270577 3.095684 87.000000 25 359.704110
1.233855 -0.357513 3.085911 91.000000 23 359.704112
1.521448 -0.440566 2.968843 24.000000 21 359.704115
1.430511 -0.414235 2.259935 34.000000 19 359.704118
1.406037 -0.407151 1.828569 31.000000 17 359.704120
0.174391 -0.064166 3.044310 96.000000 30 359.704128
0.315571 -0.107768 3.062202 95.000000 29 359.704130
0.754335 -0.228845 3.070381 89.000000 26 359.704133
1.071088 -0.312372 3.088255 86.000000 24 359.704136
1.408733 -0.410323 3.096326 90.000000 22 359.704138
1.471527 -0.428340 2.577044 30.000000 20 359.704141
1.385825 -0.403396 1.985292 36.000000 18 359.704143
1.387776 -0.403966 1.645189 39.000000 16 359.704146
1.371139 -0.395233 1.482070 37.000000 15 359.704103
1.334571 -0.384694 1.201905 38.000000 13 359.704106
1.251586 -0.361010 0.938642 38.000000 11 359.704109
1.231560 -0.355236 0.757226 40.000000 9 359.704111
1.212304 -0.349911 0.598116 40.000000 7 359.704114
1.194036 -0.344864 0.455024 16.000000 5 359.704116
1.208148 -0.348940 0.330223 27.000000 3 359.704119
1.210213 -0.349765 0.205822 22.000000 1 359.704121
1.348372 -0.390965 1.331114 38.000000 14 359.704129
1.314653 -0.381190 1.080229 40.000000 12 359.704132
1.239730 -0.359700 0.843868 40.000000 10 359.704134
1.225881 -0.355685 0.677529 45.000000 8 359.704137
1.197827 -0.347772 0.523011 40.000000 6 359.704139
1.223061 -0.355329 0.397900 36.000000 4 359.704142
1.231505 -0.358016 0.270863 18.000000 2 359.704144
1.184632 -0.344613 0.143444 37.000000 0 359.704147
0.036056 -0.017630 3.044158 96.000000 31 359.704158
0.457359 -0.146168 3.052886 91.000000 28 359.704160
0.603477 -0.193680 3.070568 87.000000 27 359.704163
0.914047 -0.273769 3.095684 89.000000 25 359.704165
1.232599 -0.361817 3.085911 91.000000 23 359.704168
1.517602 -0.445200 2.964454 24.000000 21 359.704170
1.429056 -0.419226 2.259935 34.000000 19 359.704173
1.401531 -0.411154 1.824732 30.000000 17 359.704176
0.174166 -0.064774 3.044310 96.000000 30 359.704183
0.315697 -0.109044 3.067174 95.000000 29 359.704186
0.753532 -0.231476 3.070381 87.000000 26 359.704188
1.069991 -0.316109 3.088255 88.000000 24 359.704191
1.407292 -0.415238 3.096326 91.000000 22 359.704194
1.470023 -0.433474 2.577044 30.000000 20 359.704196
1.384408 -0.408231 1.985292 36.000000 18 359.704199
1.383106 -0.407849 1.641514 39.000000 16 359.704201
1.366328 -0.399017 1.478566 37.000000 15 359.704159
1.333220 -0.389350 1.201905 38.000000 13 359.704162
1.250318 -0.365376 0.938642 39.000000 11 359.704164
1.230313 -0.359533 0.757226 40.000000 9 359.704167
1.211076 -0.354141 0.598116 40.000000 7 359.704169
1.192825 -0.349030 0.455024 17.000000 5 359.704172
1.206923 -0.353155 0.330223 27.000000 3 359.704174
1.208985 -0.353987 0.205822 22.000000 1 359.704177
1.346999 -0.395669 1.331114 38.000000 14 359.704185
1.313314 -0.385777 1.080229 40.000000 12 359.704187
1.238467 -0.364025 0.843868 40.000000 10 359.704190
1.224632 -0.359962 0.677529 45.000000 8 359.704192
1.196606 -0.351951 0.523011 40.000000 6 359.704195
1.221813 -0.359597 0.397900 36.000000 4 359.704197
1.230248 -0.362312 0.270863 17.000000 2 359.704200
1.183422 -0.348746 0.143444 37.000000 0 359.704203
0.035994 -0.017756 3.044158 96.000000 31 359.704213
0.456107 -0.147523 3.047946 96.000000 28 359.704216
0.602798 -0.195785 3.070568 86.000000 27 359.704218
0.913086 -0.276958 3.095684 89.000000 25 359.704221
1.231329 -0.366118 3.085911 91.000000 23 359.704223
1.513742 -0.449812 2.960066 25.000000 21 359.704226
1.427584 -0.424212 2.259935 34.000000 19 359.704229
1.400088 -0.416043 1.824732 29.000000 17 359.704231
0.173680 -0.065248 3.039319 96.000000 30 359.704239
0.315334 -0.110090 3.067174 95.000000 29 359.704241
0.752760 -0.233974 3.070381 87.000000 26 359.704244
1.068937 -0.319656 3.088255 86.000000 24 359.704247
1.405834 -0.420147 3.096326 91.000000 22 359.704249
1.466002 -0.437857 2.572778 30.000000 20 359.704252
1.382975 -0.413061 1.985292 36.000000 18 359.704254
1.381746 -0.412434 1.641514 39.000000 16 359.704257
1.364927 -0.403784 1.478566 37.000000 15 359.704214
1.331853 -0.394002 1.201905 38.000000 13 359.704217
1.249035 -0.369738 0.938642 39.000000 11 359.704220
1.229050 -0.363825 0.757226 40.000000 9 359.704222
1.205449 -0.356839 0.596243 40.000000 7 359.704225
1.191661 -0.352983 0.455024 17.000000 5 359.704227
1.200973 -0.355970 0.329290 27.000000 3 359.704230
1.207742 -0.358205 0.205822 22.000000 1 359.704232
1.342030 -0.399304 1.327789 38.000000 14 359.704240
1.308085 -0.389206 1.077286 40.000000 12 359.704243
1.233120 -0.366901 0.841336 40.000000 10 359.704245
1.223432 -0.364021 0.677529 45.000000 8 359.704248
1.195432 -0.355917 0.523011 40.000000 6 359.704250
1.220614 -0.363646 0.397900 36.000000 4 359.704253
1.229040 -0.366390 0.270863 17.000000 2 359.704256
1.182259 -0.352669 0.143444 37.000000 0 359.704258
0.035935 -0.017875 3.044158 96.000000 31 359.704269
0.455615 -0.149035 3.047946 95.000000 28 359.704271
0.602145 -0.197783 3.070568 86.000000 27 359.704274
0.912162 -0.279985 3.095684 87.000000 25 359.704276
1.230108 -0.370199 3.085911 91.000000 23 359.704279
1.512242 -0.454829 2.960066 25.000000 21 359.704282
1.423475 -0.428133 2.255802 34.000000 19 359.704284
1.398700 -0.420684 1.824732 29.000000 17 359.704287
0.173451 -0.065854 3.039319 96.000000 30 359.704294
0.314948 -0.111190 3.067174 95.000000 29 359.704297
0.751939 -0.236600 3.070381 87.000000 26 359.704300
1.067815 -0.323385 3.088255 86.000000 24 359.704302
1.404433 -0.424807 3.096326 90.000000 22 359.704305
1.464542 -0.442716 2.572778 30.000000 20 359.704307
1.381598 -0.417644 1.985292 36.000000 18 359.704310
1.380298 -0.417254 1.641514 39.000000 16 359.704312
1.363580 -0.408308 1.478566 37.000000 15 359.704270
1.326810 -0.397299 1.198768 38.000000 13 359.704273
1.243796 -0.372678 0.935900 39.000000 11 359.704275
1.227837 -0.367899 0.757226 40.000000 9 359.704278
1.204196 -0.361044 0.596243 40.000000 7 359.704280
1.185827 -0.355762 0.453615 16.000000 5 359.704283
1.199786 -0.359950 0.329290 27.000000 3 359.704285
1.206547 -0.362208 0.205822 22.000000 1 359.704288
1.340699 -0.403752 1.327789 38.000000 14 359.704296
1.306788 -0.393542 1.077286 40.000000 12 359.704298
1.231832 -0.371203 0.841336 40.000000 10 359.704301
1.222154 -0.368289 0.677529 45.000000 8 359.704303
1.194182 -0.360087 0.523011 40.000000 6 359.704306
1.214684 -0.366501 0.396728 36.000000 4 359.704308
1.227753 -0.370678 0.270863 17.000000 2 359.704311
1.181020 -0.356793 0.143444 37.000000 0 359.704314
0.035873 -0.018000 3.044158 96.000000 31 359.704325
0.455092 -0.150625 3.047946 95.000000 28 359.704328
0.601451 -0.199884 3.070568 86.000000 27 359.704330
0.911179 -0.283167 3.095684 87.000000 25 359.704333
1.228808 -0.374491 3.085911 90.000000 23 359.704335
1.508353 -0.459407 2.955677 25.000000 21 359.704338
1.421971 -0.433099 2.255802 34.000000 19 359.704340
1.397223 -0.425564 1.824732 28.000000 17 359.704343
0.173220 -0.066459 3.039319 96.000000 30 359.704351
0.314558 -0.112289 3.067174 95.000000 29 359.704353
0.751108 -0.239223 3.070381 89.000000 26 359.704356
1.066679 -0.327111 3.088255 88.000000 24 359.704358
1.402941 -0.429707 3.096326 90.000000 22 359.704361
1.460494 -0.447062 2.568512 30.000000 20 359.704363
1.377249 -0.421582 1.981303 36.000000 18 359.704366
1.378833 -0.422070 1.641514 39.000000 16 359.704369
1.362147 -0.413065 1.478566 37.000000 15 359.704326
1.325415 -0.401928 1.198768 38.000000 13 359.704329
1.242488 -0.377018 0.935900 39.000000 11 359.704331
1.226546 -0.372183 0.757226 40.000000 9 359.704334
1.202929 -0.365246 0.596243 40.000000 7 359.704337
1.184578 -0.359900 0.453615 16.000000 5 359.704339
1.198522 -0.364136 0.329290 26.000000 3 359.704342
1.205276 -0.366418 0.205822 22.000000 1 359.704344
1.339281 -0.408429 1.327789 38.000000 14 359.704352
1.305406 -0.398101 1.077286 40.000000 12 359.704355
1.230529 -0.375501 0.841336 40.000000 10 359.704357
1.220860 -0.372553 0.677529 45.000000 8 359.704360
1.192918 -0.364254 0.523011 40.000000 6 359.704362
1.213397 -0.370739 0.396728 36.000000 4 359.704365
1.226452 -0.374961 0.270863 17.000000 2 359.704367
1.179768 -0.360914 0.143444 38.000000 0 359.704370
0.035809 -0.018126 3.044158 96.000000 31 359.704381
0.454564 -0.152212 3.047946 96.000000 28 359.704383
0.600749 -0.201982 3.070568 87.000000 27 359.704386
0.908761 -0.285898 3.090912 85.000000 25 359.704388
1.227494 -0.378778 3.085911 91.000000 23 359.704391
1.504451 -0.463963 2.951288 25.000000 21 359.704393
1.420451 -0.438060 2.255802 34.000000 19 359.704396
1.392666 -0.429494 1.820895 27.000000 17 359.704398
0.172987 -0.067063 3.039319 96.000000 30 359.704406
0.314164 -0.113386 3.067174 95.000000 29 359.704409
0.750269 -0.241844 3.070381 89.000000 26 359.704411
1.065531 -0.330832 3.088255 86.000000 24 359.704414
1.401433 -0.434601 3.096326 91.000000 22 359.704416
1.458924 -0.452157 2.568512 30.000000 20 359.704419
1.375769 -0.426387 1.981303 36.000000 18 359.704422
1.374113 -0.425877 1.637839 39.000000 16 359.704424
1.357288 -0.416770 1.475061 37.000000 15 359.704382
1.324004 -0.406553 1.198768 38.000000 13 359.704384
1.237167 -0.380124 0.933159 39.000000 11 359.704387
1.225239 -0.376462 0.757226 40.000000 9 359.704389
1.201646 -0.369442 0.596243 40.000000 7 359.704392
1.183314 -0.364032 0.453615 16.000000 5 359.704395
1.192549 -0.366873 0.328358 26.000000 3 359.704397
1.203989 -0.370623 0.205822 22.000000 1 359.704400
1.337847 -0.413102 1.327789 38.000000 14 359.704407
1.300146 -0.401463 1.074342 40.000000 12 359.704410
1.225092 -0.378521 0.838803 40.000000 10 359.704413
1.219553 -0.376812 0.677529 45.000000 8 359.704415
1.191639 -0.368416 0.523011 40.000000 6 359.704418
1.212096 -0.374972 0.396728 36.000000 4 359.704420
1.220405 -0.377776 0.270173 17.000000 2 359.704423
1.178501 -0.365030 0.143444 37.000000 0 359.704425
0.035746 -0.018250 3.044158 96.000000 31 359.704436
0.454030 -0.153798 3.047946 96.000000 28 359.704439
0.600041 -0.204078 3.070568 86.000000 27 359.704441
0.907757 -0.289068 3.090912 87.000000 25 359.704444
1.226164 -0.383060 3.085911 81.000000 23 359.704446
1.500535 -0.468498 2.946900 25.000000 21 359.704449
1.416227 -0.442177 2.251669 34.000000 19 359.704451
1.391158 -0.434352 1.820895 27.000000 17 359.704454
0.172752 -0.067667 3.039319 96.000000 30 359.704462
0.313265 -0.114298 3.062202 95.000000 29 359.704464
0.749420 -0.244461 3.070381 87.000000 26 359.704467
1.064370 -0.334549 3.088255 88.000000 24 359.704469
1.399907 -0.439491 3.096326 91.000000 22 359.704472
1.454849 -0.456466 2.564246 30.000000 20 359.704475
1.374273 -0.431187 1.981303 36.000000 18 359.704477
1.372618 -0.430671 1.637839 39.000000 16 359.704480
1.355824 -0.421506 1.475061 37.000000 15 359.704437
1.322576 -0.411172 1.198768 38.000000 13 359.704440
1.235833 -0.384441 0.933159 39.000000 11 359.704442
1.223917 -0.380736 0.757226 40.000000 9 359.704445
1.195923 -0.372257 0.594370 40.000000 7 359.704448
1.186617 -0.369587 0.455024 16.000000 5 359.704450
1.191261 -0.371034 0.328358 26.000000 3 359.704453
1.197934 -0.373341 0.205376 22.000000 1 359.704455
1.336397 -0.417769 1.327789 38.000000 14 359.704463
1.298737 -0.405999 1.074342 40.000000 12 359.704466
1.223763 -0.382795 0.838803 40.000000 10 359.704468
1.213898 -0.379712 0.675431 45.000000 8 359.704471
1.185839 -0.371162 0.521368 40.000000 6 359.704473
1.210780 -0.379201 0.396728 36.000000 4 359.704476
1.219079 -0.382033 0.270173 17.000000 2 359.704478
1.177219 -0.369141 0.143444 37.000000 0 359.704481
0.035682 -0.018375 3.044158 96.000000 31 359.704492
0.453490 -0.155382 3.047946 95.000000 28 359.704494
0.599325 -0.206171 3.070568 87.000000 27 359.704497
0.906743 -0.292235 3.090912 89.000000 25 359.704499
1.224819 -0.387338 3.085911 81.000000 23 359.704502
1.498891 -0.473733 2.946900 26.000000 21 359.704504
1.414675 -0.447118 2.251669 34.000000 19 359.704507
1.389633 -0.439206 1.820895 26.000000 17 359.704509
0.172515 -0.068269 3.039319 96.000000 30 359.704517
0.312864 -0.115391 3.062202 95.000000 29 359.704520
0.748562 -0.247076 3.070381 87.000000 26 359.704522
1.063195 -0.338263 3.088255 88.000000 24 359.704525
1.398365 -0.444374 3.096326 91.000000 22 359.704527
1.450761 -0.460752 2.559980 30.000000 20 359.704530
1.372759 -0.435982 1.981303 36.000000 18 359.704533
1.367875 -0.434433 1.634164 39.000000 16 359.704535
1.350943 -0.425165 1.471557 37.000000 15 359.704493
1.321133 -0.415786 1.198768 38.000000 13 359.704495
1.234483 -0.388752 0.933159 39.000000 11 359.704498
1.222581 -0.385006 0.757226 40.000000 9 359.704501
1.194616 -0.376429 0.594370 40.000000 7 359.704503
1.185319 -0.373727 0.455024 16.000000 5 359.704506
1.189958 -0.375190 0.328358 26.000000 3 359.704508
1.196623 -0.377521 0.205376 22.000000 1 359.704511
1.331370 -0.421305 1.324464 38.000000 14 359.704519
1.297312 -0.410530 1.074342 40.000000 12 359.704521
1.222419 -0.387064 0.838803 40.000000 10 359.704524
1.212565 -0.383947 0.675431 47.000000 8 359.704526
1.184536 -0.375299 0.521368 40.000000 6 359.704529
1.209448 -0.383425 0.396728 35.000000 4 359.704531
1.213017 -0.384789 0.269483 17.000000 2 359.704534
1.171162 -0.371737 0.143242 37.000000 0 359.704536
0.035618 -0.018500 3.044158 96.000000 31 359.704547
0.452945 -0.156964 3.047946 95.000000 28 359.704550
0.598601 -0.208262 3.070568 87.000000 27 359.704552
0.905717 -0.295398 3.090912 89.000000 25 359.704555
1.223460 -0.391611 3.085911 91.000000 23 359.704557
1.494946 -0.478232 2.942511 25.000000 21 359.704560
1.410426 -0.451196 2.247536 34.000000 19 359.704562
1.388092 -0.444054 1.820895 26.000000 17 359.704565
0.172275 -0.068871 3.039319 96.000000 30 359.704573
0.312459 -0.116482 3.062202 95.000000 29 359.704575
0.748888 -0.250086 3.075220 89.000000 26 359.704578
1.062008 -0.341972 3.088255 88.000000 24 359.704580
1.396805 -0.449253 3.096326 90.000000 22 359.704583
1.449144 -0.465814 2.559980 30.000000 20 359.704586
1.368359 -0.439848 1.977313 36.000000 18 359.704588
1.366351 -0.439205 1.634164 39.000000 16 359.704591
1.349451 -0.429878 1.471557 37.000000 15 359.704548
1.315964 -0.419213 1.195630 38.000000 13 359.704551
1.229135 -0.391789 0.930417 39.000000 11 359.704553
1.217009 -0.387926 0.754908 42.000000 9 359.704556
1.193295 -0.380597 0.594370 40.000000 7 359.704559
1.188578 -0.379321 0.456433 16.000000 5 359.704561
1.188641 -0.379341 0.328358 25.000000 3 359.704564
1.195298 -0.381695 0.205376 21.000000 1 359.704566
1.329892 -0.425949 1.324464 38.000000 14 359.704574
1.295871 -0.415056 1.074342 40.000000 12 359.704577
1.221061 -0.391329 0.838803 40.000000 10 359.704579
1.211218 -0.388177 0.675431 47.000000 8 359.704582
1.183219 -0.379432 0.521368 40.000000 6 359.704584
1.212731 -0.389129 0.397900 35.000000 4 359.704587
1.211667 -0.389021 0.269483 17.000000 2 359.704589
1.169857 -0.375823 0.143242 37.000000 0 359.704592
0.035553 -0.018624 3.044158 96.000000 31 359.704603
0.452394 -0.158544 3.047946 96.000000 28 359.704605
0.597871 -0.210350 3.070568 86.000000 27 359.704608
0.904680 -0.298558 3.090912 87.000000 25 359.704610
1.222085 -0.395879 3.085911 91.000000 23 359.704613
1.493268 -0.483448 2.942511 25.000000 21 359.704615
1.408842 -0.456116 2.247536 34.000000 19 359.704618
1.389583 -0.449884 1.824732 26.000000 17 359.704621
0.172302 -0.069582 3.044310 96.000000 30 359.704628
0.312051 -0.117572 3.062202 95.000000 29 359.704631
0.748010 -0.252698 3.075220 89.000000 26 359.704633
1.060808 -0.345677 3.088255 88.000000 24 359.704636
1.395228 -0.454126 3.096326 90.000000 22 359.704639
1.445029 -0.470063 2.555714 30.000000 20 359.704641
1.366816 -0.444622 1.977313 36.000000 18 359.704644
1.364809 -0.443972 1.634164 39.000000 16 359.704646
1.347942 -0.434586 1.471557 37.000000 15 359.704604
1.314493 -0.423804 1.195630 38.000000 13 359.704606
1.227760 -0.396077 0.930417 39.000000 11 359.704609
1.215647 -0.392172 0.754908 40.000000 9 359.704612
1.191959 -0.384760 0.594370 40.000000 7 359.704614
1.187246 -0.383467 0.456433 16.000000 5 359.704617
1.187310 -0.383488 0.328358 25.000000 3 359.704619
1.189220 -0.384334 0.204930 21.000000 1 359.704622
1.324844 -0.429438 1.321139 38.000000 14 359.704630
1.290569 -0.418330 1.071399 40.000000 12 359.704632
1.219687 -0.395589 0.838803 42.000000 10 359.704635
1.205538 -0.391003 0.673332 45.000000 8 359.704637
1.181888 -0.383560 0.521368 40.000000 6 359.704640
1.211365 -0.393360 0.397900 35.000000 4 359.704642
1.210301 -0.393248 0.269483 17.000000 2 359.704645
1.168538 -0.379904 0.143242 37.000000 0 359.704647
0.035488 -0.018748 3.044158 96.000000 31 359.704658
0.451838 -0.160122 3.047946 96.000000 28 359.704661
0.597133 -0.212436 3.070568 86.000000 27 359.704663
0.903633 -0.301714 3.090912 87.000000 25 359.704666
1.222552 -0.400751 3.090513 91.000000 23 359.704668
1.489295 -0.487911 2.938122 26.000000 21 359.704671
1.404567 -0.460155 2.243403 34.000000 19 359.704673
1.388005 -0.454732 1.824732 26.000000 17 359.704676
0.172058 -0.070183 3.044310 96.000000 30 359.704684
0.311639 -0.118661 3.062202 95.000000 29 359.704686
0.747124 -0.255308 3.075220 89.000000 26 359.704689
1.059595 -0.349378 3.088255 85.000000 24 359.704691
1.393634 -0.458993 3.096326 90.000000 22 359.704694
1.443379 -0.475104 2.555714 30.000000 20 359.704697
1.362393 -0.448448 1.973324 36.000000 18 359.704699
1.360031 -0.447673 1.630489 39.000000 16 359.704702
1.346417 -0.439289 1.471557 37.000000 15 359.704659
1.313006 -0.428390 1.195630 38.000000 13 359.704662
1.226370 -0.400360 0.930417 39.000000 11 359.704665
1.214271 -0.396413 0.754908 40.000000 9 359.704667
1.190609 -0.388918 0.594370 40.000000 7 359.704670
1.185901 -0.387609 0.456433 16.000000 5 359.704672
1.185964 -0.387630 0.328358 25.000000 3 359.704675
1.187871 -0.388483 0.204930 22.000000 1 359.704677
1.323337 -0.434060 1.321139 38.000000 14 359.704685
1.289101 -0.422832 1.071399 40.000000 12 359.704688
1.214203 -0.398500 0.836271 40.000000 10 359.704690
1.204166 -0.395208 0.673332 45.000000 8 359.704693
1.180541 -0.387683 0.521368 40.000000 6 359.704695
1.209985 -0.397586 0.397900 35.000000 4 359.704698
1.208921 -0.397470 0.269483 17.000000 2 359.704700
1.167205 -0.383980 0.143242 37.000000 0 359.704703
0.035422 -0.018872 3.044158 96.000000 31 359.704714
0.451276 -0.161699 3.047946 96.000000 28 359.704716
0.596388 -0.214519 3.070568 87.000000 27 359.704719
0.902574 -0.304867 3.090912 87.000000 25 359.704721
1.221146 -0.405016 3.090513 92.000000 23 359.704724
1.487582 -0.493107 2.938122 26.000000 21 359.704726
1.402952 -0.465055 2.243403 34.000000 19 359.704729
1.386409 -0.459574 1.824732 26.000000 17 359.704732
0.171812 -0.070783 3.044310 96.000000 30 359.704739
0.311222 -0.119748 3.062202 95.000000 29 359.704742
0.746228 -0.257914 3.075220 89.000000 26 359.704744
1.058369 -0.353074 3.088255 86.000000 24 359.704747
1.392024 -0.463855 3.096326 90.000000 22 359.704750
1.441712 -0.480139 2.555714 30.000000 20 359.704752
1.360819 -0.453201 1.973324 36.000000 18 359.704755
1.358460 -0.452418 1.630489 38.000000 16 359.704757
1.344875 -0.443986 1.471557 37.000000 15 359.704715
1.311502 -0.432971 1.195630 38.000000 13 359.704717
1.224965 -0.404639 0.930417 40.000000 11 359.704720
1.208673 -0.399260 0.752590 42.000000 9 359.704723
1.189244 -0.393072 0.594370 40.000000 7 359.704725
1.184540 -0.391747 0.456433 16.000000 5 359.704728
1.184604 -0.391768 0.328358 25.000000 3 359.704730
1.186508 -0.392627 0.204930 22.000000 1 359.704733
1.321814 -0.438676 1.321139 38.000000 14 359.704741
1.287617 -0.427330 1.071399 40.000000 12 359.704743
1.212804 -0.402736 0.836271 40.000000 10 359.704746
1.202779 -0.399409 0.673332 45.000000 8 359.704748
1.179181 -0.391802 0.521368 40.000000 6 359.704751
1.208590 -0.401807 0.397900 35.000000 4 359.704753
1.207527 -0.401688 0.269483 17.000000 2 359.704756
1.165857 -0.388052 0.143242 37.000000 0 359.704759
0.035356 -0.018995 3.044158 96.000000 31 359.704769
0.450709 -0.163273 3.047946 96.000000 28 359.704772
0.595635 -0.216599 3.070568 86.000000 27 359.704774
0.901504 -0.308015 3.090912 87.000000 25 359.704777
1.219725 -0.409276 3.090513 92.000000 23 359.704779
1.483581 -0.497535 2.933734 26.000000 21 359.704782
1.401320 -0.469950 2.243403 34.000000 19 359.704785
1.384796 -0.464411 1.824732 26.000000 17 359.704787
0.171564 -0.071383 3.044310 96.000000 30 359.704795
0.310803 -0.120834 3.062202 95.000000 29 359.704797
0.745323 -0.260518 3.075220 87.000000 26 359.704800
1.057130 -0.356766 3.088255 86.000000 24 359.704803
1.390396 -0.468712 3.096326 90.000000 22 359.704805
1.440027 -0.485169 2.555714 30.000000 20 359.704808
1.359229 -0.457948 1.973324 36.000000 18 359.704810
1.356872 -0.457157 1.630489 39.000000 16 359.704813
1.343317 -0.448678 1.471557 37.000000 15 359.704770
1.309983 -0.437546 1.195630 38.000000 13 359.704773
1.223545 -0.408912 0.930417 40.000000 11 359.704776
1.207272 -0.403476 0.752590 42.000000 9 359.704778
1.187865 -0.397221 0.594370 40.000000 7 359.704781
1.183166 -0.395879 0.456433 16.000000 5 359.704783
1.183229 -0.395900 0.328358 25.000000 3 359.704786
1.185130 -0.396766 0.204930 21.000000 1 359.704788
1.320275 -0.443288 1.321139 38.000000 14 359.704796
1.286118 -0.431822 1.071399 40.000000 12 359.704799
1.211391 -0.406967 0.836271 40.000000 10 359.704801
1.201378 -0.403605 0.673332 47.000000 8 359.704804
1.177806 -0.395915 0.521368 40.000000 6 359.704806
1.207180 -0.406024 0.397900 35.000000 4 359.704809
1.201424 -0.404321 0.268793 17.000000 2 359.704811
1.164496 -0.392120 0.143242 37.000000 0 359.704814
0.035326 -0.019143 3.049157 96.000000 31 359.704825
0.450136 -0.164845 3.047946 96.000000 28 359.704827
0.594876 -0.218677 3.070568 89.000000 27 359.704830
0.900424 -0.311160 3.090912 89.000000 25 359.704832
1.218289 -0.413532 3.090513 92.000000 23 359.704835
1.481835 -0.502710 2.933734 26.000000 21 359.704837
1.397007 -0.473934 2.239270 33.000000 19 359.704840
1.383167 -0.469242 1.824732 27.000000 17 359.704843
0.171313 -0.071981 3.044310 96.000000 30 359.704850
0.310379 -0.121918 3.062202 95.000000 29 359.704853
0.744409 -0.263118 3.075220 89.000000 26 359.704855
1.055878 -0.360454 3.088255 88.000000 24 359.704858
1.388752 -0.473562 3.096326 90.000000 22 359.704861
1.438325 -0.490193 2.555714 30.000000 20 359.704863
1.357622 -0.462690 1.973324 36.000000 18 359.704866
1.355268 -0.461891 1.630489 39.000000 16 359.704868
1.341743 -0.453364 1.471557 37.000000 15 359.704826
1.308448 -0.442116 1.195630 38.000000 13 359.704829
1.222110 -0.413181 0.930417 40.000000 11 359.704831
1.205856 -0.407688 0.752590 42.000000 9 359.704834
1.182080 -0.399879 0.592497 40.000000 7 359.704836
1.177233 -0.398468 0.455024 16.000000 5 359.704839
1.181840 -0.400028 0.328358 25.000000 3 359.704841
1.183738 -0.400901 0.204930 17.000000 1 359.704844
1.318719 -0.447893 1.321139 38.000000 14 359.704852
1.284603 -0.436308 1.071399 40.000000 12 359.704854
1.209963 -0.411193 0.836271 40.000000 10 359.704857
1.199962 -0.407797 0.673332 47.000000 8 359.704859
1.171946 -0.398504 0.519725 40.000000 6 359.704862
1.201153 -0.408669 0.396728 35.000000 4 359.704864
1.200005 -0.408512 0.268793 16.000000 2 359.704867
1.163120 -0.396182 0.143242 36.000000 0 359.704870
0.035259 -0.019266 3.049157 95.000000 31 359.704880
0.449558 -0.166415 3.047946 96.000000 28 359.704883
0.594109 -0.220752 3.070568 89.000000 27 359.704885
0.899332 -0.314301 3.090912 89.000000 25 359.704888
1.214990 -0.417147 3.085911 91.000000 23 359.704890
1.480071 -0.507880 2.933734 27.000000 21 359.704893
1.395344 -0.478808 2.239270 33.000000 19 359.704896
1.381520 -0.474067 1.824732 29.000000 17 359.704898
0.170795 -0.072464 3.039319 96.000000 30 359.704906
0.309951 -0.123000 3.062202 95.000000 29 359.704908
0.743486 -0.265715 3.075220 89.000000 26 359.704911
1.054613 -0.364138 3.088255 86.000000 24 359.704914
1.385031 -0.477697 3.091825 91.000000 22 359.704916
1.436605 -0.495210 2.555714 30.000000 20 359.704919
1.355999 -0.467426 1.973324 36.000000 18 359.704921
1.353648 -0.466619 1.630489 39.000000 16 359.704924
1.336777 -0.456891 1.468052 37.000000 15 359.704881
1.306897 -0.446681 1.195630 38.000000 13 359.704884
1.220660 -0.417444 0.930417 40.000000 11 359.704887
1.204425 -0.411895 0.752590 40.000000 9 359.704889
1.180677 -0.404003 0.592497 39.000000 7 359.704892
1.175834 -0.402575 0.455024 16.000000 5 359.704894
1.180436 -0.404151 0.328358 25.000000 3 359.704897
1.187042 -0.406644 0.205376 17.000000 1 359.704899
1.317148 -0.452494 1.321139 38.000000 14 359.704907
1.279249 -0.439477 1.068456 40.000000 12 359.704910
1.208520 -0.415414 0.836271 40.000000 10 359.704912
1.198531 -0.411983 0.673332 47.000000 8 359.704915
