# .PCD v.7 - Point Cloud Data file format
VERSION .7
FIELDS x y z intensity ring timestamp
SIZE 4 4 4 4 2 8
TYPE F F F F U D
COUNT 1 1 1 1 1 1
WIDTH 906
HEIGHT 1
VIEWPOINT 0 0 0 1 0 0 0
POINTS 906
DATA ascii
-1.286025 -0.621977 1.786363 37.000000 17 359.243184
-0.175816 -0.070154 3.104210 98.000000 30 359.243191
-0.309666 -0.132108 3.092031 95.000000 29 359.243194
-0.751538 -0.351774 3.230075 50.000000 26 359.243197
-1.039539 -0.500322 3.191496 40.000000 24 359.243199
-1.321897 -0.636774 3.096326 16.000000 22 359.243202
-1.298408 -0.625733 2.427736 34.000000 20 359.243204
-1.286655 -0.620067 1.965345 37.000000 18 359.243207
-1.280686 -0.617187 1.619463 38.000000 16 359.243209
-1.277435 -0.619747 1.475061 39.000000 15 359.243167
-1.274131 -0.618141 1.223870 39.000000 13 359.243170
-1.269891 -0.615810 1.009920 40.000000 11 359.243172
-1.272905 -0.617269 0.826766 42.000000 9 359.243175
-1.268933 -0.615069 0.658053 40.000000 7 359.243177
-1.260950 -0.610928 0.501528 39.000000 5 359.243180
-1.251058 -0.606135 0.355404 32.000000 3 359.243182
-1.254803 -0.607679 0.217870 24.000000 1 359.243185
-1.277518 -0.617310 1.344413 39.000000 14 359.243193
-1.265214 -0.611362 1.106717 39.000000 12 359.243195
-1.271078 -0.613921 0.914776 40.000000 10 359.243198
-1.276086 -0.616337 0.742568 47.000000 8 359.243200
-1.267837 -0.612081 0.578862 39.000000 6 359.243203
-1.265255 -0.610562 0.429553 37.000000 4 359.243205
-1.262185 -0.608809 0.287418 21.000000 2 359.243208
-1.259825 -0.607400 0.150094 33.000000 0 359.243211
-0.039243 -0.011115 3.119155 98.000000 31 359.243221
-0.441371 -0.198696 3.077582 98.000000 28 359.243224
-0.608914 -0.273205 3.232111 26.000000 27 359.243226
-0.897855 -0.424147 3.219748 40.000000 25 359.243229
-1.186681 -0.568585 3.159551 39.000000 23 359.243231
-1.305190 -0.625640 2.718689 29.000000 21 359.243234
-1.299824 -0.623064 2.189675 35.000000 19 359.243236
-1.291079 -0.618870 1.790200 36.000000 17 359.243239
-0.176060 -0.069540 3.104210 97.000000 30 359.243247
-0.310126 -0.131026 3.092031 95.000000 29 359.243249
-0.752761 -0.349148 3.230075 53.000000 26 359.243252
-1.041279 -0.496690 3.191496 39.000000 24 359.243254
-1.326077 -0.633094 3.100827 16.000000 22 359.243257
-1.305291 -0.623445 2.436268 34.000000 20 359.243259
-1.291531 -0.616871 1.969334 37.000000 18 359.243262
-1.285891 -0.614174 1.623138 38.000000 16 359.243265
-1.286019 -0.618375 1.482070 39.000000 15 359.243222
-1.279789 -0.615376 1.227008 39.000000 13 359.243225
-1.275802 -0.613185 1.012661 40.000000 11 359.243227
-1.275052 -0.612822 0.826766 40.000000 9 359.243230
-1.275251 -0.612643 0.659926 40.000000 7 359.243233
-1.267399 -0.608599 0.502937 39.000000 5 359.243235
-1.257594 -0.603891 0.356336 32.000000 3 359.243238
-1.261406 -0.605450 0.218316 24.000000 1 359.243240
-1.283033 -0.614460 1.347738 39.000000 14 359.243248
-1.270986 -0.608687 1.109660 40.000000 12 359.243251
-1.273213 -0.609481 0.914776 42.000000 10 359.243253
-1.278229 -0.611879 0.742568 47.000000 8 359.243256
-1.274226 -0.609690 0.580505 42.000000 6 359.243258
-1.271763 -0.608239 0.430725 38.000000 4 359.243261
-1.268771 -0.606535 0.288108 22.000000 2 359.243263
-1.266446 -0.605152 0.150296 33.000000 0 359.243266
-0.039282 -0.010978 3.119155 98.000000 31 359.243277
-0.442062 -0.197154 3.077582 98.000000 28 359.243279
-0.610795 -0.271491 3.237006 24.000000 27 359.243282
-0.899330 -0.421010 3.219748 39.000000 25 359.243284
-1.188658 -0.564439 3.159551 39.000000 23 359.243287
-1.311694 -0.623136 2.727467 29.000000 21 359.243289
-1.304532 -0.619731 2.193808 35.000000 19 359.243292
-1.296127 -0.615735 1.794037 36.000000 17 359.243294
-0.176302 -0.068925 3.104210 98.000000 30 359.243302
-0.310581 -0.129943 3.092031 95.000000 29 359.243305
-0.753976 -0.346518 3.230075 53.000000 26 359.243307
-1.043006 -0.493052 3.191496 40.000000 24 359.243310
-1.332215 -0.630324 3.109829 16.000000 22 359.243312
-1.309816 -0.620001 2.440534 34.000000 20 359.243315
-1.296401 -0.613648 1.973324 37.000000 18 359.243318
-1.291091 -0.611132 1.626814 38.000000 16 359.243320
-1.291389 -0.615416 1.485575 39.000000 15 359.243278
-1.285443 -0.612580 1.230145 39.000000 13 359.243280
-1.281710 -0.610526 1.015403 40.000000 11 359.243283
-1.281183 -0.610273 0.829084 40.000000 9 359.243285
-1.281567 -0.610181 0.661799 40.000000 7 359.243288
-1.273848 -0.606233 0.504346 39.000000 5 359.243291
-1.264130 -0.601609 0.357269 32.000000 3 359.243293
-1.263512 -0.601044 0.218316 24.000000 1 359.243296
-1.288544 -0.611579 1.351063 39.000000 14 359.243303
-1.276755 -0.605980 1.112604 40.000000 12 359.243306
-1.279228 -0.606880 0.917309 42.000000 10 359.243309
-1.284458 -0.609359 0.744666 45.000000 8 359.243311
-1.276346 -0.605238 0.580505 42.000000 6 359.243314
-1.278271 -0.605877 0.431897 38.000000 4 359.243316
-1.270880 -0.602103 0.288108 22.000000 2 359.243319
-1.273066 -0.602866 0.150497 33.000000 0 359.243321
-0.039320 -0.010840 3.119155 97.000000 31 359.243332
-0.442747 -0.195609 3.077582 98.000000 28 359.243335
-0.612671 -0.269767 3.241901 23.000000 27 359.243337
-0.899439 -0.417240 3.214977 42.000000 25 359.243340
-1.190621 -0.560286 3.159551 37.000000 23 359.243342
-1.318197 -0.620594 2.736244 29.000000 21 359.243345
-1.309234 -0.616372 2.197941 35.000000 19 359.243347
-1.304070 -0.613938 1.801710 36.000000 17 359.243350
-0.176541 -0.068309 3.104210 97.000000 30 359.243358
-0.311033 -0.128858 3.092031 95.000000 29 359.243360
-0.755181 -0.343884 3.230075 53.000000 26 359.243363
-1.043158 -0.488677 3.186803 39.000000 24 359.243365
-1.336379 -0.626595 3.114330 16.000000 22 359.243368
-1.316695 -0.617640 2.449066 33.000000 20 359.243371
-1.303993 -0.611679 1.981303 36.000000 18 359.243373
-1.299355 -0.609501 1.634164 38.000000 16 359.243376
-1.296754 -0.612428 1.489079 39.000000 15 359.243333
-1.291094 -0.609752 1.233283 39.000000 13 359.243336
-1.287614 -0.607834 1.018144 40.000000 11 359.243338
-1.287312 -0.607688 0.831402 40.000000 9 359.243341
-1.283689 -0.605704 0.661799 40.000000 7 359.243344
-1.280295 -0.603829 0.505755 39.000000 5 359.243346
-1.266223 -0.597192 0.357269 32.000000 3 359.243349
-1.270107 -0.598753 0.218763 24.000000 1 359.243351
-1.294050 -0.608666 1.354388 39.000000 14 359.243359
-1.282520 -0.603240 1.115547 39.000000 12 359.243362
-1.285240 -0.604246 0.919841 42.000000 10 359.243364
-1.290684 -0.606803 0.746764 45.000000 8 359.243367
-1.282725 -0.602787 0.582147 42.000000 6 359.243369
-1.280378 -0.601412 0.431897 38.000000 4 359.243372
-1.277457 -0.599767 0.288798 24.000000 2 359.243374
-1.279685 -0.600541 0.150699 33.000000 0 359.243377
-0.039358 -0.010703 3.119155 97.000000 31 359.243388
-0.442715 -0.193752 3.072643 97.000000 28 359.243390
-0.614543 -0.268034 3.246796 21.000000 27 359.243393
-0.900890 -0.414098 3.214977 45.000000 25 359.243395
-1.192570 -0.556127 3.159551 37.000000 23 359.243398
-1.322526 -0.617002 2.740633 29.000000 21 359.243400
-1.313927 -0.612988 2.202074 34.000000 19 359.243403
-1.309110 -0.610738 1.805547 37.000000 17 359.243405
-0.176779 -0.067692 3.104210 98.000000 30 359.243413
-0.311481 -0.127771 3.092031 95.000000 29 359.243416
-0.756376 -0.341246 3.230075 54.000000 26 359.243418
-1.044858 -0.485032 3.186803 39.000000 24 359.243421
-1.342508 -0.623761 3.123331 18.000000 22 359.243423
-1.321208 -0.614140 2.453331 33.000000 20 359.243426
-1.308853 -0.608394 1.985292 36.000000 18 359.243429
-1.304549 -0.606391 1.637839 38.000000 16 359.243431
-1.302114 -0.609409 1.492584 39.000000 15 359.243389
-1.296740 -0.606891 1.236421 39.000000 13 359.243391
-1.293516 -0.605107 1.020886 40.000000 11 359.243394
-1.293438 -0.605068 0.833720 40.000000 9 359.243397
-1.289995 -0.603183 0.663672 40.000000 7 359.243399
-1.286741 -0.601388 0.507164 39.000000 5 359.243402
-1.272750 -0.594849 0.358202 32.000000 3 359.243404
-1.272189 -0.594316 0.218763 24.000000 1 359.243407
-1.302937 -0.607301 1.361037 39.000000 14 359.243415
-1.288281 -0.600467 1.118490 39.000000 12 359.243417
-1.291249 -0.601576 0.922373 40.000000 10 359.243420
-1.296908 -0.604210 0.748862 47.000000 8 359.243422
-1.289103 -0.600300 0.583790 42.000000 6 359.243425
-1.286876 -0.598990 0.433070 38.000000 4 359.243427
-1.284033 -0.597394 0.289488 23.000000 2 359.243430
-1.281773 -0.596070 0.150699 33.000000 0 359.243432
-0.039395 -0.010566 3.119155 97.000000 31 359.243443
-0.443389 -0.192205 3.072643 97.000000 28 359.243446
-0.615475 -0.265887 3.246796 22.000000 27 359.243448
-0.902330 -0.410951 3.214977 43.000000 25 359.243451
-1.194504 -0.551961 3.159551 39.000000 23 359.243453
-1.329021 -0.614392 2.749410 27.000000 21 359.243456
-1.321168 -0.610759 2.210340 34.000000 19 359.243458
-1.314144 -0.607509 1.809384 37.000000 17 359.243461
-0.177014 -0.067075 3.104210 98.000000 30 359.243469
-0.311925 -0.126683 3.092031 95.000000 29 359.243471
-0.757563 -0.338604 3.230075 53.000000 26 359.243474
-1.046544 -0.481382 3.186803 39.000000 24 359.243476
-1.348634 -0.620893 3.132333 21.000000 22 359.243479
-1.328081 -0.611706 2.461863 33.000000 20 359.243482
-1.313706 -0.605082 1.989282 36.000000 18 359.243484
-1.309737 -0.603251 1.641514 38.000000 16 359.243487
-1.310704 -0.607861 1.499593 38.000000 15 359.243444
-1.302382 -0.603999 1.239559 39.000000 13 359.243447
-1.299413 -0.602347 1.023627 40.000000 11 359.243449
-1.295542 -0.600549 0.833720 40.000000 9 359.243452
-1.296299 -0.600625 0.665545 40.000000 7 359.243455
-1.293185 -0.598908 0.508574 39.000000 5 359.243457
-1.279276 -0.592466 0.359134 32.000000 3 359.243460
-1.278775 -0.591964 0.219209 24.000000 1 359.243462
-1.308439 -0.604315 1.364362 39.000000 14 359.243470
-1.294039 -0.597662 1.121433 39.000000 12 359.243473
-1.297255 -0.598872 0.924906 40.000000 10 359.243475
-1.303130 -0.601582 0.750960 47.000000 8 359.243478
-1.295478 -0.597775 0.585433 44.000000 6 359.243480
-1.293373 -0.596530 0.434242 38.000000 4 359.243483
-1.290608 -0.594981 0.290178 24.000000 2 359.243485
-1.288384 -0.593683 0.150900 33.000000 0 359.243488
-0.039431 -0.010428 3.119155 97.000000 31 359.243499
-0.444057 -0.190656 3.072643 98.000000 28 359.243501
-0.617335 -0.264137 3.251692 22.000000 27 359.243504
-0.903759 -0.407799 3.214977 40.000000 25 359.243506
-1.198199 -0.548601 3.164154 39.000000 23 359.243509
-1.335514 -0.611745 2.758187 27.000000 21 359.243511
-1.325850 -0.607316 2.214473 35.000000 19 359.243514
-1.322086 -0.605589 1.817058 36.000000 17 359.243517
-0.177247 -0.066456 3.104210 98.000000 30 359.243524
-0.312365 -0.125594 3.092031 95.000000 29 359.243527
-0.758740 -0.335957 3.230075 53.000000 26 359.243529
-1.048218 -0.477726 3.186803 39.000000 24 359.243532
-1.354756 -0.617989 3.141335 21.000000 22 359.243535
-1.334954 -0.609232 2.470395 33.000000 20 359.243537
-1.321294 -0.602995 1.997261 36.000000 18 359.243540
-1.318003 -0.601491 1.648865 38.000000 16 359.243542
-1.316058 -0.604771 1.503098 39.000000 15 359.243500
-1.308020 -0.601075 1.242697 39.000000 13 359.243502
-1.305308 -0.599552 1.026368 40.000000 11 359.243505
-1.301656 -0.597872 0.836038 40.000000 9 359.243508
-1.302601 -0.598031 0.667418 40.000000 7 359.243510
-1.295268 -0.594391 0.508574 38.000000 5 359.243513
-1.285801 -0.590046 0.360067 33.000000 3 359.243515
-1.285360 -0.589572 0.219655 24.000000 1 359.243518
-1.313936 -0.601298 1.367687 39.000000 14 359.243526
-1.299793 -0.594823 1.124376 39.000000 12 359.243528
-1.303259 -0.596134 0.927438 40.000000 10 359.243531
-1.309350 -0.598917 0.753058 47.000000 8 359.243533
-1.301852 -0.595213 0.587075 44.000000 6 359.243536
-1.299868 -0.594032 0.435414 38.000000 4 359.243538
-1.292677 -0.590472 0.290178 24.000000 2 359.243541
-1.294993 -0.591257 0.151102 33.000000 0 359.243543
-0.039511 -0.010297 3.124155 98.000000 31 359.243554
-0.444720 -0.189105 3.072643 97.000000 28 359.243557
-0.618253 -0.261980 3.251692 22.000000 27 359.243559
-0.905177 -0.404641 3.214977 40.000000 25 359.243562
-1.200107 -0.544415 3.164154 39.000000 23 359.243564
-1.339822 -0.608069 2.762576 28.000000 21 359.243567
-1.333087 -0.605010 2.222739 35.000000 19 359.243569
-1.327111 -0.602295 1.820895 36.000000 17 359.243572
-0.177478 -0.065837 3.104210 98.000000 30 359.243580
-0.312305 -0.124306 3.087059 95.000000 29 359.243582
-0.759908 -0.333307 3.230075 53.000000 26 359.243585
-1.049879 -0.474064 3.186803 39.000000 24 359.243587
-1.360874 -0.615050 3.150336 19.000000 22 359.243590
-1.339449 -0.605643 2.474661 33.000000 20 359.243593
-1.326137 -0.599621 2.001250 36.000000 18 359.243595
-1.323184 -0.598283 1.652540 38.000000 16 359.243598
-1.321407 -0.601651 1.506602 39.000000 15 359.243555
-1.313653 -0.598118 1.245834 39.000000 13 359.243558
-1.311199 -0.596724 1.029110 40.000000 11 359.243561
-1.307768 -0.595160 0.838357 40.000000 9 359.243563
-1.308900 -0.595400 0.669291 40.000000 7 359.243566
-1.301702 -0.591851 0.509983 38.000000 5 359.243568
-1.292324 -0.587587 0.360999 33.000000 3 359.243571
-1.291944 -0.587143 0.220101 25.000000 1 359.243573
-1.319428 -0.598250 1.371012 39.000000 14 359.243581
-1.305542 -0.591951 1.127319 39.000000 12 359.243584
-1.309258 -0.593361 0.929971 40.000000 10 359.243586
-1.315566 -0.596216 0.755157 48.000000 8 359.243589
-1.308223 -0.592614 0.588718 44.000000 6 359.243591
-1.301934 -0.589491 0.435414 38.000000 4 359.243594
-1.299242 -0.587998 0.290868 24.000000 2 359.243596
-1.297049 -0.586733 0.151102 33.000000 0 359.243599
-0.039546 -0.010159 3.124155 98.000000 31 359.243610
-0.445377 -0.187552 3.072643 97.000000 28 359.243612
-0.619164 -0.259821 3.251692 23.000000 27 359.243615
-0.906584 -0.401479 3.214977 40.000000 25 359.243617
-1.202000 -0.540223 3.164154 39.000000 23 359.243620
-1.346307 -0.605354 2.771353 28.000000 21 359.243622
-1.340324 -0.602661 2.231004 34.000000 19 359.243625
-1.335053 -0.600288 1.828569 36.000000 17 359.243628
-0.177707 -0.065217 3.104210 97.000000 30 359.243635
-0.312737 -0.123215 3.087059 95.000000 29 359.243638
-0.761067 -0.330652 3.230075 53.000000 26 359.243640
-1.049953 -0.469692 3.182110 39.000000 24 359.243643
-1.366987 -0.612075 3.159338 18.000000 22 359.243646
-1.346315 -0.603096 2.483193 33.000000 20 359.243648
-1.333723 -0.597453 2.009229 36.000000 18 359.243651
-1.328358 -0.595047 1.656215 38.000000 16 359.243653
-1.326750 -0.598501 1.510107 38.000000 15 359.243611
-1.319282 -0.595130 1.248972 39.000000 13 359.243613
-1.317086 -0.593863 1.031851 40.000000 11 359.243616
-1.313876 -0.592413 0.840675 40.000000 9 359.243619
-1.310971 -0.590827 0.669291 40.000000 7 359.243621
-1.308134 -0.589274 0.511392 39.000000 5 359.243624
-1.298846 -0.585090 0.361932 33.000000 3 359.243626
-1.298527 -0.584674 0.220547 25.000000 1 359.243629
-1.324915 -0.595171 1.374337 38.000000 14 359.243637
-1.311288 -0.589047 1.130262 39.000000 12 359.243639
-1.311322 -0.588787 0.929971 40.000000 10 359.243642
-1.321779 -0.593480 0.757255 47.000000 8 359.243644
-1.314592 -0.589977 0.590361 44.000000 6 359.243647
-1.308419 -0.586932 0.436587 38.000000 4 359.243649
-1.301286 -0.583460 0.290868 25.000000 2 359.243652
-1.303648 -0.584245 0.151303 33.000000 0 359.243655
-0.039581 -0.010021 3.124155 97.000000 31 359.243665
-0.446029 -0.185996 3.072643 98.000000 28 359.243668
-0.620067 -0.257658 3.251692 24.000000 27 359.243670
-0.906612 -0.397712 3.210205 40.000000 25 359.243673
-1.203879 -0.536024 3.164154 39.000000 23 359.243675
-1.352789 -0.602600 2.780131 28.000000 21 359.243678
-1.347560 -0.600268 2.239270 35.000000 19 359.243681
-1.340069 -0.596929 1.832406 36.000000 17 359.243683
-0.177933 -0.064597 3.104210 97.000000 30 359.243691
-0.313165 -0.122123 3.087059 95.000000 29 359.243693
-0.762217 -0.327994 3.230075 53.000000 26 359.243696
-1.051586 -0.466024 3.182110 39.000000 24 359.243699
-1.373097 -0.609066 3.168340 17.000000 22 359.243701
-1.353180 -0.600509 2.491725 33.000000 20 359.243704
-1.338556 -0.594016 2.013219 36.000000 18 359.243706
-1.333526 -0.591781 1.659890 38.000000 16 359.243709
-1.332087 -0.595322 1.513611 38.000000 15 359.243666
-1.324905 -0.592109 1.252110 38.000000 13 359.243669
-1.322968 -0.590967 1.034593 40.000000 11 359.243672
-1.315936 -0.587823 0.840675 40.000000 9 359.243674
-1.317258 -0.588138 0.671164 40.000000 7 359.243677
-1.310183 -0.584705 0.511392 39.000000 5 359.243679
-1.305367 -0.582555 0.362865 33.000000 3 359.243682
-1.300560 -0.580138 0.220547 25.000000 1 359.243684
-1.333807 -0.593579 1.380986 38.000000 14 359.243692
-1.317029 -0.586109 1.133206 39.000000 12 359.243695
-1.317308 -0.585958 0.932503 40.000000 10 359.243697
-1.323843 -0.588862 0.757255 47.000000 8 359.243700
-1.320959 -0.587303 0.592004 44.000000 6 359.243702
-1.314901 -0.584335 0.437759 39.000000 4 359.243705
-1.307841 -0.580924 0.291557 25.000000 2 359.243707
-1.310246 -0.581718 0.151505 33.000000 0 359.243710
-0.039573 -0.009876 3.119155 97.000000 31 359.243721
-0.446676 -0.184438 3.072643 98.000000 28 359.243723
-0.621905 -0.255879 3.256587 25.000000 27 359.243726
-0.907995 -0.394545 3.210205 42.000000 25 359.243728
-1.203955 -0.531030 3.159551 39.000000 23 359.243731
-1.359268 -0.599809 2.788908 28.000000 21 359.243733
-1.352222 -0.596697 2.243403 35.000000 19 359.243736
-1.348011 -0.594836 1.840080 36.000000 17 359.243739
-0.178158 -0.063975 3.104210 98.000000 30 359.243746
-0.313590 -0.121029 3.087059 95.000000 29 359.243749
-0.763357 -0.325331 3.230075 52.000000 26 359.243751
-1.054786 -0.463044 3.186803 39.000000 24 359.243754
-1.377208 -0.605145 3.172840 16.000000 22 359.243757
-1.360043 -0.597881 2.500257 33.000000 20 359.243759
-1.346139 -0.591766 2.021198 36.000000 18 359.243762
-1.338687 -0.588487 1.663565 38.000000 16 359.243764
-1.340678 -0.593555 1.520620 38.000000 15 359.243722
-1.334083 -0.590633 1.258385 38.000000 13 359.243725
-1.328847 -0.588037 1.037334 40.000000 11 359.243727
-1.322031 -0.585018 0.842993 40.000000 9 359.243730
-1.323543 -0.585411 0.673037 40.000000 7 359.243732
-1.316604 -0.582067 0.512801 39.000000 5 359.243735
-1.311885 -0.579981 0.363797 34.000000 3 359.243737
-1.307132 -0.577607 0.220994 22.000000 1 359.243740
-1.339288 -0.590426 1.384311 38.000000 14 359.243748
-1.326464 -0.584769 1.139092 39.000000 12 359.243750
-1.323290 -0.583095 0.935036 40.000000 10 359.243753
-1.330044 -0.586067 0.759353 47.000000 8 359.243755
-1.327323 -0.584592 0.593646 46.000000 6 359.243758
-1.321382 -0.581700 0.438931 39.000000 4 359.243760
-1.314393 -0.578350 0.292247 25.000000 2 359.243763
-1.312268 -0.577141 0.151505 33.000000 0 359.243766
-0.039607 -0.009738 3.119155 94.000000 31 359.243776
-0.447317 -0.182878 3.072643 98.000000 28 359.243779
-0.623737 -0.254090 3.261482 25.000000 27 359.243781
-0.909366 -0.391373 3.210205 40.000000 25 359.243784
-1.205801 -0.526824 3.159551 39.000000 23 359.243786
-1.365744 -0.596979 2.797685 27.000000 21 359.243789
-1.359454 -0.594227 2.251669 35.000000 19 359.243792
-1.353016 -0.591411 1.843917 36.000000 17 359.243794
-0.178380 -0.063353 3.104210 97.000000 30 359.243802
-0.314509 -0.120123 3.092031 95.000000 29 359.243804
-0.764488 -0.322664 3.230075 53.000000 26 359.243807
-1.054814 -0.458671 3.182110 40.000000 24 359.243810
-1.381309 -0.601203 3.177341 15.000000 22 359.243812
-1.364513 -0.594171 2.504523 33.000000 20 359.243815
-1.350960 -0.588267 2.025187 36.000000 18 359.243817
-1.343841 -0.585164 1.667240 38.000000 16 359.243820
-1.346008 -0.590304 1.524125 38.000000 15 359.243777
-1.339702 -0.587536 1.261523 38.000000 13 359.243780
-1.334721 -0.585074 1.040076 40.000000 11 359.243783
-1.328122 -0.582179 0.845311 40.000000 9 359.243785
-1.329824 -0.582648 0.674910 40.000000 7 359.243788
-1.323022 -0.579392 0.514210 39.000000 5 359.243790
-1.318401 -0.577369 0.364730 34.000000 3 359.243793
-1.309140 -0.573041 0.220994 22.000000 1 359.243795
-1.344763 -0.587242 1.387636 38.000000 14 359.243803
-1.332201 -0.581753 1.142035 39.000000 12 359.243806
-1.329269 -0.580197 0.937568 40.000000 10 359.243808
-1.336241 -0.583237 0.761451 45.000000 8 359.243811
-1.329355 -0.579955 0.593646 44.000000 6 359.243813
-1.323404 -0.577084 0.438931 39.000000 4 359.243816
-1.316404 -0.573758 0.292247 25.000000 2 359.243819
-1.318855 -0.574552 0.151706 33.000000 0 359.243821
-0.039641 -0.009600 3.119155 94.000000 31 359.243832
-0.447952 -0.181315 3.072643 97.000000 28 359.243834
-0.625565 -0.252291 3.266377 22.000000 27 359.243837
-0.910727 -0.388197 3.210205 43.000000 25 359.243839
-1.207633 -0.522612 3.159551 39.000000 23 359.243842
-1.372216 -0.594112 2.806463 27.000000 21 359.243845
-1.364102 -0.590596 2.255802 34.000000 19 359.243847
-1.360957 -0.589232 1.851591 36.000000 17 359.243850
-0.178600 -0.062730 3.104210 97.000000 30 359.243857
-0.314927 -0.119025 3.092031 95.000000 29 359.243860
-0.765610 -0.319994 3.230075 54.000000 26 359.243863
-1.057993 -0.455669 3.186803 39.000000 24 359.243865
-1.383399 -0.596378 3.177341 15.000000 22 359.243868
-1.371368 -0.591470 2.513055 33.000000 20 359.243870
-1.355773 -0.584741 2.029177 36.000000 18 359.243873
-1.352102 -0.583155 1.674591 38.000000 16 359.243875
-1.351331 -0.587023 1.527629 38.000000 15 359.243833
-1.345315 -0.584407 1.264661 38.000000 13 359.243836
-1.340591 -0.582077 1.042817 39.000000 11 359.243838
-1.334210 -0.579303 0.847629 40.000000 9 359.243841
-1.336103 -0.579848 0.676783 40.000000 7 359.243843
-1.329438 -0.576680 0.515620 39.000000 5 359.243846
-1.324915 -0.574718 0.365662 34.000000 3 359.243848
-1.315702 -0.570449 0.221440 26.000000 1 359.243851
-1.350232 -0.584026 1.390961 39.000000 14 359.243859
-1.337934 -0.578704 1.144978 39.000000 12 359.243861
-1.335244 -0.577264 0.940100 40.000000 10 359.243864
-1.342434 -0.580370 0.763549 45.000000 8 359.243866
-1.335707 -0.577185 0.595289 46.000000 6 359.243869
-1.329873 -0.574388 0.440104 39.000000 4 359.243871
-1.322945 -0.571122 0.292937 26.000000 2 359.243874
-1.325440 -0.571925 0.151908 33.000000 0 359.243877
-0.039674 -0.009462 3.119155 98.000000 31 359.243888
-0.448583 -0.179750 3.072643 93.000000 28 359.243891
-0.626442 -0.250106 3.266377 22.000000 27 359.243893
-0.912076 -0.385015 3.210205 43.000000 25 359.243896
-1.209450 -0.518393 3.159551 39.000000 23 359.243898
-1.378685 -0.591207 2.815240 27.000000 21 359.243901
-1.368741 -0.586940 2.259935 34.000000 19 359.243903
-1.365951 -0.585741 1.855428 36.000000 17 359.243906
-0.178807 -0.062137 3.104210 97.000000 30 359.243914
-0.315320 -0.117980 3.092031 95.000000 29 359.243916
-0.766667 -0.317453 3.230075 54.000000 26 359.243919
-1.059498 -0.452158 3.186803 39.000000 24 359.243921
-1.383470 -0.590690 3.172840 15.000000 22 359.243924
-1.378221 -0.588728 2.521587 33.000000 20 359.243926
-1.363349 -0.582373 2.037156 36.000000 18 359.243929
-1.357146 -0.580000 1.678266 37.000000 16 359.243932
-1.356648 -0.583712 1.531134 38.000000 15 359.243889
-1.350923 -0.581246 1.267799 38.000000 13 359.243892
-1.346456 -0.579046 1.045559 39.000000 11 359.243894
-1.340294 -0.576393 0.849947 40.000000 9 359.243897
-1.342277 -0.577246 0.678656 40.000000 7 359.243900
-1.331343 -0.572268 0.515620 39.000000 5 359.243902
-1.331426 -0.572029 0.366595 35.000000 3 359.243905
-1.317685 -0.565852 0.221440 26.000000 1 359.243907
-1.359128 -0.582251 1.397611 39.000000 14 359.243915
-1.343661 -0.575622 1.147921 39.000000 12 359.243918
-1.341113 -0.574530 0.942633 40.000000 10 359.243920
-1.348523 -0.577702 0.765647 45.000000 8 359.243923
-1.341955 -0.574611 0.596932 46.000000 6 359.243925
-1.336239 -0.571887 0.441276 38.000000 4 359.243928
-1.329385 -0.568680 0.293627 26.000000 2 359.243930
-1.327329 -0.567526 0.151908 33.000000 0 359.243933
-0.039705 -0.009330 3.119155 98.000000 31 359.243944
-0.449176 -0.178262 3.072643 91.000000 28 359.243946
-0.628215 -0.248401 3.271272 21.000000 27 359.243949
-0.913348 -0.381989 3.210205 42.000000 25 359.243951
-1.211162 -0.514380 3.159551 39.000000 23 359.243954
-1.385048 -0.588506 2.824017 27.000000 21 359.243956
-1.375860 -0.584599 2.268201 34.000000 19 359.243959
-1.373788 -0.583715 1.863102 36.000000 17 359.243961
-0.179023 -0.061513 3.104210 98.000000 30 359.243969
-0.315730 -0.116878 3.092031 95.000000 29 359.243972
-0.767770 -0.314775 3.230075 53.000000 26 359.243974
-1.061070 -0.448457 3.186803 40.000000 24 359.243977
-1.383415 -0.585251 3.168340 19.000000 22 359.243979
-1.384969 -0.586188 2.530118 32.000000 20 359.243982
-1.368048 -0.579023 2.041145 36.000000 18 359.243985
-1.362284 -0.576581 1.681941 37.000000 16 359.243987
-1.365137 -0.582007 1.538143 38.000000 15 359.243945
-1.356424 -0.578290 1.270936 38.000000 13 359.243947
-1.352215 -0.576217 1.048300 39.000000 11 359.243950
-1.350349 -0.575419 0.854583 40.000000 9 359.243952
-1.344284 -0.572557 0.678656 40.000000 7 359.243955
-1.337746 -0.569496 0.517029 39.000000 5 359.243958
-1.337836 -0.569534 0.367528 35.000000 3 359.243960
-1.324136 -0.563430 0.221886 26.000000 1 359.243963
-1.364489 -0.579200 1.400935 39.000000 14 359.243970
-1.349283 -0.572742 1.150865 39.000000 12 359.243973
-1.347080 -0.571529 0.945165 40.000000 10 359.243976
-1.354710 -0.574764 0.767745 45.000000 8 359.243978
-1.348300 -0.571767 0.598574 46.000000 6 359.243981
-1.342702 -0.569116 0.442448 39.000000 4 359.243983
-1.335922 -0.565968 0.294317 27.000000 2 359.243986
-1.333902 -0.564838 0.152109 33.000000 0 359.243988
-0.039738 -0.009191 3.119155 98.000000 31 359.243999
-0.449796 -0.176693 3.072643 97.000000 28 359.244002
-0.628130 -0.245836 3.266377 21.000000 27 359.244004
-0.914676 -0.378798 3.210205 42.000000 25 359.244007
-1.212950 -0.510149 3.159551 39.000000 23 359.244009
-1.391510 -0.585526 2.832794 27.000000 21 359.244012
-1.380486 -0.580884 2.272334 34.000000 19 359.244014
-1.378772 -0.580160 1.866939 36.000000 17 359.244017
-0.179236 -0.060887 3.104210 97.000000 30 359.244025
-0.316136 -0.115775 3.092031 95.000000 29 359.244027
-0.768864 -0.312093 3.230075 53.000000 26 359.244030
-1.062629 -0.444750 3.186803 39.000000 24 359.244032
-1.383441 -0.579577 3.163839 26.000000 22 359.244035
-1.391818 -0.583366 2.538650 33.000000 20 359.244038
-1.375620 -0.576574 2.049124 36.000000 18 359.244040
-1.367415 -0.573132 1.685616 37.000000 16 359.244043
-1.370446 -0.578626 1.541648 38.000000 15 359.244000
-1.362020 -0.575065 1.274074 38.000000 13 359.244003
-1.358071 -0.573119 1.051042 39.000000 11 359.244005
-1.356431 -0.572424 0.856901 40.000000 9 359.244008
-1.350546 -0.569663 0.680529 40.000000 7 359.244011
-1.344146 -0.566687 0.518438 39.000000 5 359.244013
-1.344342 -0.566769 0.368460 35.000000 3 359.244016
-1.330684 -0.560738 0.222332 26.000000 1 359.244018
-1.369945 -0.575880 1.404260 39.000000 14 359.244026
-1.358727 -0.571162 1.156751 39.000000 12 359.244029
-1.353041 -0.568494 0.947698 40.000000 10 359.244031
-1.360892 -0.571790 0.769843 45.000000 8 359.244034
-1.354642 -0.568885 0.600217 46.000000 6 359.244036
-1.349162 -0.566307 0.443621 39.000000 4 359.244039
-1.342456 -0.563217 0.295006 27.000000 2 359.244041
-1.340473 -0.562110 0.152311 33.000000 0 359.244044
-0.039770 -0.009053 3.119155 98.000000 31 359.244055
-0.450410 -0.175122 3.072643 97.000000 28 359.244057
-0.627085 -0.242908 3.256587 22.000000 27 359.244060
-0.915993 -0.375603 3.210205 43.000000 25 359.244062
-1.214723 -0.505912 3.159551 39.000000 23 359.244065
-1.397969 -0.582508 2.841572 27.000000 21 359.244067
-1.387701 -0.578226 2.280600 34.000000 19 359.244070
-1.386707 -0.577810 1.874612 36.000000 17 359.244072
-0.179448 -0.060261 3.104210 98.000000 30 359.244080
-0.316538 -0.114671 3.092031 95.000000 29 359.244083
-0.769949 -0.309408 3.230075 53.000000 26 359.244085
-1.064175 -0.441038 3.186803 39.000000 24 359.244088
-1.381433 -0.573075 3.154837 33.000000 22 359.244090
-1.398663 -0.580503 2.547182 32.000000 20 359.244093
-1.380408 -0.572924 2.053114 36.000000 18 359.244096
-1.375669 -0.570955 1.692967 37.000000 16 359.244098
-1.375748 -0.575214 1.545152 38.000000 15 359.244056
-1.367611 -0.571809 1.277212 38.000000 13 359.244058
-1.363921 -0.569987 1.053783 39.000000 11 359.244061
-1.362509 -0.569394 0.859219 40.000000 9 359.244064
-1.356804 -0.566732 0.682402 40.000000 7 359.244066
-1.350543 -0.563840 0.519847 39.000000 5 359.244069
-1.350845 -0.563966 0.369393 35.000000 3 359.244071
-1.337230 -0.558007 0.222778 26.000000 1 359.244074
-1.375394 -0.572530 1.407585 39.000000 14 359.244082
-1.364443 -0.567969 1.159694 39.000000 12 359.244084
-1.358997 -0.565423 0.950230 40.000000 10 359.244087
-1.367070 -0.568779 0.771941 45.000000 8 359.244089
-1.360980 -0.565967 0.601860 44.000000 6 359.244092
-1.355619 -0.563460 0.444793 39.000000 4 359.244094
-1.348987 -0.560427 0.295696 27.000000 2 359.244097
-1.347041 -0.559343 0.152512 33.000000 0 359.244099
-0.039801 -0.008914 3.119155 97.000000 31 359.244110
-0.451018 -0.173548 3.072643 98.000000 28 359.244113
-0.626027 -0.239989 3.246796 28.000000 27 359.244115
-0.917298 -0.372403 3.210205 42.000000 25 359.244118
-1.216482 -0.501668 3.159551 39.000000 23 359.244120
-1.404423 -0.579452 2.850349 27.000000 21 359.244123
-1.392312 -0.574452 2.284733 34.000000 19 359.244125
-1.391679 -0.574188 1.878449 36.000000 17 359.244128
-0.179657 -0.059635 3.104210 98.000000 30 359.244136
-0.316936 -0.113566 3.092031 95.000000 29 359.244138
-0.771024 -0.306718 3.230075 54.000000 26 359.244141
-1.065708 -0.437321 3.186803 39.000000 24 359.244143
-1.381410 -0.567422 3.150336 37.000000 22 359.244146
-1.405505 -0.577600 2.555714 32.000000 20 359.244149
-1.387975 -0.570394 2.061093 36.000000 18 359.244151
-1.380790 -0.567438 1.696642 37.000000 16 359.244154
-1.381042 -0.571773 1.548657 38.000000 15 359.244111
-1.373195 -0.568521 1.280350 38.000000 13 359.244114
-1.369766 -0.566821 1.056525 39.000000 11 359.244116
-1.368582 -0.566328 0.861537 40.000000 9 359.244119
-1.363058 -0.563764 0.684275 39.000000 7 359.244122
-1.356937 -0.560955 0.521256 39.000000 5 359.244124
-1.357345 -0.561124 0.370326 35.000000 3 359.244127
-1.343772 -0.555238 0.223225 26.000000 1 359.244129
-1.380837 -0.569148 1.410910 39.000000 14 359.244137
-1.370155 -0.564743 1.162637 39.000000 12 359.244140
-1.364949 -0.562318 0.952762 40.000000 10 359.244142
-1.373244 -0.565733 0.774039 45.000000 8 359.244145
-1.367314 -0.563010 0.603502 46.000000 6 359.244147
-1.362073 -0.560574 0.445965 39.000000 4 359.244150
-1.350935 -0.555715 0.295696 27.000000 2 359.244152
-1.353606 -0.556538 0.152714 33.000000 0 359.244155
-0.039832 -0.008775 3.119155 97.000000 31 359.244166
-0.451621 -0.171973 3.072643 97.000000 28 359.244168
-0.625909 -0.237442 3.241901 32.000000 27 359.244171
-0.918593 -0.369199 3.210205 40.000000 25 359.244173
-1.216417 -0.496680 3.154948 39.000000 23 359.244176
-1.408655 -0.575452 2.854738 26.000000 21 359.244178
-1.399518 -0.571717 2.292999 33.000000 19 359.244181
-1.399611 -0.571752 1.886123 36.000000 17 359.244184
-0.179864 -0.059007 3.104210 97.000000 30 359.244191
-0.317331 -0.112459 3.092031 95.000000 29 359.244194
-0.770920 -0.303564 3.225236 54.000000 26 359.244196
-1.067228 -0.433598 3.186803 40.000000 24 359.244199
-1.383383 -0.562597 3.150336 39.000000 22 359.244202
-1.412344 -0.574656 2.564246 32.000000 20 359.244204
-1.392750 -0.566681 2.065082 36.000000 18 359.244207
-1.389043 -0.565170 1.703992 37.000000 16 359.244209
-1.389629 -0.569654 1.555666 38.000000 15 359.244167
-1.382375 -0.566677 1.286625 39.000000 13 359.244169
-1.375606 -0.563622 1.059266 39.000000 11 359.244172
-1.374650 -0.563227 0.863855 40.000000 9 359.244175
-1.369308 -0.560759 0.686148 39.000000 7 359.244177
-1.363326 -0.558032 0.522666 39.000000 5 359.244180
-1.359296 -0.556382 0.370326 35.000000 3 359.244182
-1.354920 -0.554315 0.224117 26.000000 1 359.244185
-1.386273 -0.565736 1.414235 39.000000 14 359.244193
-1.375860 -0.561484 1.165580 39.000000 12 359.244195
-1.370896 -0.559179 0.955295 40.000000 10 359.244198
-1.379412 -0.562650 0.776137 45.000000 8 359.244200
-1.373644 -0.560017 0.605145 46.000000 6 359.244203
-1.368522 -0.557651 0.447138 39.000000 4 359.244205
-1.357453 -0.552864 0.296386 28.000000 2 359.244208
-1.355540 -0.551809 0.152714 33.000000 0 359.244210
-0.039862 -0.008636 3.119155 98.000000 31 359.244221
-0.452219 -0.170395 3.072643 97.000000 28 359.244224
-0.625780 -0.234899 3.237006 35.000000 27 359.244226
-0.918488 -0.365438 3.205433 42.000000 25 359.244229
-1.218143 -0.492431 3.154948 37.000000 23 359.244231
-1.415097 -0.572328 2.863515 26.000000 21 359.244234
-1.406723 -0.568938 2.301265 33.000000 19 359.244236
-1.404570 -0.568065 1.889960 36.000000 17 359.244239
-0.180069 -0.058379 3.104210 97.000000 30 359.244247
-0.317721 -0.111350 3.092031 95.000000 29 359.244249
-0.771975 -0.300871 3.225236 54.000000 26 359.244252
-1.067134 -0.429227 3.182110 40.000000 24 359.244254
-1.383318 -0.556951 3.145835 39.000000 22 359.244257
-1.419180 -0.571672 2.572778 32.000000 20 359.244260
-1.400311 -0.564068 2.073061 36.000000 18 359.244262
-1.394152 -0.561585 1.707667 37.000000 16 359.244265
-1.394914 -0.566141 1.559170 38.000000 15 359.244222
-1.387952 -0.563312 1.289763 38.000000 13 359.244225
-1.381439 -0.560388 1.062008 39.000000 11 359.244228
-1.380713 -0.560091 0.866173 40.000000 9 359.244230
-1.375553 -0.557718 0.688021 39.000000 7 359.244233
-1.369712 -0.555072 0.524075 39.000000 5 359.244235
-1.365782 -0.553479 0.371258 35.000000 3 359.244238
-1.361463 -0.551452 0.224563 26.000000 1 359.244240
-1.391702 -0.562292 1.417560 39.000000 14 359.244248
-1.381559 -0.558192 1.168524 39.000000 12 359.244251
-1.376837 -0.556004 0.957827 40.000000 10 359.244253
-1.385576 -0.559531 0.778235 47.000000 8 359.244256
-1.379969 -0.556986 0.606788 44.000000 6 359.244258
-1.374968 -0.554689 0.448310 39.000000 4 359.244261
-1.363968 -0.549974 0.297076 28.000000 2 359.244263
-1.362092 -0.548941 0.152915 33.000000 0 359.244266
-0.039892 -0.008496 3.119155 98.000000 31 359.244277
-0.452811 -0.168816 3.072643 98.000000 28 359.244279
-0.626596 -0.232713 3.237006 38.000000 27 359.244282
-0.919758 -0.362230 3.205433 43.000000 25 359.244284
-1.219855 -0.488176 3.154948 37.000000 23 359.244287
-1.421534 -0.569166 2.872293 26.000000 21 359.244289
-1.411313 -0.565070 2.305398 33.000000 19 359.244292
-1.409521 -0.564350 1.893797 36.000000 17 359.244295
-0.180272 -0.057750 3.104210 97.000000 30 359.244302
-0.318108 -0.110240 3.092031 95.000000 29 359.244305
-0.773020 -0.298175 3.225236 56.000000 26 359.244307
-1.068626 -0.425499 3.182110 40.000000 24 359.244310
-1.385254 -0.552119 3.145835 39.000000 22 359.244313
-1.426012 -0.568646 2.581310 32.000000 20 359.244315
-1.407870 -0.561410 2.081040 36.000000 18 359.244318
-1.402401 -0.559226 1.715018 37.000000 16 359.244320
-1.400191 -0.562598 1.562675 38.000000 15 359.244278
-1.393522 -0.559915 1.292901 39.000000 13 359.244280
-1.387267 -0.557121 1.064749 39.000000 11 359.244283
-1.386770 -0.556919 0.868491 40.000000 9 359.244286
-1.381793 -0.554640 0.689894 39.000000 7 359.244288
-1.376093 -0.552073 0.525484 39.000000 5 359.244291
-1.372265 -0.550537 0.372191 35.000000 3 359.244293
-1.368002 -0.548550 0.225009 26.000000 1 359.244296
-1.397123 -0.558818 1.420884 39.000000 14 359.244304
-1.387252 -0.554867 1.171467 39.000000 12 359.244306
-1.386776 -0.554396 0.962892 40.000000 10 359.244309
-1.391735 -0.556375 0.780333 47.000000 8 359.244311
-1.386291 -0.553918 0.608430 44.000000 6 359.244314
-1.381410 -0.551688 0.449482 39.000000 4 359.244316
-1.370478 -0.547045 0.297766 28.000000 2 359.244319
-1.368640 -0.546035 0.153117 33.000000 0 359.244322
-0.039922 -0.008357 3.119155 97.000000 31 359.244332
-0.453397 -0.167234 3.072643 97.000000 28 359.244335
-0.627405 -0.230524 3.237006 40.000000 27 359.244337
-0.921017 -0.359017 3.205433 42.000000 25 359.244340
-1.221551 -0.483915 3.154948 39.000000 23 359.244342
-1.427967 -0.565965 2.881070 24.000000 21 359.244345
-1.418509 -0.562214 2.313663 33.000000 19 359.244348
-1.414462 -0.560608 1.897634 36.000000 17 359.244350
-0.180472 -0.057120 3.104210 97.000000 30 359.244358
-0.318491 -0.109129 3.092031 95.000000 29 359.244360
-0.774056 -0.295475 3.225236 52.000000 26 359.244363
-1.070105 -0.421766 3.182110 40.000000 24 359.244366
-1.387172 -0.547280 3.145835 39.000000 22 359.244368
-1.432840 -0.565580 2.589841 31.000000 20 359.244371
-1.415428 -0.558705 2.089019 36.000000 18 359.244373
-1.407498 -0.555572 1.718693 37.000000 16 359.244376
-1.405460 -0.559025 1.566179 38.000000 15 359.244333
-1.402703 -0.557925 1.299176 39.000000 13 359.244336
-1.393089 -0.553820 1.067490 39.000000 11 359.244339
-1.392823 -0.553711 0.870809 40.000000 9 359.244341
-1.388029 -0.551525 0.691767 40.000000 7 359.244344
-1.378012 -0.547266 0.525484 39.000000 5 359.244346
-1.374178 -0.545744 0.372191 35.000000 3 359.244349
-1.374537 -0.545608 0.225456 27.000000 1 359.244351
-1.402538 -0.555312 1.424209 38.000000 14 359.244359
-1.392939 -0.551509 1.174410 39.000000 12 359.244362
-1.392711 -0.551138 0.965425 42.000000 10 359.244364
-1.402109 -0.554854 0.784529 47.000000 8 359.244367
-1.392607 -0.550813 0.610073 44.000000 6 359.244369
-1.387848 -0.548650 0.450655 39.000000 4 359.244372
-1.376985 -0.544078 0.298455 29.000000 2 359.244374
-1.375185 -0.543089 0.153319 33.000000 0 359.244377
-0.039950 -0.008218 3.119155 97.000000 31 359.244388
-0.453978 -0.165650 3.072643 97.000000 28 359.244390
-0.628206 -0.228333 3.237006 51.000000 27 359.244393
-0.922264 -0.355800 3.205433 43.000000 25 359.244395
-1.223233 -0.479648 3.154948 39.000000 23 359.244398
-1.434394 -0.562727 2.889847 24.000000 21 359.244400
-1.425702 -0.559315 2.321929 33.000000 19 359.244403
-1.422379 -0.558008 1.905308 36.000000 17 359.244406
-0.180671 -0.056490 3.104210 97.000000 30 359.244413
-0.318870 -0.108017 3.092031 95.000000 29 359.244416
-0.775083 -0.292771 3.225236 54.000000 26 359.244418
-1.071571 -0.418028 3.182110 40.000000 24 359.244421
-1.389074 -0.542435 3.145835 39.000000 22 359.244424
-1.439664 -0.562473 2.598373 31.000000 20 359.244426
-1.420177 -0.554857 2.093009 36.000000 18 359.244429
-1.412587 -0.551889 1.722368 37.000000 16 359.244431
-1.410721 -0.555422 1.569684 38.000000 15 359.244389
-1.408264 -0.554452 1.302314 39.000000 13 359.244392
-1.398905 -0.550485 1.070232 39.000000 11 359.244394
-1.398870 -0.550468 0.873127 40.000000 9 359.244397
-1.394260 -0.548373 0.693640 39.000000 7 359.244399
-1.384379 -0.544208 0.526893 39.000000 5 359.244402
-1.380647 -0.542741 0.373123 36.000000 3 359.244404
-1.376433 -0.540807 0.225456 27.000000 1 359.244407
-1.411421 -0.553138 1.430859 38.000000 14 359.244415
-1.398619 -0.548118 1.177353 39.000000 12 359.244417
-1.398641 -0.547845 0.967957 42.000000 10 359.244420
-1.408263 -0.551612 0.786627 47.000000 8 359.244422
-1.398919 -0.547670 0.611716 44.000000 6 359.244425
-1.394281 -0.545573 0.451827 39.000000 4 359.244427
-1.383488 -0.541072 0.299145 29.000000 2 359.244430
-1.381725 -0.540104 0.153520 33.000000 0 359.244433
-0.039979 -0.008078 3.119155 98.000000 31 359.244443
-0.453823 -0.163802 3.067703 97.000000 28 359.244446
-0.628999 -0.226139 3.237006 54.000000 27 359.244448
-0.923501 -0.352579 3.205433 42.000000 25 359.244451
-1.224900 -0.475375 3.154948 39.000000 23 359.244453
-1.443050 -0.560318 2.903013 25.000000 21 359.244456
-1.432892 -0.556372 2.330195 33.000000 19 359.244459
-1.427307 -0.554200 1.909145 36.000000 17 359.244461
-0.180867 -0.055859 3.104210 97.000000 30 359.244469
-0.319245 -0.106903 3.092031 95.000000 29 359.244471
-0.776100 -0.290064 3.225236 54.000000 26 359.244474
-1.073023 -0.414285 3.182110 39.000000 24 359.244477
-1.390959 -0.537583 3.145835 39.000000 22 359.244479
-1.446484 -0.559326 2.606905 31.000000 20 359.244482
-1.427728 -0.552071 2.100987 36.000000 18 359.244484
-1.420829 -0.549400 1.729718 36.000000 16 359.244487
-1.415974 -0.551789 1.573188 38.000000 15 359.244444
-1.413818 -0.550946 1.305452 39.000000 13 359.244447
-1.404714 -0.547116 1.072973 39.000000 11 359.244450
-1.404911 -0.547190 0.875445 40.000000 9 359.244452
-1.400486 -0.545185 0.695514 39.000000 7 359.244455
-1.390741 -0.541112 0.528302 39.000000 5 359.244457
-1.387111 -0.539699 0.374056 36.000000 3 359.244460
-1.382954 -0.537804 0.225902 27.000000 1 359.244462
-1.416825 -0.549558 1.434184 38.000000 14 359.244470
-1.404292 -0.544695 1.180296 39.000000 12 359.244473
-1.408584 -0.546077 0.973022 42.000000 10 359.244475
-1.414412 -0.548333 0.788725 48.000000 8 359.244478
-1.405225 -0.544489 0.613358 44.000000 6 359.244480
-1.400709 -0.542458 0.452999 39.000000 4 359.244483
-1.389987 -0.538027 0.299835 29.000000 2 359.244486
-1.388261 -0.537081 0.153722 33.000000 0 359.244488
-0.040007 -0.007939 3.119155 98.000000 31 359.244499
-0.454392 -0.162216 3.067703 97.000000 28 359.244501
-0.629784 -0.223942 3.237006 57.000000 27 359.244504
-0.924726 -0.349353 3.205433 43.000000 25 359.244506
-1.226552 -0.471097 3.154948 39.000000 23 359.244509
-1.449470 -0.556996 2.911790 25.000000 21 359.244512
-1.437453 -0.552376 2.334328 33.000000 19 359.244514
-1.435218 -0.551515 1.916819 36.000000 17 359.244517
-0.181061 -0.055227 3.104210 97.000000 30 359.244524
-0.319616 -0.105788 3.092031 95.000000 29 359.244527
-0.777108 -0.287353 3.225236 54.000000 26 359.244530
-1.074463 -0.410537 3.182110 39.000000 24 359.244532
-1.392827 -0.532724 3.145835 39.000000 22 359.244535
-1.450863 -0.555205 2.611171 31.000000 20 359.244537
-1.435276 -0.549238 2.108967 36.000000 18 359.244540
-1.425904 -0.545649 1.733393 37.000000 16 359.244542
-1.424546 -0.549409 1.580198 38.000000 15 359.244500
-1.422997 -0.548809 1.311728 39.000000 13 359.244503
-1.414419 -0.545217 1.078456 39.000000 11 359.244505
-1.415080 -0.545469 0.880081 40.000000 9 359.244508
-1.406707 -0.541960 0.697387 39.000000 7 359.244510
-1.397098 -0.537978 0.529711 39.000000 5 359.244513
-1.393570 -0.536619 0.374989 36.000000 3 359.244515
-1.389471 -0.534762 0.226348 27.000000 1 359.244518
-1.425707 -0.547286 1.440833 38.000000 14 359.244526
-1.413732 -0.542686 1.186182 39.000000 12 359.244528
-1.414507 -0.542701 0.975554 40.000000 10 359.244531
-1.420555 -0.545018 0.790823 47.000000 8 359.244533
-1.411527 -0.541272 0.615001 42.000000 6 359.244536
-1.407133 -0.539305 0.454171 40.000000 4 359.244538
-1.396481 -0.534943 0.300525 29.000000 2 359.244541
-1.394794 -0.534018 0.153923 33.000000 0 359.244544
-0.040034 -0.007799 3.119155 97.000000 31 359.244554
-0.454955 -0.160629 3.067703 97.000000 28 359.244557
-0.630562 -0.221742 3.237006 57.000000 27 359.244559
-0.925940 -0.346123 3.205433 43.000000 25 359.244562
-1.228189 -0.466812 3.154948 39.000000 23 359.244564
-1.458123 -0.554488 2.924956 25.000000 21 359.244567
-1.444632 -0.549355 2.342594 33.000000 19 359.244569
-1.443128 -0.548780 1.924493 35.000000 17 359.244572
-0.181252 -0.054595 3.104210 97.000000 30 359.244580
-0.319984 -0.104672 3.092031 95.000000 29 359.244582
-0.778106 -0.284638 3.225236 54.000000 26 359.244585
-1.074275 -0.406174 3.177417 39.000000 24 359.244587
-1.394678 -0.527859 3.145835 39.000000 22 359.244590
-1.457670 -0.551985 2.619703 31.000000 20 359.244592
-1.442821 -0.546359 2.116946 36.000000 18 359.244595
-1.434141 -0.543069 1.740744 37.000000 16 359.244598
-1.429787 -0.545705 1.583702 37.000000 15 359.244555
-1.428541 -0.545226 1.314865 38.000000 13 359.244558
-1.420220 -0.541767 1.081198 39.000000 11 359.244560
-1.421114 -0.542105 0.882399 40.000000 9 359.244563
-1.412922 -0.538698 0.699260 40.000000 7 359.244566
-1.403450 -0.534806 0.531121 39.000000 5 359.244568
-1.400025 -0.533501 0.375921 37.000000 3 359.244571
-1.395983 -0.531681 0.226794 28.000000 1 359.244573
-1.431100 -0.543632 1.444158 38.000000 14 359.244581
-1.419396 -0.539184 1.189126 39.000000 12 359.244584
-1.420423 -0.539290 0.978087 40.000000 10 359.244586
-1.426691 -0.541667 0.792921 50.000000 8 359.244589
-1.417823 -0.538017 0.616644 44.000000 6 359.244591
-1.413552 -0.536114 0.455344 40.000000 4 359.244594
-1.402970 -0.531821 0.301215 30.000000 2 359.244596
-1.401321 -0.530916 0.154125 33.000000 0 359.244599
-0.040061 -0.007659 3.119155 97.000000 31 359.244610
-0.455513 -0.159040 3.067703 97.000000 28 359.244612
-0.631332 -0.219539 3.237006 57.000000 27 359.244615
-0.927142 -0.342889 3.205433 42.000000 25 359.244617
-1.229811 -0.462522 3.154948 39.000000 23 359.244620
-1.464534 -0.551082 2.933734 25.000000 21 359.244622
-1.451809 -0.546291 2.350860 33.000000 19 359.244625
-1.448035 -0.544868 1.928330 36.000000 17 359.244627
-0.181442 -0.053962 3.104210 97.000000 30 359.244635
-0.319839 -0.103391 3.087059 95.000000 29 359.244638
-0.779095 -0.281920 3.225236 54.000000 26 359.244640
-1.075686 -0.402421 3.177417 40.000000 24 359.244643
-1.396513 -0.522987 3.145835 39.000000 22 359.244645
-1.464473 -0.548723 2.628235 31.000000 20 359.244648
-1.450365 -0.543434 2.124924 36.000000 18 359.244651
-1.439202 -0.539249 1.744419 37.000000 16 359.244653
-1.438356 -0.543231 1.590711 37.000000 15 359.244611
-1.434077 -0.541612 1.318003 39.000000 13 359.244613
-1.426015 -0.538283 1.083939 39.000000 11 359.244616
-1.427143 -0.538706 0.884717 40.000000 9 359.244618
-1.419131 -0.535399 0.701133 40.000000 7 359.244621
-1.414286 -0.533289 0.533939 40.000000 5 359.244624
-1.406475 -0.530344 0.376854 37.000000 3 359.244626
-1.402490 -0.528561 0.227241 25.000000 1 359.244629
-1.436485 -0.539947 1.447483 38.000000 14 359.244636
-1.425053 -0.535648 1.192069 39.000000 12 359.244639
-1.426333 -0.535845 0.980619 40.000000 10 359.244642
-1.437071 -0.539876 0.797118 48.000000 8 359.244644
-1.424113 -0.534724 0.618286 44.000000 6 359.244647
-1.419965 -0.532884 0.456516 42.000000 4 359.244649
-1.409455 -0.528659 0.301905 30.000000 2 359.244652
-1.407844 -0.527775 0.154326 32.000000 0 359.244654
-0.040088 -0.007519 3.119155 94.000000 31 359.244665
-0.456066 -0.157449 3.067703 97.000000 28 359.244668
-0.631132 -0.217004 3.232111 57.000000 27 359.244670
-0.928333 -0.339650 3.205433 42.000000 25 359.244673
-1.231418 -0.458227 3.154948 39.000000 23 359.244675
-1.473185 -0.548474 2.946900 25.000000 21 359.244678
-1.458981 -0.543184 2.359126 32.000000 19 359.244680
-1.455937 -0.542048 1.936003 36.000000 17 359.244683
-0.181629 -0.053328 3.104210 97.000000 30 359.244691
-0.320198 -0.102274 3.087059 95.000000 29 359.244693
-0.778890 -0.278776 3.220397 55.000000 26 359.244696
-1.077085 -0.398664 3.177417 40.000000 24 359.244698
-1.398329 -0.518110 3.145835 39.000000 22 359.244701
-1.468824 -0.544514 2.632501 30.000000 20 359.244704
-1.457905 -0.540464 2.132904 35.000000 18 359.244706
-1.447433 -0.536579 1.751769 37.000000 16 359.244709
-1.443584 -0.539455 1.594216 37.000000 15 359.244666
-1.439605 -0.537966 1.321141 39.000000 13 359.244669
-1.431802 -0.534765 1.086681 39.000000 11 359.244671
-1.437315 -0.536821 0.889353 40.000000 9 359.244674
-1.429678 -0.533684 0.704879 40.000000 7 359.244677
-1.420634 -0.530026 0.535348 40.000000 5 359.244679
-1.412920 -0.527148 0.377787 37.000000 3 359.244682
-1.404327 -0.523663 0.227241 25.000000 1 359.244684
-1.445361 -0.537533 1.454133 38.000000 14 359.244692
-1.434491 -0.533488 1.197955 39.000000 12 359.244695
-1.436277 -0.533867 0.985684 40.000000 10 359.244697
-1.443201 -0.536438 0.799216 50.000000 8 359.244700
-1.430398 -0.531395 0.619929 44.000000 6 359.244702
-1.426373 -0.529616 0.457688 42.000000 4 359.244705
-1.415934 -0.525459 0.302594 30.000000 2 359.244707
-1.414362 -0.524595 0.154528 32.000000 0 359.244710
-0.040157 -0.007383 3.124155 95.000000 31 359.244721
-0.456612 -0.155856 3.067703 97.000000 28 359.244723
-0.631885 -0.214799 3.232111 58.000000 27 359.244726
-0.929513 -0.336408 3.205433 43.000000 25 359.244728
-1.233010 -0.453926 3.154948 39.000000 23 359.244731
-1.481835 -0.545813 2.960066 24.000000 21 359.244733
-1.466149 -0.540033 2.367392 32.000000 19 359.244736
-1.463837 -0.539178 1.943677 35.000000 17 359.244738
-0.181814 -0.052694 3.104210 97.000000 30 359.244746
-0.320553 -0.101156 3.087059 95.000000 29 359.244749
-0.779858 -0.276055 3.220397 55.000000 26 359.244751
-1.078470 -0.394902 3.177417 40.000000 24 359.244754
-1.400130 -0.513225 3.145835 39.000000 22 359.244756
-1.475613 -0.541180 2.641033 30.000000 20 359.244759
-1.465442 -0.537447 2.140883 36.000000 18 359.244762
-1.455663 -0.533858 1.759119 37.000000 16 359.244764
-1.452148 -0.536886 1.601225 37.000000 15 359.244722
