# .PCD v.7 - Point Cloud Data file format
VERSION .7
FIELDS x y z intensity ring timestamp
SIZE 4 4 4 4 2 8
TYPE F F F F U D
COUNT 1 1 1 1 1 1
WIDTH 907
HEIGHT 1
VIEWPOINT 0 0 0 1 0 0 0
POINTS 907
DATA ascii
-0.234169 -0.233646 3.037345 96.000000 29 359.636275
-0.327916 -0.350693 1.884776 23.000000 26 359.636278
-0.576207 -0.629515 2.374954 77.000000 24 359.636281
-0.749263 -0.819137 2.358189 72.000000 22 359.636283
-0.838864 -0.917405 2.103525 36.000000 20 359.636286
-0.823480 -0.900577 1.690069 38.000000 18 359.636288
-0.812930 -0.889037 1.384253 39.000000 16 359.636291
-0.811396 -0.892037 1.264788 40.000000 15 359.636248
-0.803598 -0.883460 1.045017 42.000000 13 359.636251
-0.800687 -0.879951 0.864622 43.000000 11 359.636254
-0.797050 -0.875951 0.706229 42.000000 9 359.636256
-0.793192 -0.871404 0.564401 38.000000 7 359.636259
-0.778628 -0.855105 0.429659 28.000000 5 359.636261
-0.770589 -0.846276 0.308773 9.000000 3 359.636264
-0.771176 -0.846624 0.195560 13.000000 1 359.636266
-0.807850 -0.885340 1.148247 42.000000 14 359.636274
-0.800027 -0.876764 0.947787 48.000000 12 359.636277
-0.797595 -0.873792 0.780558 47.000000 10 359.636279
-0.799344 -0.875704 0.635568 43.000000 8 359.636282
-0.796468 -0.872248 0.500013 37.000000 6 359.636284
-0.793412 -0.868596 0.374454 17.000000 4 359.636287
-0.774920 -0.848055 0.252238 11.000000 2 359.636290
-0.788569 -0.862689 0.140824 26.000000 0 359.636292
-0.031779 -0.024585 3.049157 97.000000 31 359.636303
-0.328281 -0.340745 3.008432 96.000000 28 359.636305
-0.413402 -0.428073 2.884549 68.000000 27 359.636308
-0.573084 -0.617083 2.737805 35.000000 25 359.636310
-0.660191 -0.718738 2.358712 76.000000 23 359.636313
-0.849318 -0.924945 2.367596 36.000000 21 359.636316
-0.834082 -0.908348 1.883837 37.000000 19 359.636318
-0.825257 -0.898733 1.536961 38.000000 17 359.636321
-0.134402 -0.127057 3.029335 97.000000 30 359.636328
-0.234603 -0.232452 3.032374 96.000000 29 359.636331
-0.329138 -0.349547 1.884776 23.000000 26 359.636334
-0.579570 -0.628768 2.379647 73.000000 24 359.636336
-0.752118 -0.816517 2.358189 74.000000 22 359.636339
-0.843827 -0.916390 2.107791 37.000000 20 359.636341
-0.826618 -0.897697 1.690069 37.000000 18 359.636344
-0.816029 -0.886194 1.384253 39.000000 16 359.636346
-0.816914 -0.891829 1.268293 39.000000 15 359.636304
-0.806677 -0.880650 1.045017 44.000000 13 359.636307
-0.803754 -0.877151 0.864622 44.000000 11 359.636309
-0.800103 -0.873163 0.706229 42.000000 9 359.636312
-0.796229 -0.868630 0.564401 38.000000 7 359.636314
-0.781609 -0.852382 0.429659 29.000000 5 359.636317
-0.773538 -0.843581 0.308773 9.000000 3 359.636319
-0.777493 -0.847597 0.196006 12.000000 1 359.636322
-0.810935 -0.882515 1.148247 42.000000 14 359.636330
-0.805818 -0.876942 0.950730 48.000000 12 359.636332
-0.800641 -0.871003 0.780558 47.000000 10 359.636335
-0.805468 -0.876250 0.637666 42.000000 8 359.636337
-0.799508 -0.869462 0.500013 37.000000 6 359.636340
-0.796439 -0.865822 0.374454 17.000000 4 359.636342
-0.777875 -0.845344 0.252238 11.000000 2 359.636345
-0.791575 -0.859931 0.140824 26.000000 0 359.636348
-0.031865 -0.024474 3.049157 96.000000 31 359.636359
-0.329469 -0.339597 3.008432 96.000000 28 359.636362
-0.414894 -0.426628 2.884549 68.000000 27 359.636364
-0.576255 -0.616169 2.742576 36.000000 25 359.636367
-0.662696 -0.716429 2.358712 75.000000 23 359.636369
-0.854168 -0.923733 2.371985 35.000000 21 359.636372
-0.837248 -0.905431 1.883837 38.000000 19 359.636374
-0.828389 -0.895847 1.536961 38.000000 17 359.636377
-0.134823 -0.126611 3.029335 97.000000 30 359.636385
-0.235373 -0.231673 3.032374 96.000000 29 359.636387
-0.330296 -0.348453 1.884776 23.000000 26 359.636390
-0.581652 -0.626843 2.379647 73.000000 24 359.636392
-0.754963 -0.813887 2.358189 74.000000 22 359.636395
-0.847021 -0.913439 2.107791 36.000000 20 359.636397
-0.831796 -0.897016 1.694059 38.000000 18 359.636400
-0.821268 -0.885969 1.387928 39.000000 16 359.636403
-0.820022 -0.888972 1.268293 40.000000 15 359.636360
-0.809746 -0.877829 1.045017 44.000000 13 359.636363
-0.809647 -0.877413 0.867363 44.000000 11 359.636365
-0.806150 -0.873621 0.708547 42.000000 9 359.636368
-0.799105 -0.865985 0.564401 37.000000 7 359.636371
-0.784431 -0.849786 0.429659 29.000000 5 359.636373
-0.776478 -0.840876 0.308773 9.000000 3 359.636376
-0.780447 -0.844878 0.196006 13.000000 1 359.636378
-0.814011 -0.879679 1.148247 44.000000 14 359.636386
-0.808874 -0.874124 0.950730 50.000000 12 359.636389
-0.803524 -0.868343 0.780558 47.000000 10 359.636391
-0.808369 -0.873574 0.637666 42.000000 8 359.636394
-0.805595 -0.870272 0.501656 37.000000 6 359.636396
-0.799306 -0.863176 0.374454 17.000000 4 359.636399
-0.784040 -0.846393 0.252928 11.000000 2 359.636401
-0.794423 -0.857302 0.140824 27.000000 0 359.636404
-0.031946 -0.024369 3.049157 96.000000 31 359.636415
-0.330593 -0.338503 3.008432 96.000000 28 359.636417
-0.416306 -0.425250 2.884549 68.000000 27 359.636420
-0.579319 -0.615342 2.747348 35.000000 25 359.636422
-0.665068 -0.714227 2.358712 75.000000 23 359.636425
-0.857227 -0.920896 2.371985 35.000000 21 359.636427
-0.842163 -0.904709 1.887970 38.000000 19 359.636430
-0.833539 -0.895442 1.540798 38.000000 17 359.636432
-0.135477 -0.126336 3.034327 97.000000 30 359.636440
-0.236180 -0.230850 3.032374 96.000000 29 359.636443
-0.332379 -0.348208 1.889615 23.000000 26 359.636445
-0.583836 -0.624809 2.379647 73.000000 24 359.636448
-0.757658 -0.811379 2.358189 74.000000 22 359.636450
-0.851825 -0.912531 2.112057 36.000000 20 359.636453
-0.834766 -0.894253 1.694059 38.000000 18 359.636456
-0.824355 -0.883097 1.387928 39.000000 16 359.636458
-0.822966 -0.886248 1.268293 40.000000 15 359.636416
-0.815302 -0.877991 1.048154 45.000000 13 359.636418
-0.812552 -0.874724 0.867363 44.000000 11 359.636421
-0.809043 -0.870943 0.708547 42.000000 9 359.636423
-0.802123 -0.863191 0.564401 37.000000 7 359.636426
-0.790659 -0.850556 0.431068 29.000000 5 359.636429
-0.779262 -0.838296 0.308773 9.000000 3 359.636431
-0.783245 -0.842286 0.196006 11.000000 1 359.636434
-0.816924 -0.876975 1.148247 44.000000 14 359.636441
-0.811768 -0.871437 0.950730 50.000000 12 359.636444
-0.806551 -0.865533 0.780558 45.000000 10 359.636447
-0.811413 -0.870747 0.637666 42.000000 8 359.636449
-0.808628 -0.867454 0.501656 37.000000 6 359.636452
-0.802314 -0.860380 0.374454 17.000000 4 359.636454
-0.786989 -0.843651 0.252928 11.000000 2 359.636457
-0.797410 -0.854523 0.140824 25.000000 0 359.636459
-0.032030 -0.024257 3.049157 95.000000 31 359.636470
-0.332318 -0.337900 3.013371 96.000000 28 359.636473
-0.417788 -0.423794 2.884549 68.000000 27 359.636475
-0.582491 -0.614400 2.752120 35.000000 25 359.636478
-0.666221 -0.710477 2.354109 75.000000 23 359.636480
-0.862075 -0.919646 2.376374 35.000000 21 359.636483
-0.845316 -0.901764 1.887970 38.000000 19 359.636485
-0.836660 -0.892527 1.540798 38.000000 17 359.636488
-0.135917 -0.125862 3.034327 96.000000 30 359.636496
-0.236984 -0.230024 3.032374 96.000000 29 359.636498
-0.333592 -0.347045 1.889615 23.000000 26 359.636501
-0.586014 -0.622767 2.379647 75.000000 24 359.636503
-0.760486 -0.808729 2.358189 72.000000 22 359.636506
-0.855005 -0.909552 2.112057 36.000000 20 359.636509
-0.839947 -0.893530 1.698048 38.000000 18 359.636511
-0.827433 -0.880214 1.387928 39.000000 16 359.636514
-0.826054 -0.883370 1.268293 39.000000 15 359.636471
-0.818362 -0.875140 1.048154 45.000000 13 359.636474
-0.815600 -0.871882 0.867363 44.000000 11 359.636476
-0.812078 -0.868113 0.708547 42.000000 9 359.636479
-0.805131 -0.860385 0.564401 37.000000 7 359.636482
-0.793623 -0.847791 0.431068 29.000000 5 359.636484
-0.782184 -0.835571 0.308773 9.000000 3 359.636487
-0.789584 -0.843181 0.196452 11.000000 1 359.636489
-0.822535 -0.876841 1.151572 44.000000 14 359.636497
-0.817571 -0.871546 0.953673 48.000000 12 359.636500
-0.812517 -0.865856 0.783090 45.000000 10 359.636502
-0.814448 -0.867910 0.637666 42.000000 8 359.636505
-0.811651 -0.864627 0.501656 37.000000 6 359.636507
-0.805313 -0.857574 0.374454 18.000000 4 359.636510
-0.789929 -0.840899 0.252928 11.000000 2 359.636512
-0.803809 -0.855375 0.141025 25.000000 0 359.636515
-0.032115 -0.024145 3.049157 95.000000 31 359.636526
-0.333495 -0.336738 3.013371 96.000000 28 359.636528
-0.419265 -0.422333 2.884549 68.000000 27 359.636531
-0.584632 -0.612363 2.752120 35.000000 25 359.636533
-0.668697 -0.708147 2.354109 75.000000 23 359.636536
-0.865279 -0.916631 2.376374 35.000000 21 359.636538
-0.850390 -0.900854 1.892103 37.000000 19 359.636541
-0.841971 -0.891932 1.544635 39.000000 17 359.636543
-0.136356 -0.125387 3.034327 96.000000 30 359.636551
-0.238171 -0.229565 3.037345 96.000000 29 359.636554
-0.335677 -0.346782 1.894454 23.000000 26 359.636556
-0.588184 -0.620718 2.379647 75.000000 24 359.636559
-0.763304 -0.806069 2.358189 72.000000 22 359.636561
-0.859968 -0.908456 2.116323 36.000000 20 359.636564
-0.843061 -0.890592 1.698048 37.000000 18 359.636567
-0.832831 -0.879782 1.391603 39.000000 16 359.636569
-0.829133 -0.880481 1.268293 39.000000 15 359.636527
-0.824080 -0.875112 1.051292 45.000000 13 359.636529
-0.818639 -0.869030 0.867363 44.000000 11 359.636532
-0.818141 -0.868498 0.710865 42.000000 9 359.636535
-0.808129 -0.857570 0.564401 37.000000 7 359.636537
-0.796577 -0.845015 0.431068 29.000000 5 359.636540
-0.785096 -0.832836 0.308773 9.000000 3 359.636542
-0.792522 -0.840420 0.196452 12.000000 1 359.636545
-0.825590 -0.873965 1.151572 42.000000 14 359.636553
-0.820608 -0.868687 0.953673 48.000000 12 359.636555
-0.815535 -0.863014 0.783090 47.000000 10 359.636558
-0.820590 -0.868360 0.639764 42.000000 8 359.636560
-0.814664 -0.861788 0.501656 37.000000 6 359.636563
-0.808301 -0.854758 0.374454 18.000000 4 359.636565
-0.792860 -0.838136 0.252928 11.000000 2 359.636568
-0.806790 -0.852564 0.141025 26.000000 0 359.636570
-0.032199 -0.024033 3.049157 96.000000 31 359.636581
-0.334669 -0.335572 3.013371 95.000000 28 359.636584
-0.421457 -0.421586 2.889445 68.000000 27 359.636586
-0.587801 -0.611395 2.756891 35.000000 25 359.636589
-0.671165 -0.705808 2.354109 75.000000 23 359.636591
-0.870124 -0.915341 2.380762 35.000000 21 359.636594
-0.853529 -0.897880 1.892103 37.000000 19 359.636596
-0.845079 -0.888988 1.544635 38.000000 17 359.636599
-0.136792 -0.124910 3.034327 96.000000 30 359.636607
-0.238971 -0.228733 3.037345 96.000000 29 359.636609
-0.336885 -0.345608 1.894454 23.000000 26 359.636612
-0.590347 -0.618661 2.379647 75.000000 24 359.636614
-0.766113 -0.803400 2.358189 72.000000 22 359.636617
-0.864933 -0.907337 2.120589 36.000000 20 359.636620
-0.848244 -0.889825 1.702038 38.000000 18 359.636622
-0.835897 -0.876870 1.391603 39.000000 16 359.636625
-0.832201 -0.877581 1.268293 39.000000 15 359.636582
-0.827130 -0.872230 1.051292 44.000000 13 359.636585
-0.821667 -0.866167 0.867363 44.000000 11 359.636587
-0.821168 -0.865637 0.710865 42.000000 9 359.636590
-0.814309 -0.858106 0.566274 37.000000 7 359.636593
-0.799522 -0.842230 0.431068 30.000000 5 359.636595
-0.791380 -0.833653 0.309705 9.000000 3 359.636598
-0.795451 -0.837649 0.196452 12.000000 1 359.636600
-0.828636 -0.871078 1.151572 42.000000 14 359.636608
-0.823635 -0.865817 0.953673 48.000000 12 359.636611
-0.821514 -0.863285 0.785622 47.000000 10 359.636613
-0.823616 -0.865490 0.639764 42.000000 8 359.636616
-0.817667 -0.858939 0.501656 38.000000 6 359.636618
-0.811280 -0.851932 0.374454 18.000000 4 359.636621
-0.799196 -0.838949 0.253617 11.000000 2 359.636623
-0.813208 -0.853360 0.141227 26.000000 0 359.636626
-0.032283 -0.023920 3.049157 96.000000 31 359.636637
-0.335838 -0.334402 3.013371 95.000000 28 359.636639
-0.422926 -0.420113 2.889445 68.000000 27 359.636642
-0.589932 -0.609340 2.756891 35.000000 25 359.636644
-0.674976 -0.704872 2.358712 76.000000 23 359.636647
-0.873314 -0.912298 2.380762 35.000000 21 359.636649
-0.858604 -0.896928 1.896236 37.000000 19 359.636652
-0.850394 -0.888348 1.548472 38.000000 17 359.636655
-0.137228 -0.124432 3.034327 97.000000 30 359.636662
-0.239768 -0.227897 3.037345 96.000000 29 359.636665
-0.338971 -0.345328 1.899294 23.000000 26 359.636667
-0.592503 -0.616596 2.379647 75.000000 24 359.636670
-0.768913 -0.800721 2.358189 72.000000 22 359.636673
-0.869901 -0.906193 2.124855 36.000000 20 359.636675
-0.851345 -0.886859 1.702038 38.000000 18 359.636678
-0.838953 -0.873946 1.391603 39.000000 16 359.636680
-0.835259 -0.874671 1.268293 39.000000 15 359.636638
-0.832858 -0.872153 1.054430 44.000000 13 359.636640
-0.827574 -0.866317 0.870105 44.000000 11 359.636643
-0.824185 -0.862765 0.710865 40.000000 9 359.636646
-0.817299 -0.855259 0.566274 37.000000 7 359.636648
-0.802457 -0.839434 0.431068 30.000000 5 359.636651
-0.794285 -0.830885 0.309705 9.000000 3 359.636653
-0.798370 -0.834867 0.196452 12.000000 1 359.636656
-0.831672 -0.868180 1.151572 44.000000 14 359.636664
-0.829449 -0.865856 0.956616 48.000000 12 359.636666
-0.824523 -0.860413 0.785622 47.000000 10 359.636669
-0.829772 -0.865887 0.641862 43.000000 8 359.636671
-0.823929 -0.859489 0.503299 38.000000 6 359.636674
-0.814249 -0.849094 0.374454 18.000000 4 359.636676
-0.802120 -0.836155 0.253617 11.000000 2 359.636679
-0.816182 -0.850516 0.141227 26.000000 0 359.636681
-0.032366 -0.023807 3.049157 96.000000 31 359.636692
-0.337003 -0.333228 3.013371 96.000000 28 359.636695
-0.424390 -0.418634 2.889445 68.000000 27 359.636697
-0.593098 -0.608346 2.761663 35.000000 25 359.636700
-0.677432 -0.702512 2.358712 76.000000 23 359.636702
-0.878156 -0.910969 2.385151 35.000000 21 359.636705
-0.861730 -0.893926 1.896236 37.000000 19 359.636707
-0.853490 -0.885374 1.548472 38.000000 17 359.636710
-0.137661 -0.123952 3.034327 97.000000 30 359.636718
-0.240562 -0.227059 3.037345 96.000000 29 359.636720
-0.341059 -0.345037 1.904133 22.000000 26 359.636723
-0.594652 -0.614524 2.379647 73.000000 24 359.636725
-0.771703 -0.798032 2.358189 72.000000 22 359.636728
-0.873059 -0.903151 2.124855 36.000000 20 359.636731
-0.856530 -0.886049 1.706027 38.000000 18 359.636733
-0.844355 -0.873450 1.395278 39.000000 16 359.636736
-0.838307 -0.871750 1.268293 39.000000 15 359.636693
-0.835897 -0.869240 1.054430 44.000000 13 359.636696
-0.830593 -0.863423 0.870105 44.000000 11 359.636699
-0.827191 -0.859883 0.710865 40.000000 9 359.636701
-0.823494 -0.855741 0.568147 38.000000 7 359.636704
-0.808710 -0.840084 0.432477 30.000000 5 359.636706
-0.800587 -0.831646 0.310638 9.000000 3 359.636709
-0.801280 -0.832075 0.196452 12.000000 1 359.636711
-0.837290 -0.867959 1.154897 42.000000 14 359.636719
-0.832466 -0.862955 0.956616 48.000000 12 359.636722
-0.830515 -0.860632 0.788155 47.000000 10 359.636724
-0.832790 -0.862985 0.641862 42.000000 8 359.636727
-0.826924 -0.856607 0.503299 38.000000 6 359.636729
-0.817208 -0.846247 0.374454 18.000000 4 359.636732
-0.805034 -0.833350 0.253617 10.000000 2 359.636734
-0.822617 -0.851254 0.141428 26.000000 0 359.636737
-0.032449 -0.023694 3.049157 96.000000 31 359.636748
-0.338164 -0.332049 3.013371 96.000000 28 359.636750
-0.425849 -0.417150 2.889445 68.000000 27 359.636753
-0.595218 -0.606272 2.761663 34.000000 25 359.636755
-0.679880 -0.700143 2.358712 75.000000 23 359.636758
-0.881331 -0.907898 2.385151 34.000000 21 359.636760
-0.866805 -0.892931 1.900369 37.000000 19 359.636763
-0.858808 -0.884690 1.552309 38.000000 17 359.636766
-0.138093 -0.123471 3.034327 97.000000 30 359.636773
-0.241353 -0.226218 3.037345 96.000000 29 359.636776
-0.342261 -0.343844 1.904133 22.000000 26 359.636778
-0.596793 -0.612445 2.379647 73.000000 24 359.636781
-0.774484 -0.795334 2.358189 72.000000 22 359.636784
-0.878026 -0.901967 2.129121 36.000000 20 359.636786
-0.859618 -0.883054 1.706027 38.000000 18 359.636789
-0.847398 -0.870497 1.395278 39.000000 16 359.636791
-0.843826 -0.871381 1.271798 39.000000 15 359.636749
-0.841635 -0.869114 1.057568 44.000000 13 359.636751
-0.833602 -0.860518 0.870105 44.000000 11 359.636754
-0.833270 -0.860172 0.713183 42.000000 9 359.636757
-0.826476 -0.852861 0.568147 38.000000 7 359.636759
-0.811637 -0.837256 0.432477 30.000000 5 359.636762
-0.806905 -0.832374 0.311570 9.000000 3 359.636764
-0.804179 -0.829273 0.196452 12.000000 1 359.636767
-0.840314 -0.865031 1.154897 42.000000 14 359.636775
-0.838290 -0.862943 0.959559 48.000000 12 359.636777
-0.833514 -0.857727 0.788155 47.000000 10 359.636780
-0.838960 -0.863328 0.643960 43.000000 8 359.636782
-0.829909 -0.853716 0.503299 38.000000 6 359.636785
-0.820157 -0.843389 0.374454 18.000000 4 359.636787
-0.807938 -0.830534 0.253617 10.000000 2 359.636790
-0.825584 -0.848378 0.141428 26.000000 0 359.636793
-0.032531 -0.023581 3.049157 96.000000 31 359.636803
-0.339321 -0.330867 3.013371 96.000000 28 359.636806
-0.427302 -0.415661 2.889445 68.000000 27 359.636808
-0.598381 -0.605252 2.766435 34.000000 25 359.636811
-0.682320 -0.697765 2.358712 75.000000 23 359.636813
-0.884494 -0.904816 2.385151 31.000000 21 359.636816
-0.869917 -0.889900 1.900369 37.000000 19 359.636819
-0.861891 -0.881687 1.552309 38.000000 17 359.636821
-0.138305 -0.122797 3.029335 96.000000 30 359.636829
-0.241750 -0.225011 3.032374 96.000000 29 359.636831
-0.344350 -0.343535 1.908972 22.000000 26 359.636834
-0.598928 -0.610358 2.379647 73.000000 24 359.636837
-0.777256 -0.792625 2.358189 72.000000 22 359.636839
-0.881169 -0.898897 2.129121 36.000000 20 359.636842
-0.864805 -0.882200 1.710017 38.000000 18 359.636844
-0.850432 -0.867534 1.395278 39.000000 16 359.636847
-0.846863 -0.868430 1.271798 39.000000 15 359.636804
-0.844663 -0.866171 1.057568 44.000000 13 359.636807
-0.836600 -0.857603 0.870105 44.000000 11 359.636810
-0.836268 -0.857258 0.713183 42.000000 9 359.636812
-0.829448 -0.849971 0.568147 39.000000 7 359.636815
-0.814555 -0.834417 0.432477 30.000000 5 359.636817
-0.809805 -0.829552 0.311570 9.000000 3 359.636820
-0.807069 -0.826461 0.196452 12.000000 1 359.636822
-0.845940 -0.864762 1.158221 42.000000 14 359.636830
-0.841297 -0.860012 0.959559 48.000000 12 359.636833
-0.836503 -0.854813 0.788155 47.000000 10 359.636835
-0.841968 -0.860394 0.643960 43.000000 8 359.636838
-0.832884 -0.850814 0.503299 38.000000 6 359.636840
-0.823096 -0.840521 0.374454 18.000000 4 359.636843
-0.810832 -0.827709 0.253617 11.000000 2 359.636845
-0.828540 -0.845490 0.141428 26.000000 0 359.636848
-0.032576 -0.023445 3.044158 96.000000 31 359.636859
-0.340474 -0.329680 3.013371 96.000000 28 359.636861
-0.428751 -0.414167 2.889445 68.000000 27 359.636864
-0.600490 -0.603160 2.766435 34.000000 25 359.636866
-0.684751 -0.695379 2.358712 76.000000 23 359.636869
-0.887648 -0.901723 2.385151 25.000000 21 359.636871
-0.874992 -0.888864 1.904502 37.000000 19 359.636874
-0.867213 -0.880958 1.556146 38.000000 17 359.636877
-0.138733 -0.122313 3.029335 96.000000 30 359.636884
-0.242533 -0.224166 3.032374 96.000000 29 359.636887
-0.345547 -0.342331 1.908972 22.000000 26 359.636889
-0.601055 -0.608264 2.379647 71.000000 24 359.636892
-0.780018 -0.789907 2.358189 72.000000 22 359.636895
-0.886134 -0.897671 2.133386 36.000000 20 359.636897
-0.867879 -0.879176 1.710017 38.000000 18 359.636900
-0.855836 -0.866973 1.398953 39.000000 16 359.636902
-0.852388 -0.868013 1.275302 39.000000 15 359.636860
-0.847681 -0.863217 1.057568 45.000000 13 359.636863
-0.842519 -0.857660 0.872846 44.000000 11 359.636865
-0.839255 -0.854334 0.713183 40.000000 9 359.636868
-0.835660 -0.850377 0.570020 39.000000 7 359.636870
-0.820825 -0.834990 0.433886 30.000000 5 359.636873
-0.816140 -0.830223 0.312503 10.000000 3 359.636875
-0.813441 -0.827189 0.196898 13.000000 1 359.636878
-0.848954 -0.861804 1.158221 44.000000 14 359.636886
-0.844294 -0.857070 0.959559 48.000000 12 359.636888
-0.839482 -0.851887 0.788155 47.000000 10 359.636891
-0.844967 -0.857450 0.643960 43.000000 8 359.636893
-0.835849 -0.847901 0.503299 38.000000 6 359.636896
-0.826025 -0.837643 0.374454 19.000000 4 359.636898
-0.813716 -0.824874 0.253617 11.000000 2 359.636901
-0.831487 -0.842593 0.141428 26.000000 0 359.636904
-0.032657 -0.023331 3.044158 97.000000 31 359.636914
-0.341623 -0.328490 3.013371 96.000000 28 359.636917
-0.430194 -0.412668 2.889445 70.000000 27 359.636919
-0.603649 -0.602115 2.771207 34.000000 25 359.636922
-0.687174 -0.692985 2.358712 70.000000 23 359.636924
-0.890790 -0.898619 2.385151 18.000000 21 359.636927
-0.880070 -0.887802 1.908634 37.000000 19 359.636930
-0.870283 -0.877925 1.556146 38.000000 17 359.636932
-0.139159 -0.121828 3.029335 97.000000 30 359.636940
-0.243315 -0.223318 3.032374 96.000000 29 359.636942
-0.347637 -0.342005 1.913811 22.000000 26 359.636945
-0.603174 -0.606162 2.379647 71.000000 24 359.636948
-0.782770 -0.787180 2.358189 72.000000 22 359.636950
-0.889262 -0.894572 2.133386 36.000000 20 359.636953
-0.873068 -0.878279 1.714006 38.000000 18 359.636955
-0.858858 -0.863980 1.398953 39.000000 16 359.636958
-0.857920 -0.867568 1.278807 39.000000 15 359.636915
-0.850689 -0.860253 1.057568 45.000000 13 359.636918
-0.845508 -0.854714 0.872846 44.000000 11 359.636921
-0.845348 -0.854549 0.715501 40.000000 9 359.636923
-0.838623 -0.847455 0.570020 39.000000 7 359.636926
-0.823735 -0.832120 0.433886 30.000000 5 359.636928
-0.819033 -0.827369 0.312503 10.000000 3 359.636931
-0.816323 -0.824345 0.196898 12.000000 1 359.636933
-0.851957 -0.858835 1.158221 42.000000 14 359.636941
-0.847280 -0.854117 0.959559 48.000000 12 359.636944
-0.842450 -0.848952 0.788155 45.000000 10 359.636946
-0.851151 -0.857717 0.646058 43.000000 8 359.636949
-0.838803 -0.844978 0.503299 38.000000 6 359.636951
-0.828943 -0.834755 0.374454 19.000000 4 359.636954
-0.816591 -0.822028 0.253617 11.000000 2 359.636957
-0.837944 -0.843229 0.141630 26.000000 0 359.636959
-0.032739 -0.023217 3.044158 97.000000 31 359.636970
-0.342767 -0.327295 3.013371 97.000000 28 359.636972
-0.431632 -0.411163 2.889445 70.000000 27 359.636975
-0.606809 -0.601055 2.775978 34.000000 25 359.636977
-0.689589 -0.690582 2.358712 70.000000 23 359.636980
-0.893921 -0.895504 2.385151 15.000000 21 359.636983
-0.883164 -0.884725 1.908634 37.000000 19 359.636985
-0.873342 -0.874882 1.556146 38.000000 17 359.636988
-0.139584 -0.121342 3.029335 97.000000 30 359.636995
-0.244093 -0.222467 3.032374 96.000000 29 359.636998
-0.348829 -0.340789 1.913811 23.000000 26 359.637001
-0.605286 -0.604053 2.379647 73.000000 24 359.637003
-0.785513 -0.784443 2.358189 72.000000 22 359.637006
-0.894224 -0.893306 2.137652 36.000000 20 359.637008
-0.878260 -0.877356 1.717996 38.000000 18 359.637011
-0.864267 -0.863373 1.402629 39.000000 16 359.637013
-0.860943 -0.864568 1.278807 39.000000 15 359.636971
-0.856434 -0.860036 1.060705 45.000000 13 359.636974
-0.851437 -0.854720 0.875588 44.000000 11 359.636976
-0.848325 -0.851593 0.715501 42.000000 9 359.636979
-0.841576 -0.844522 0.570020 39.000000 7 359.636981
-0.830022 -0.832637 0.435295 30.000000 5 359.636984
-0.821916 -0.824505 0.312503 10.000000 3 359.636986
-0.822712 -0.825017 0.197344 12.000000 1 359.636989
-0.857589 -0.858498 1.161546 42.000000 14 359.636997
-0.853113 -0.854014 0.962502 48.000000 12 359.636999
-0.845408 -0.846006 0.788155 45.000000 10 359.637002
-0.854140 -0.854740 0.646058 42.000000 8 359.637004
-0.841748 -0.842045 0.503299 38.000000 6 359.637007
-0.831852 -0.831856 0.374454 19.000000 4 359.637009
-0.819455 -0.819173 0.253617 11.000000 2 359.637012
-0.840883 -0.840299 0.141630 26.000000 0 359.637015
-0.032820 -0.023103 3.044158 97.000000 31 359.637025
-0.343908 -0.326097 3.013371 97.000000 28 359.637028
-0.433064 -0.409654 2.889445 68.000000 27 359.637030
-0.609968 -0.599980 2.780750 34.000000 25 359.637033
-0.691996 -0.688170 2.358712 76.000000 23 359.637035
-0.895343 -0.890689 2.380762 13.000000 21 359.637038
-0.888242 -0.883621 1.912768 37.000000 19 359.637040
-0.878663 -0.874089 1.559983 38.000000 17 359.637043
-0.140006 -0.120854 3.029335 97.000000 30 359.637051
-0.244868 -0.221614 3.032374 96.000000 29 359.637053
-0.350919 -0.340445 1.918650 23.000000 26 359.637056
-0.608617 -0.603151 2.384340 74.000000 24 359.637058
-0.788247 -0.781696 2.358189 72.000000 22 359.637061
-0.899188 -0.892016 2.141918 36.000000 20 359.637063
-0.881318 -0.874285 1.717996 38.000000 18 359.637066
-0.867275 -0.860351 1.402629 39.000000 16 359.637069
-0.866481 -0.864076 1.282311 39.000000 15 359.637026
-0.859431 -0.857042 1.060705 45.000000 13 359.637029
-0.854416 -0.851743 0.875588 44.000000 11 359.637031
-0.851293 -0.848626 0.715501 42.000000 9 359.637034
-0.847803 -0.844852 0.571893 39.000000 7 359.637037
-0.832923 -0.829734 0.435295 31.000000 5 359.637039
-0.828269 -0.825098 0.313436 10.000000 3 359.637042
-0.825587 -0.822140 0.197344 12.000000 1 359.637044
-0.860580 -0.855499 1.161546 42.000000 14 359.637052
-0.856089 -0.851031 0.962502 46.000000 12 359.637055
-0.848356 -0.843050 0.788155 47.000000 10 359.637057
-0.857119 -0.851754 0.646058 43.000000 8 359.637060
-0.844682 -0.839102 0.503299 38.000000 6 359.637062
-0.834751 -0.828947 0.374454 19.000000 4 359.637065
-0.825824 -0.819796 0.254307 11.000000 2 359.637067
-0.843810 -0.837359 0.141630 26.000000 0 359.637070
-0.032900 -0.022988 3.044158 97.000000 31 359.637081
-0.345044 -0.324894 3.013371 97.000000 28 359.637083
-0.434492 -0.408140 2.889445 68.000000 27 359.637086
-0.613127 -0.598891 2.785522 34.000000 25 359.637088
-0.694394 -0.685751 2.358712 76.000000 23 359.637091
-0.898447 -0.887558 2.380762 13.000000 21 359.637093
-0.891321 -0.880516 1.912768 37.000000 19 359.637096
-0.881709 -0.871017 1.559983 38.000000 17 359.637098
-0.140406 -0.120389 3.029335 97.000000 30 359.637106
-0.245601 -0.220800 3.032374 96.000000 29 359.637109
-0.352952 -0.340152 1.923490 22.000000 26 359.637111
-0.610614 -0.601129 2.384340 72.000000 24 359.637114
-0.790970 -0.778940 2.358189 72.000000 22 359.637116
-0.904154 -0.890702 2.146184 36.000000 20 359.637119
-0.886511 -0.873318 1.721985 38.000000 18 359.637122
-0.872538 -0.859850 1.406304 39.000000 16 359.637124
-0.869492 -0.861046 1.282311 39.000000 15 359.637082
-0.862417 -0.854036 1.060705 45.000000 13 359.637084
-0.857384 -0.848755 0.875588 44.000000 11 359.637087
-0.857399 -0.848766 0.717819 40.000000 9 359.637089
-0.850600 -0.842036 0.571893 39.000000 7 359.637092
-0.835670 -0.826968 0.435295 30.000000 5 359.637095
-0.831144 -0.822202 0.313436 10.000000 3 359.637097
-0.828452 -0.819253 0.197344 12.000000 1 359.637100
-0.866219 -0.855114 1.164871 42.000000 14 359.637107
-0.859054 -0.848038 0.962502 48.000000 12 359.637110
-0.854215 -0.843261 0.790687 45.000000 10 359.637113
-0.859938 -0.848907 0.646058 45.000000 8 359.637115
-0.847460 -0.836296 0.503299 38.000000 6 359.637118
-0.840955 -0.829588 0.375626 19.000000 4 359.637120
-0.828538 -0.817053 0.254307 10.000000 2 359.637123
-0.850141 -0.838063 0.141831 25.000000 0 359.637125
-0.033014 -0.022900 3.049157 96.000000 31 359.637136
-0.346120 -0.323748 3.013371 97.000000 28 359.637139
-0.435843 -0.406697 2.889445 70.000000 27 359.637141
-0.616182 -0.597894 2.790294 34.000000 25 359.637144
-0.696664 -0.683444 2.358712 76.000000 23 359.637146
-0.901385 -0.884574 2.380762 14.000000 21 359.637149
-0.896244 -0.879526 1.916900 37.000000 19 359.637151
-0.886881 -0.870333 1.563820 38.000000 17 359.637154
-0.140826 -0.119898 3.029335 97.000000 30 359.637162
-0.246769 -0.220296 3.037345 96.000000 29 359.637164
-0.354138 -0.338918 1.923490 22.000000 26 359.637167
-0.612708 -0.598994 2.384340 72.000000 24 359.637169
-0.793549 -0.776312 2.358189 72.000000 22 359.637172
-0.908967 -0.889523 2.150450 36.000000 20 359.637175
-0.889402 -0.870374 1.721985 38.000000 18 359.637177
-0.875534 -0.856799 1.406304 39.000000 16 359.637180
-0.874885 -0.860659 1.285816 39.000000 15 359.637137
-0.868020 -0.853902 1.063843 44.000000 13 359.637140
-0.863175 -0.848839 0.878329 44.000000 11 359.637142
-0.860208 -0.845919 0.717819 40.000000 9 359.637145
-0.853534 -0.839062 0.571893 39.000000 7 359.637148
-0.841973 -0.827408 0.436705 30.000000 5 359.637150
-0.833866 -0.819441 0.313436 10.000000 3 359.637153
-0.831164 -0.816501 0.197344 13.000000 1 359.637155
-0.869050 -0.852237 1.164871 42.000000 14 359.637163
-0.864748 -0.848014 0.965446 48.000000 12 359.637166
-0.857154 -0.840274 0.790687 45.000000 10 359.637168
-0.866137 -0.849077 0.648156 45.000000 8 359.637171
-0.853747 -0.836638 0.504941 37.000000 6 359.637173
-0.843846 -0.826647 0.375626 19.000000 4 359.637176
-0.834923 -0.817621 0.254997 10.000000 2 359.637178
-0.853061 -0.835091 0.141831 25.000000 0 359.637181
-0.033094 -0.022785 3.049157 96.000000 31 359.637192
-0.347247 -0.322538 3.013371 96.000000 28 359.637194
-0.437260 -0.405173 2.889445 70.000000 27 359.637197
-0.619341 -0.596776 2.795065 34.000000 25 359.637199
-0.699045 -0.681008 2.358712 75.000000 23 359.637202
-0.902751 -0.879750 2.376374 16.000000 21 359.637204
-0.901325 -0.878356 1.921033 37.000000 19 359.637207
-0.889913 -0.867232 1.563820 38.000000 17 359.637209
-0.141243 -0.119406 3.029335 97.000000 30 359.637217
-0.247537 -0.219434 3.037345 96.000000 29 359.637220
-0.356231 -0.338545 1.928329 22.000000 26 359.637222
-0.614796 -0.596852 2.384340 72.000000 24 359.637225
-0.796254 -0.773538 2.358189 72.000000 22 359.637227
-0.913937 -0.888162 2.154716 36.000000 20 359.637230
-0.892435 -0.867264 1.721985 38.000000 18 359.637233
-0.880951 -0.856100 1.409979 39.000000 16 359.637235
-0.877884 -0.857599 1.285816 39.000000 15 359.637193
-0.870995 -0.850867 1.063843 44.000000 13 359.637195
-0.866132 -0.845821 0.878329 44.000000 11 359.637198
-0.863156 -0.842911 0.717819 42.000000 9 359.637201
-0.856457 -0.836077 0.571893 39.000000 7 359.637203
-0.844856 -0.824464 0.436705 31.000000 5 359.637206
-0.836721 -0.816526 0.313436 10.000000 3 359.637208
-0.834009 -0.813595 0.197344 13.000000 1 359.637211
-0.874695 -0.851803 1.168196 40.000000 14 359.637219
-0.867703 -0.844991 0.965446 46.000000 12 359.637221
-0.860082 -0.837277 0.790687 45.000000 10 359.637224
-0.869096 -0.846048 0.648156 43.000000 8 359.637226
-0.856662 -0.833653 0.504941 37.000000 6 359.637229
-0.850211 -0.827086 0.376798 20.000000 4 359.637231
-0.837772 -0.814702 0.254997 11.000000 2 359.637234
-0.855971 -0.832108 0.141831 26.000000 0 359.637236
-0.033173 -0.022669 3.049157 96.000000 31 359.637247
-0.348371 -0.321324 3.013371 96.000000 28 359.637250
-0.438671 -0.403644 2.889445 68.000000 27 359.637252
-0.622499 -0.595643 2.799837 34.000000 25 359.637255
-0.701418 -0.678564 2.358712 76.000000 23 359.637257
-0.904095 -0.874928 2.371985 23.000000 21 359.637260
-0.904385 -0.875204 1.921033 37.000000 19 359.637262
-0.895239 -0.866350 1.567657 38.000000 17 359.637265
-0.141882 -0.119097 3.034327 97.000000 30 359.637273
-0.248301 -0.218568 3.037345 96.000000 29 359.637275
-0.358325 -0.338163 1.933168 22.000000 26 359.637278
-0.616875 -0.594702 2.384340 69.000000 24 359.637280
-0.798949 -0.770753 2.358189 72.000000 22 359.637283
-0.917032 -0.884967 2.154716 36.000000 20 359.637286
-0.897626 -0.866236 1.725975 38.000000 18 359.637288
-0.883934 -0.853020 1.409979 39.000000 16 359.637291
-0.880872 -0.854530 1.285816 39.000000 15 359.637248
-0.873960 -0.847821 1.063843 45.000000 13 359.637251
-0.872081 -0.845703 0.881071 44.000000 11 359.637253
-0.869273 -0.842977 0.720137 42.000000 9 359.637256
-0.862699 -0.836309 0.573766 39.000000 7 359.637259
-0.851174 -0.824849 0.438114 31.000000 5 359.637261
-0.839566 -0.813600 0.313436 10.000000 3 359.637264
-0.840421 -0.814144 0.197791 12.000000 1 359.637266
-0.877663 -0.848745 1.168196 40.000000 14 359.637274
-0.870647 -0.841957 0.965446 46.000000 12 359.637277
-0.862999 -0.834269 0.790687 45.000000 10 359.637279
-0.875307 -0.846164 0.650254 45.000000 8 359.637282
-0.862963 -0.833939 0.506584 38.000000 6 359.637284
-0.853092 -0.824113 0.376798 20.000000 4 359.637287
-0.844173 -0.815212 0.255687 10.000000 2 359.637289
-0.862464 -0.832585 0.142033 26.000000 0 359.637292
-0.033290 -0.022574 3.054157 96.000000 31 359.637303
-0.349491 -0.320106 3.013371 97.000000 28 359.637305
-0.439325 -0.401424 2.884549 68.000000 27 359.637308
-0.625657 -0.594495 2.804609 33.000000 25 359.637310
-0.703782 -0.676112 2.358712 76.000000 23 359.637313
-0.907144 -0.871766 2.371985 31.000000 21 359.637315
-0.909463 -0.873992 1.925166 37.000000 19 359.637318
-0.898258 -0.863220 1.567657 38.000000 17 359.637321
-0.142297 -0.118601 3.034327 97.000000 30 359.637328
-0.249063 -0.217700 3.037345 96.000000 29 359.637331
-0.360422 -0.337770 1.938007 22.000000 26 359.637333
-0.618947 -0.592545 2.384340 67.000000 24 359.637336
-0.801635 -0.767960 2.358189 72.000000 22 359.637339
-0.921998 -0.883565 2.158982 36.000000 20 359.637341
-0.900644 -0.863097 1.725975 38.000000 18 359.637344
-0.889354 -0.852275 1.413654 39.000000 16 359.637346
-0.886418 -0.853924 1.289320 39.000000 15 359.637304
-0.879718 -0.847466 1.066981 45.000000 13 359.637306
-0.875028 -0.842654 0.881071 42.000000 11 359.637309
-0.872211 -0.839937 0.720137 40.000000 9 359.637312
-0.865613 -0.833293 0.573766 39.000000 7 359.637314
-0.854048 -0.821872 0.438114 31.000000 5 359.637317
-0.842401 -0.810664 0.313436 10.000000 3 359.637319
-0.843258 -0.811205 0.197791 11.000000 1 359.637322
-0.880620 -0.845676 1.168196 40.000000 14 359.637330
-0.876496 -0.841712 0.968389 46.000000 12 359.637332
-0.869016 -0.834237 0.793220 47.000000 10 359.637335
-0.878255 -0.843103 0.650254 45.000000 8 359.637337
-0.865868 -0.830922 0.506584 38.000000 6 359.637340
-0.855964 -0.821130 0.376798 21.000000 4 359.637342
-0.850588 -0.815688 0.256377 10.000000 2 359.637345
-0.865365 -0.829569 0.142033 25.000000 0 359.637347
-0.033369 -0.022458 3.054157 95.000000 31 359.637358
-0.350606 -0.318884 3.013371 97.000000 28 359.637361
-0.440724 -0.399888 2.884549 68.000000 27 359.637363
-0.628815 -0.593332 2.809381 33.000000 25 359.637366
-0.706138 -0.673651 2.358712 76.000000 23 359.637368
-0.908448 -0.866941 2.367596 36.000000 21 359.637371
-0.912509 -0.870812 1.925166 37.000000 19 359.637373
-0.903585 -0.862292 1.571494 38.000000 17 359.637376
-0.142710 -0.118104 3.034327 96.000000 30 359.637384
-0.249821 -0.216829 3.037345 97.000000 29 359.637386
-0.361598 -0.336510 1.938007 22.000000 26 359.637389
-0.621012 -0.590381 2.384340 61.000000 24 359.637391
-0.804311 -0.765157 2.358189 72.000000 22 359.637394
-0.925077 -0.880341 2.158982 36.000000 20 359.637397
-0.905835 -0.862026 1.729964 38.000000 18 359.637399
-0.892323 -0.849165 1.413654 39.000000 16 359.637402
-0.889393 -0.850825 1.289320 39.000000 15 359.637359
-0.882671 -0.844390 1.066981 45.000000 13 359.637362
-0.880986 -0.842485 0.883812 42.000000 11 359.637365
-0.875137 -0.836888 0.720137 40.000000 9 359.637367
-0.868517 -0.830266 0.573766 39.000000 7 359.637370
-0.860380 -0.822201 0.439523 31.000000 5 359.637372
-0.845226 -0.807719 0.313436 10.000000 3 359.637375
-0.846084 -0.808257 0.197791 11.000000 1 359.637377
-0.886269 -0.845174 1.171521 40.000000 14 359.637385
-0.879429 -0.838647 0.968389 46.000000 12 359.637388
-0.871923 -0.831199 0.793220 45.000000 10 359.637390
-0.881193 -0.840032 0.650254 43.000000 8 359.637393
-0.868764 -0.827894 0.506584 38.000000 6 359.637395
-0.858825 -0.818137 0.376798 21.000000 4 359.637398
-0.853430 -0.812714 0.256377 9.000000 2 359.637400
-0.864637 -0.823099 0.141831 24.000000 0 359.637403
-0.033447 -0.022341 3.054157 95.000000 31 359.637414
-0.351717 -0.317658 3.013371 96.000000 28 359.637416
-0.442117 -0.398348 2.884549 68.000000 27 359.637419
-0.631972 -0.592155 2.814152 34.000000 25 359.637421
-0.708485 -0.671182 2.358712 76.000000 23 359.637424
-0.909730 -0.862116 2.363208 37.000000 21 359.637426
-0.917585 -0.869557 1.929299 37.000000 19 359.637429
-0.906589 -0.859133 1.571494 39.000000 17 359.637432
-0.143122 -0.117605 3.034327 96.000000 30 359.637439
-0.250171 -0.215608 3.032374 96.000000 29 359.637442
-0.363695 -0.336099 1.942846 22.000000 26 359.637444
-0.623069 -0.588210 2.384340 63.000000 24 359.637447
-0.806977 -0.762345 2.358189 72.000000 22 359.637450
-0.930040 -0.878898 2.163248 36.000000 20 359.637452
-0.908838 -0.858859 1.729964 39.000000 18 359.637455
-0.897746 -0.848373 1.417329 39.000000 16 359.637457
-0.894943 -0.850171 1.292825 39.000000 15 359.637415
-0.888435 -0.843985 1.070119 45.000000 13 359.637417
-0.883922 -0.839404 0.883812 42.000000 11 359.637420
-0.878053 -0.833828 0.720137 40.000000 9 359.637423
-0.871410 -0.827229 0.573766 39.000000 7 359.637425
-0.863245 -0.819192 0.439523 31.000000 5 359.637428
-0.848040 -0.804763 0.313436 11.000000 3 359.637430
-0.848900 -0.805298 0.197791 13.000000 1 359.637433
-0.889214 -0.842075 1.171521 40.000000 14 359.637441
-0.885286 -0.838352 0.971332 46.000000 12 359.637443
-0.874819 -0.828150 0.793220 45.000000 10 359.637446
-0.884120 -0.836951 0.650254 43.000000 8 359.637448
-0.871648 -0.824857 0.506584 38.000000 6 359.637451
-0.861676 -0.815135 0.376798 21.000000 4 359.637453
-0.859860 -0.813133 0.257067 9.000000 2 359.637456
-0.867505 -0.820076 0.141831 23.000000 0 359.637459
-0.033525 -0.022224 3.054157 97.000000 31 359.637469
-0.352824 -0.316429 3.013371 95.000000 28 359.637472
-0.444264 -0.397480 2.889445 70.000000 27 359.637474
-0.635129 -0.590963 2.818924 33.000000 25 359.637477
-0.710824 -0.668705 2.358712 76.000000 23 359.637479
-0.914478 -0.860577 2.367596 37.000000 21 359.637482
-0.920615 -0.866349 1.929299 37.000000 19 359.637485
-0.911917 -0.858160 1.575331 39.000000 17 359.637487
-0.143306 -0.116923 3.029335 97.000000 30 359.637495
-0.250922 -0.214734 3.032374 96.000000 29 359.637497
-0.364866 -0.334827 1.942846 22.000000 26 359.637500
-0.625118 -0.586031 2.384340 57.000000 24 359.637503
-0.809633 -0.759523 2.358189 74.000000 22 359.637505
-0.935004 -0.877431 2.167514 36.000000 20 359.637508
-0.914028 -0.857744 1.733954 39.000000 18 359.637510
-0.900702 -0.845235 1.417329 39.000000 16 359.637513
-0.897905 -0.847042 1.292825 39.000000 15 359.637470
-0.891376 -0.840879 1.070119 44.000000 13 359.637473
-0.889889 -0.839182 0.886554 42.000000 11 359.637476
-0.880959 -0.830758 0.720137 40.000000 9 359.637478
-0.877665 -0.827363 0.575639 39.000000 7 359.637481
-0.866099 -0.816174 0.439523 31.000000 5 359.637483
-0.850844 -0.801799 0.313436 11.000000 3 359.637486
-0.851706 -0.802330 0.197791 13.000000 1 359.637488
-0.894868 -0.841524 1.174846 40.000000 14 359.637496
-0.888207 -0.835256 0.971332 46.000000 12 359.637499
-0.880846 -0.828044 0.795752 45.000000 10 359.637501
-0.890343 -0.836969 0.652352 42.000000 8 359.637504
-0.877963 -0.825043 0.508227 38.000000 6 359.637506
-0.864516 -0.812122 0.376798 21.000000 4 359.637509
-0.862693 -0.810126 0.257067 9.000000 2 359.637511
-0.863078 -0.810204 0.141428 20.000000 0 359.637514
-0.033564 -0.022087 3.049157 97.000000 31 359.637525
-0.353926 -0.315195 3.013371 95.000000 28 359.637527
-0.445649 -0.395927 2.889445 68.000000 27 359.637530
-0.638285 -0.589755 2.823695 33.000000 25 359.637532
-0.713154 -0.666219 2.358712 76.000000 23 359.637535
-0.919227 -0.859016 2.371985 36.000000 21 359.637537
-0.925690 -0.865051 1.933432 37.000000 19 359.637540
-0.914907 -0.854972 1.575331 38.000000 17 359.637543
-0.143713 -0.116422 3.029335 97.000000 30 359.637550
-0.251671 -0.213857 3.032374 96.000000 29 359.637553
-0.366963 -0.334398 1.947685 22.000000 26 359.637555
-0.627160 -0.583846 2.384340 57.000000 24 359.637558
-0.812279 -0.756692 2.358189 74.000000 22 359.637561
-0.938061 -0.874161 2.167514 36.000000 20 359.637563
-0.919222 -0.856603 1.737943 39.000000 18 359.637566
-0.906127 -0.844397 1.421004 39.000000 16 359.637568
-0.903459 -0.846341 1.296329 39.000000 15 359.637526
-0.897147 -0.840423 1.073256 40.000000 13 359.637529
-0.892812 -0.836071 0.886554 42.000000 11 359.637531
-0.887087 -0.830706 0.722455 40.000000 9 359.637534
-0.880548 -0.824294 0.575639 39.000000 7 359.637536
-0.872446 -0.816424 0.440932 32.000000 5 359.637539
-0.857224 -0.802180 0.314368 11.000000 3 359.637541
-0.858139 -0.802754 0.198237 12.000000 1 359.637544
-0.897800 -0.838396 1.174846 40.000000 14 359.637552
-0.891117 -0.832151 0.971332 46.000000 12 359.637554
-0.883731 -0.824965 0.795752 45.000000 10 359.637557
-0.893259 -0.833856 0.652352 43.000000 8 359.637559
-0.880838 -0.821973 0.508227 38.000000 6 359.637562
-0.867345 -0.809099 0.376798 21.000000 4 359.637564
-0.865516 -0.807110 0.257067 10.000000 2 359.637567
-0.869555 -0.810593 0.141630 15.000000 0 359.637570
-0.033641 -0.021969 3.049157 96.000000 31 359.637580
-0.355024 -0.313958 3.013371 96.000000 28 359.637583
-0.447028 -0.394369 2.889445 67.000000 27 359.637585
-0.642541 -0.589543 2.833239 33.000000 25 359.637588
-0.715475 -0.663726 2.358712 76.000000 23 359.637590
-0.934513 -0.867209 2.402706 35.000000 21 359.637593
-0.928704 -0.861815 1.933432 37.000000 19 359.637596
-0.917886 -0.851773 1.575331 38.000000 17 359.637598
-0.144119 -0.115919 3.029335 97.000000 30 359.637606
-0.252416 -0.212977 3.032374 96.000000 29 359.637608
-0.369061 -0.333959 1.952525 22.000000 26 359.637611
-0.629194 -0.581653 2.384340 54.000000 24 359.637614
-0.814916 -0.753852 2.358189 74.000000 22 359.637616
-0.943021 -0.872653 2.171780 36.000000 20 359.637619
-0.922206 -0.853389 1.737943 39.000000 18 359.637621
-0.909069 -0.841228 1.421004 39.000000 16 359.637624
-0.906408 -0.843182 1.296329 39.000000 15 359.637581
-0.900075 -0.837287 1.073256 40.000000 13 359.637584
-0.895725 -0.832949 0.886554 42.000000 11 359.637587
-0.889981 -0.827604 0.722455 40.000000 9 359.637589
-0.883420 -0.821215 0.575639 39.000000 7 359.637592
-0.875290 -0.813373 0.440932 32.000000 5 359.637594
-0.860019 -0.799183 0.314368 11.000000 3 359.637597
-0.860936 -0.799754 0.198237 12.000000 1 359.637599
-0.903460 -0.837796 1.178171 40.000000 14 359.637607
-0.896980 -0.831784 0.974275 46.000000 12 359.637610
-0.889767 -0.824806 0.798285 45.000000 10 359.637612
-0.899493 -0.833818 0.654450 45.000000 8 359.637615
-0.887166 -0.822104 0.509869 38.000000 6 359.637617
-0.873730 -0.809370 0.377971 21.000000 4 359.637620
-0.868328 -0.804084 0.257067 10.000000 2 359.637623
-0.879712 -0.814340 0.142033 9.000000 0 359.637625
-0.033717 -0.021852 3.049157 97.000000 31 359.637636
-0.356118 -0.312717 3.013371 96.000000 28 359.637638
-0.448402 -0.392806 2.889445 67.000000 27 359.637641
-0.645699 -0.588302 2.838011 35.000000 25 359.637643
-0.717787 -0.661224 2.358712 76.000000 23 359.637646
-0.944582 -0.870436 2.420260 34.000000 21 359.637649
-0.933776 -0.860475 1.937565 37.000000 19 359.637651
-0.923211 -0.850736 1.579168 38.000000 17 359.637654
-0.144522 -0.115416 3.029335 97.000000 30 359.637661
-0.253157 -0.212094 3.032374 96.000000 29 359.637664
-0.370224 -0.332669 1.952525 22.000000 26 359.637667
-0.632492 -0.580620 2.389033 53.000000 24 359.637669
-0.817542 -0.751003 2.358189 74.000000 22 359.637672
-0.947981 -0.871121 2.176046 36.000000 20 359.637674
-0.927399 -0.852204 1.741933 38.000000 18 359.637677
-0.914496 -0.840344 1.424680 39.000000 16 359.637679
-0.909346 -0.840013 1.296329 39.000000 15 359.637637
-0.905851 -0.836781 1.076394 42.000000 13 359.637640
-0.901700 -0.832654 0.889295 43.000000 11 359.637642
-0.896119 -0.827498 0.724773 40.000000 9 359.637645
-0.889687 -0.821271 0.577513 39.000000 7 359.637647
-0.881650 -0.813566 0.442341 32.000000 5 359.637650
-0.866414 -0.799507 0.315301 11.000000 3 359.637652
-0.867382 -0.800121 0.198683 12.000000 1 359.637655
-0.906379 -0.834637 1.178171 40.000000 14 359.637663
-0.899878 -0.828647 0.974275 46.000000 12 359.637665
-0.892640 -0.821695 0.798285 45.000000 10 359.637668
-0.902398 -0.830673 0.654450 47.000000 8 359.637670
-0.890030 -0.819002 0.509869 38.000000 6 359.637673
-0.876550 -0.806315 0.377971 22.000000 4 359.637675
-0.871129 -0.801048 0.257067 10.000000 2 359.637678
-0.886227 -0.814645 0.142234 5.000000 0 359.637681
-0.033793 -0.021734 3.049157 97.000000 31 359.637691
-0.356621 -0.310962 3.008432 96.000000 28 359.637694
-0.449771 -0.391239 2.889445 68.000000 27 359.637696
-0.649964 -0.588048 2.847554 36.000000 25 359.637699
-0.720091 -0.658715 2.358712 75.000000 23 359.637701
-0.958219 -0.876837 2.446592 34.000000 21 359.637704
-0.938850 -0.859110 1.941698 37.000000 19 359.637706
-0.926175 -0.847509 1.579168 38.000000 17 359.637709
-0.144904 -0.114936 3.029335 97.000000 30 359.637717
-0.253859 -0.211254 3.032374 96.000000 29 359.637719
-0.372264 -0.332276 1.957364 22.000000 26 359.637722
-0.634414 -0.578519 2.389033 51.000000 24 359.637724
-0.820159 -0.748145 2.358189 74.000000 22 359.637727
-0.952943 -0.869564 2.180312 36.000000 20 359.637729
-0.932594 -0.850993 1.745922 38.000000 18 359.637732
-0.919782 -0.839592 1.428355 39.000000 16 359.637735
-0.914901 -0.839244 1.299834 39.000000 15 359.637692
-0.908767 -0.833614 1.076394 44.000000 13 359.637695
-0.904601 -0.829502 0.889295 43.000000 11 359.637697
-0.899002 -0.824365 0.724773 40.000000 9 359.637700
-0.892406 -0.818316 0.577513 39.000000 7 359.637703
-0.884343 -0.810638 0.442341 32.000000 5 359.637705
-0.869199 -0.796478 0.315301 11.000000 3 359.637708
-0.870170 -0.797088 0.198683 12.000000 1 359.637710
-0.912042 -0.833988 1.181495 40.000000 14 359.637718
-0.902765 -0.825501 0.974275 46.000000 12 359.637721
-0.898542 -0.821639 0.800817 45.000000 10 359.637723
-0.905147 -0.827676 0.654450 47.000000 8 359.637726
-0.896227 -0.819232 0.511512 38.000000 6 359.637728
-0.879219 -0.803404 0.377971 22.000000 4 359.637731
-0.877437 -0.801495 0.257756 9.000000 2 359.637733
-0.033865 -0.021622 3.049157 96.000000 31 359.637747
-0.357650 -0.309777 3.008432 96.000000 28 359.637749
-0.451066 -0.389745 2.889445 70.000000 27 359.637752
-0.653022 -0.586888 2.852326 37.000000 25 359.637754
-0.722272 -0.656323 2.358712 76.000000 23 359.637757
-0.961121 -0.873655 2.446592 34.000000 21 359.637759
-0.943776 -0.857884 1.945831 37.000000 19 359.637762
-0.931353 -0.846589 1.583005 39.000000 17 359.637764
-0.145305 -0.114429 3.029335 97.000000 30 359.637772
-0.254595 -0.210366 3.032374 96.000000 29 359.637775
-0.374363 -0.331809 1.962203 22.000000 26 359.637777
-0.637709 -0.577460 2.393726 49.000000 24 359.637780
-0.822635 -0.745421 2.358189 74.000000 22 359.637782
-0.957754 -0.868151 2.184578 36.000000 20 359.637785
-0.935411 -0.847896 1.745922 38.000000 18 359.637788
-0.922707 -0.836377 1.428355 39.000000 16 359.637790
-0.917679 -0.836206 1.299834 39.000000 15 359.637748
-0.911526 -0.830596 1.076394 44.000000 13 359.637750
-0.910438 -0.829313 0.892037 43.000000 11 359.637753
-0.905006 -0.824362 0.727091 40.000000 9 359.637755
-0.895257 -0.815196 0.577513 39.000000 7 359.637758
-0.887167 -0.807546 0.442341 32.000000 5 359.637761
-0.875468 -0.796898 0.316234 11.000000 3 359.637763
-0.872809 -0.794198 0.198683 12.000000 1 359.637766
-0.914803 -0.830959 1.181495 40.000000 14 359.637773
-0.908490 -0.825221 0.977218 46.000000 12 359.637776
-0.901404 -0.818498 0.800817 45.000000 10 359.637779
-0.911391 -0.827562 0.656548 47.000000 8 359.637781
-0.899081 -0.816099 0.511512 38.000000 6 359.637784
-0.882018 -0.800330 0.377971 23.000000 4 359.637786
-0.880230 -0.798427 0.257756 9.000000 2 359.637789
-0.033940 -0.021503 3.049157 96.000000 31 359.637802
-0.358730 -0.308527 3.008432 96.000000 28 359.637805
-0.452423 -0.388168 2.889445 68.000000 27 359.637807
-0.656181 -0.585599 2.857098 39.000000 25 359.637810
-0.724558 -0.653798 2.358712 68.000000 23 359.637812
-0.965944 -0.871900 2.450981 34.000000 21 359.637815
-0.948853 -0.856470 1.949964 37.000000 19 359.637817
-0.936682 -0.845481 1.586842 38.000000 17 359.637820
-0.145703 -0.113921 3.029335 97.000000 30 359.637828
-0.255328 -0.209476 3.032374 96.000000 29 359.637830
-0.375519 -0.330500 1.962203 22.000000 26 359.637833
-0.639721 -0.575230 2.393726 49.000000 24 359.637835
-0.825232 -0.742545 2.358189 74.000000 22 359.637838
-0.960778 -0.864802 2.184578 36.000000 20 359.637841
-0.940605 -0.846642 1.749912 39.000000 18 359.637843
-0.928141 -0.835419 1.432030 39.000000 16 359.637846
-0.923236 -0.835390 1.303338 39.000000 15 359.637803
-0.914420 -0.827409 1.076394 40.000000 13 359.637806
-0.913327 -0.826130 0.892037 43.000000 11 359.637808
-0.907878 -0.821198 0.727091 40.000000 9 359.637811
-0.901536 -0.815175 0.579386 39.000000 7 359.637814
-0.893539 -0.807662 0.443751 32.000000 5 359.637816
