# .PCD v.7 - Point Cloud Data file format
VERSION .7
FIELDS x y z intensity ring timestamp
SIZE 4 4 4 4 2 8
TYPE F F F F U D
COUNT 1 1 1 1 1 1
WIDTH 924
HEIGHT 1
VIEWPOINT 0 0 0 1 0 0 0
POINTS 924
DATA ascii
-2.040848 1.334975 2.722013 35.000000 16 359.959296
-2.084113 1.355499 2.522921 35.000000 15 359.959254
-2.247742 1.461927 2.243648 9.000000 13 359.959256
-2.781184 1.809568 2.260028 7.000000 11 359.959259
-9.834235 6.398632 6.225451 90.000000 9 359.959262
-11.334293 7.377460 5.552288 9.000000 7 359.959264
-13.033664 8.486814 4.658655 10.000000 5 359.959267
-12.505891 8.143157 2.924772 80.000000 3 359.959269
-10.477800 6.825179 1.213364 22.000000 1 359.959272
-2.110736 1.377538 2.325243 37.000000 14 359.959280
-2.676260 1.746623 2.410537 14.000000 12 359.959282
-9.322434 6.086491 6.625398 21.000000 10 359.959285
-10.455485 6.826248 5.859718 18.000000 8 359.959287
-12.182244 7.956660 5.150454 16.000000 6 359.959290
-10.532931 6.884680 1.845022 128.000000 2 359.959295
-0.029114 0.027119 3.004159 97.000000 31 359.959308
-0.384613 0.266141 2.973857 96.000000 28 359.959311
-0.504010 0.349674 2.972663 85.000000 27 359.959313
-0.806868 0.536768 3.143401 42.000000 25 359.959316
-1.081611 0.711002 3.108923 39.000000 23 359.959318
-2.152630 1.414533 4.785749 79.000000 21 359.959321
-2.674456 1.757442 4.772768 86.000000 19 359.959324
-2.005652 1.317956 2.948957 32.000000 17 359.959326
-0.145406 0.110991 2.994394 97.000000 30 359.959334
-0.264553 0.192298 3.002545 97.000000 29 359.959336
-0.670954 0.453190 3.152647 57.000000 26 359.959339
-0.942768 0.622086 3.125797 40.000000 24 359.959342
-1.228596 0.810088 3.105328 39.000000 22 359.959344
-2.411973 1.589784 4.795330 90.000000 20 359.959347
-5.664320 3.733500 9.054683 59.000000 18 359.959349
-2.036175 1.342091 2.722013 35.000000 16 359.959352
-2.079369 1.362766 2.522921 35.000000 15 359.959309
-2.242626 1.469764 2.243648 9.000000 13 359.959312
-2.778347 1.821558 2.262770 7.000000 11 359.959315
-9.804429 6.428063 6.220815 70.000000 9 359.959317
-11.300720 7.411894 5.548542 13.000000 7 359.959320
-12.440426 8.162508 2.916379 61.000000 3 359.959325
-2.109035 1.386949 2.328568 37.000000 14 359.959335
-2.676901 1.760396 2.416424 13.000000 12 359.959338
-9.160666 6.026586 6.526633 62.000000 10 359.959340
-10.431594 6.862703 5.859718 6.000000 8 359.959343
-12.150452 7.996539 5.148811 18.000000 6 359.959345
-10.512972 6.924129 1.845712 127.000000 2 359.959350
-0.029019 0.027221 3.004159 97.000000 31 359.959364
-0.383682 0.267482 2.973857 96.000000 28 359.959366
-0.502786 0.351431 2.972663 87.000000 27 359.959369
-0.804990 0.539581 3.143401 42.000000 25 359.959371
-1.079122 0.714773 3.108923 39.000000 23 359.959374
-2.147679 1.422038 4.785749 79.000000 21 359.959376
-2.668305 1.766767 4.772768 86.000000 19 359.959379
-2.001039 1.324949 2.948957 32.000000 17 359.959382
-0.145017 0.111498 2.994394 97.000000 30 359.959389
-0.263450 0.192904 2.997574 97.000000 29 359.959392
-0.669368 0.455529 3.152647 57.000000 26 359.959394
-0.940591 0.625373 3.125797 40.000000 24 359.959397
-1.225761 0.814372 3.105328 38.000000 22 359.959400
-2.406408 1.598193 4.795330 90.000000 20 359.959402
-5.651253 3.753249 9.054683 46.000000 18 359.959405
-2.034302 1.351066 2.725688 35.000000 16 359.959407
-2.074599 1.370016 2.522921 35.000000 15 359.959365
-2.237482 1.477583 2.243648 9.000000 13 359.959368
-2.771972 1.831246 2.262770 8.000000 11 359.959370
-9.804111 6.476900 6.234723 16.000000 9 359.959373
-11.270910 7.448739 5.546669 13.000000 7 359.959375
-10.705081 7.077477 3.859641 4.000000 5 359.959378
-12.387272 8.189629 2.910783 15.000000 3 359.959380
-2.104181 1.394303 2.328568 37.000000 14 359.959391
-2.680848 1.776428 2.425253 14.000000 12 359.959393
-9.164726 6.075200 6.544360 57.000000 10 359.959396
-10.441620 6.921643 5.878601 9.000000 8 359.959398
-12.138207 8.049343 5.155383 15.000000 6 359.959401
-10.259773 6.806255 3.060233 11.000000 4 359.959403
-10.492864 6.963522 1.846402 123.000000 2 359.959406
-0.028924 0.027322 3.004159 98.000000 31 359.959419
-0.382746 0.268820 2.973857 96.000000 28 359.959422
-0.501556 0.353184 2.972663 87.000000 27 359.959424
-0.803101 0.542388 3.143401 42.000000 25 359.959427
-1.076621 0.718535 3.108923 37.000000 23 359.959429
-2.142702 1.429527 4.785749 79.000000 21 359.959432
-2.664463 1.777632 4.776901 86.000000 19 359.959435
-1.996402 1.331926 2.948957 32.000000 17 359.959437
-0.144627 0.112004 2.994394 97.000000 30 359.959445
-0.262775 0.193822 2.997574 97.000000 29 359.959447
-0.667774 0.457863 3.152647 57.000000 26 359.959450
-0.938402 0.628652 3.125797 40.000000 24 359.959453
-1.222911 0.818646 3.105328 38.000000 22 359.959455
-2.400815 1.606583 4.795330 90.000000 20 359.959458
-2.029574 1.358159 2.725688 35.000000 16 359.959463
-2.069804 1.377249 2.522921 35.000000 15 359.959420
-2.232310 1.485385 2.243648 8.000000 13 359.959423
-2.765563 1.840910 2.262770 8.000000 11 359.959426
-9.777755 6.508628 6.232405 5.000000 9 359.959428
-11.267993 7.503454 5.557907 13.000000 7 359.959431
-10.792102 7.189273 3.899098 5.000000 5 359.959433
-12.358608 8.232819 2.910783 9.000000 3 359.959436
-2.099301 1.401639 2.328568 37.000000 14 359.959446
-2.677993 1.788020 2.428196 14.000000 12 359.959449
-9.186485 6.135889 6.574749 24.000000 10 359.959451
-10.455136 6.983257 5.899581 12.000000 8 359.959454
-10.244034 6.847428 3.062578 11.000000 4 359.959459
-10.468493 7.000107 1.846402 58.000000 2 359.959462
-0.880120 0.588741 0.136390 4.000000 0 359.959464
-0.028829 0.027423 3.004159 97.000000 31 359.959475
-0.381805 0.270154 2.973857 97.000000 28 359.959477
-0.500321 0.354933 2.972663 85.000000 27 359.959480
-0.801203 0.545188 3.143401 42.000000 25 359.959482
-1.074106 0.722289 3.108923 37.000000 23 359.959485
-2.137699 1.436997 4.785749 79.000000 21 359.959488
-2.658241 1.786922 4.776901 86.000000 19 359.959490
-1.991741 1.338886 2.948957 32.000000 17 359.959493
-0.144235 0.112508 2.994394 97.000000 30 359.959500
-0.262097 0.194738 2.997574 97.000000 29 359.959503
-0.666171 0.460191 3.152647 57.000000 26 359.959506
-0.936202 0.631924 3.125797 40.000000 24 359.959508
-1.220046 0.822910 3.105328 38.000000 22 359.959511
-2.395193 1.614954 4.795330 90.000000 20 359.959513
-2.024821 1.365235 2.725688 34.000000 16 359.959518
-2.067946 1.386452 2.526425 35.000000 15 359.959476
-2.227112 1.493168 2.243648 8.000000 13 359.959479
-2.759120 1.850553 2.262770 8.000000 11 359.959481
-9.758655 6.545186 6.234723 6.000000 9 359.959484
-11.241733 7.542741 5.557907 13.000000 7 359.959486
-10.902369 7.317802 3.947011 31.000000 5 359.959489
-12.276773 8.240319 2.898659 19.000000 3 359.959491
-2.094396 1.408959 2.328568 37.000000 14 359.959502
-2.668381 1.795100 2.425253 11.000000 12 359.959504
-3.860758 2.598230 2.819161 15.000000 10 359.959507
-10.419400 7.012108 5.893287 12.000000 8 359.959509
-9.363045 6.303569 4.015359 7.000000 6 359.959512
-10.216039 6.880430 3.061405 15.000000 4 359.959514
-10.448100 7.039372 1.847092 30.000000 2 359.959517
-0.886346 0.597394 0.136793 4.000000 0 359.959520
-0.028733 0.027523 3.004159 98.000000 31 359.959531
-0.380860 0.271485 2.973857 96.000000 28 359.959534
-0.499079 0.356677 2.972663 87.000000 27 359.959536
-0.799295 0.547981 3.143401 42.000000 25 359.959539
-1.071578 0.726034 3.108923 39.000000 23 359.959541
-2.132670 1.444450 4.785749 75.000000 21 359.959544
-2.651987 1.796190 4.776901 87.000000 19 359.959546
-1.989709 1.347628 2.952794 32.000000 17 359.959549
-0.143842 0.113010 2.994394 97.000000 30 359.959557
-0.261416 0.195652 2.997574 96.000000 29 359.959559
-0.664561 0.462514 3.152647 57.000000 26 359.959562
-0.933991 0.635188 3.125797 40.000000 24 359.959564
-1.217166 0.827163 3.105328 39.000000 22 359.959567
-2.389540 1.623305 4.795330 89.000000 20 359.959569
-6.541557 4.443956 10.542766 104.000000 18 359.959572
-2.020043 1.372295 2.725688 34.000000 16 359.959575
-2.063094 1.393662 2.526425 35.000000 15 359.959532
-2.221886 1.500933 2.243648 7.000000 13 359.959535
-2.752644 1.860172 2.262770 8.000000 11 359.959537
-9.739419 6.581691 6.237041 10.000000 9 359.959540
-10.443608 7.062879 3.793409 4.000000 5 359.959545
-12.243865 8.280370 2.897726 18.000000 3 359.959548
-2.089465 1.416261 2.328568 37.000000 14 359.959558
-2.705595 1.833886 2.463514 8.000000 12 359.959561
-3.851665 2.611690 2.819161 16.000000 10 359.959563
-10.398617 7.050982 5.895385 13.000000 8 359.959566
-10.119563 6.866922 3.040304 14.000000 4 359.959571
-10.423465 7.075800 1.847092 19.000000 2 359.959573
-0.867723 0.589258 0.135987 5.000000 0 359.959576
-0.028637 0.027623 3.004159 98.000000 31 359.959587
-0.379910 0.272813 2.973857 96.000000 28 359.959589
-0.497830 0.358417 2.972663 87.000000 27 359.959592
-0.797378 0.550768 3.143401 42.000000 25 359.959594
-1.069037 0.729770 3.108923 39.000000 23 359.959597
-2.127615 1.451886 4.785749 74.000000 21 359.959599
-2.648026 1.807022 4.781034 87.000000 19 359.959602
-1.984993 1.354566 2.952794 32.000000 17 359.959604
-0.143446 0.113512 2.994394 97.000000 30 359.959612
-0.260731 0.196564 2.997574 96.000000 29 359.959615
-0.662942 0.464831 3.152647 57.000000 26 359.959617
-0.931768 0.638444 3.125797 40.000000 24 359.959620
-1.216068 0.832637 3.109829 38.000000 22 359.959622
-2.383860 1.631636 4.795330 89.000000 20 359.959625
-6.526004 4.466763 10.542766 102.000000 18 359.959628
-2.015240 1.379338 2.725688 34.000000 16 359.959630
-2.061165 1.402861 2.529930 35.000000 15 359.959588
-2.216633 1.508679 2.243648 6.000000 13 359.959590
-2.746134 1.869770 2.262770 8.000000 11 359.959593
-9.716386 6.615648 6.237041 9.000000 9 359.959595
-9.709251 6.615752 3.541162 6.000000 5 359.959601
-2.087592 1.425652 2.331893 37.000000 14 359.959613
-2.745907 1.875232 2.504718 7.000000 12 359.959616
-3.835405 2.620255 2.814096 16.000000 10 359.959619
-10.321477 7.051394 5.866013 10.000000 8 359.959621
-10.095531 6.902204 3.040304 14.000000 4 359.959626
-10.406877 7.117734 1.848472 15.000000 2 359.959629
-0.857414 0.586641 0.135584 10.000000 0 359.959631
-0.028540 0.027723 3.004159 97.000000 31 359.959642
-0.379584 0.274594 2.978796 97.000000 28 359.959645
-0.497400 0.360751 2.977559 87.000000 27 359.959647
-0.795450 0.553548 3.143401 42.000000 25 359.959650
-1.066483 0.733497 3.108923 38.000000 23 359.959652
-2.122534 1.459304 4.785749 79.000000 21 359.959655
-2.641702 1.816255 4.781034 86.000000 19 359.959657
-1.980252 1.361486 2.952794 32.000000 17 359.959660
-0.143049 0.114012 2.994394 97.000000 30 359.959668
-0.260044 0.197472 2.997574 97.000000 29 359.959670
-0.661316 0.467142 3.152647 57.000000 26 359.959673
-0.929533 0.641693 3.125797 40.000000 24 359.959675
-1.213154 0.836877 3.109829 38.000000 22 359.959678
-2.380297 1.641428 4.799595 89.000000 20 359.959681
-6.515336 4.492939 10.550744 98.000000 18 359.959683
-2.010413 1.386364 2.725688 35.000000 16 359.959686
-2.056256 1.410048 2.529930 35.000000 15 359.959643
-2.214564 1.518609 2.246785 6.000000 13 359.959646
-2.739590 1.879344 2.262770 8.000000 11 359.959648
-9.696887 6.652030 6.239359 10.000000 9 359.959651
-2.082603 1.432930 2.331893 37.000000 14 359.959669
-2.739345 1.884806 2.504718 7.000000 12 359.959672
-3.829787 2.636072 2.816628 17.000000 10 359.959674
-10.071376 6.937402 3.040304 14.000000 4 359.959682
-10.373813 7.148397 1.847092 16.000000 2 359.959684
-0.884154 0.609479 0.136995 17.000000 0 359.959687
-0.028443 0.027822 3.004159 97.000000 31 359.959698
-0.378623 0.275917 2.978796 97.000000 28 359.959700
-0.496138 0.362485 2.977559 87.000000 27 359.959703
-0.793513 0.556321 3.143401 43.000000 25 359.959705
-1.063917 0.737215 3.108923 38.000000 23 359.959708
-2.117427 1.466704 4.785749 79.000000 21 359.959710
-2.637659 1.827067 4.785167 86.000000 19 359.959713
-1.978123 1.370216 2.956631 32.000000 17 359.959715
-0.142650 0.114511 2.994394 97.000000 30 359.959723
-0.259353 0.198379 2.997574 97.000000 29 359.959726
-0.659681 0.469448 3.152647 55.000000 26 359.959728
-0.927288 0.644934 3.125797 40.000000 24 359.959731
-1.210226 0.841107 3.109829 39.000000 22 359.959733
-2.374553 1.649727 4.799595 89.000000 20 359.959736
-6.487237 4.507055 10.530797 69.000000 18 359.959739
-2.008346 1.395308 2.729363 35.000000 16 359.959741
-2.051321 1.417217 2.529930 35.000000 15 359.959699
-2.209249 1.526330 2.246785 7.000000 13 359.959701
-2.733014 1.888896 2.262770 8.000000 11 359.959704
-9.669964 6.683320 6.237041 10.000000 9 359.959707
-10.906530 7.540777 5.445525 4.000000 7 359.959709
-9.264333 6.407751 3.398834 9.000000 5 359.959712
-11.001032 7.608953 2.630997 9.000000 3 359.959714
-2.077589 1.440191 2.331893 37.000000 14 359.959725
-2.749358 1.905870 2.519434 12.000000 12 359.959727
-3.824105 2.651881 2.819161 19.000000 10 359.959730
-8.164822 5.662025 4.680613 6.000000 8 359.959732
-8.979225 6.229107 3.890515 6.000000 6 359.959735
-10.063072 6.983601 3.044993 14.000000 4 359.959737
-10.377272 7.204334 1.851921 21.000000 2 359.959740
-0.873815 0.606862 0.136591 25.000000 0 359.959742
-0.028374 0.027955 3.009159 98.000000 31 359.959753
-0.377658 0.277237 2.978796 96.000000 28 359.959756
-0.494870 0.364215 2.977559 87.000000 27 359.959758
-0.791566 0.559088 3.143401 43.000000 25 359.959761
-1.061337 0.740925 3.108923 39.000000 23 359.959763
-2.112295 1.474086 4.785749 79.000000 21 359.959766
-2.631265 1.836263 4.785167 87.000000 19 359.959768
-1.973328 1.377113 2.956631 32.000000 17 359.959771
-0.142474 0.115191 2.999386 97.000000 30 359.959779
-0.258659 0.199283 2.997574 97.000000 29 359.959781
-0.658038 0.471747 3.152647 55.000000 26 359.959784
-0.926444 0.649157 3.130490 40.000000 24 359.959786
-1.205498 0.844077 3.105328 39.000000 22 359.959789
-2.368780 1.658006 4.799595 89.000000 20 359.959792
-2.003463 1.402309 2.729363 34.000000 16 359.959797
-2.046361 1.424369 2.529930 35.000000 15 359.959754
-2.207103 1.536257 2.249923 6.000000 13 359.959757
-2.729835 1.900814 2.265511 8.000000 11 359.959759
-9.664754 6.729692 6.248631 9.000000 9 359.959762
-9.234037 6.434565 3.396015 10.000000 5 359.959767
-10.909920 7.602373 2.616075 8.000000 3 359.959770
-2.072549 1.447434 2.331893 37.000000 14 359.959780
-2.742689 1.915456 2.519434 11.000000 12 359.959783
-3.818358 2.667682 2.821693 22.000000 10 359.959785
-7.973866 5.570923 4.584103 8.000000 8 359.959788
-10.360177 7.246191 1.853300 21.000000 2 359.959795
-0.879878 0.615636 0.136995 10.000000 0 359.959798
-0.028276 0.028054 3.009159 98.000000 31 359.959809
-0.376688 0.278554 2.978796 96.000000 28 359.959811
-0.493595 0.365940 2.977559 87.000000 27 359.959814
-0.789610 0.561847 3.143401 42.000000 25 359.959816
-1.058744 0.744625 3.108923 39.000000 23 359.959819
-2.109096 1.482829 4.790137 77.000000 21 359.959821
-2.624840 1.845437 4.785167 87.000000 19 359.959824
-1.971132 1.385836 2.960468 32.000000 17 359.959827
-0.142071 0.115688 2.999386 97.000000 30 359.959834
-0.257961 0.200185 2.997574 97.000000 29 359.959837
-0.656388 0.474041 3.152647 55.000000 26 359.959839
-0.924173 0.652387 3.130490 42.000000 24 359.959842
-1.202545 0.848280 3.105328 39.000000 22 359.959845
-2.362978 1.666264 4.799595 90.000000 20 359.959847
-1.998556 1.409294 2.729363 34.000000 16 359.959852
-2.044297 1.433551 2.533434 35.000000 15 359.959810
-2.201727 1.543952 2.249923 6.000000 13 359.959812
-2.719760 1.907929 2.262770 8.000000 11 359.959815
-9.630322 6.755753 6.241677 4.000000 9 359.959818
-9.242930 6.488810 3.407289 11.000000 5 359.959823
-10.376740 7.284779 2.498565 10.000000 3 359.959825
-2.070538 1.456809 2.335218 37.000000 14 359.959836
-2.739292 1.927344 2.522377 11.000000 12 359.959838
-3.812549 2.683476 2.824226 25.000000 10 359.959841
-8.511077 5.990563 4.898810 34.000000 8 359.959843
-8.541667 6.014323 3.722961 7.000000 6 359.959846
-10.590272 7.459545 3.214979 6.000000 4 359.959848
-10.294339 7.253785 1.846402 20.000000 2 359.959851
-0.028178 0.028152 3.009159 96.000000 31 359.959864
-0.375713 0.279867 2.978796 96.000000 28 359.959867
-0.492315 0.367661 2.977559 89.000000 27 359.959869
-0.787644 0.564600 3.143401 42.000000 25 359.959872
-1.056138 0.748316 3.108923 39.000000 23 359.959874
-2.103907 1.490182 4.790137 79.000000 21 359.959877
-2.618382 1.854588 4.785167 88.000000 19 359.959879
-1.966282 1.392708 2.960468 32.000000 17 359.959882
-0.141666 0.116183 2.999386 97.000000 30 359.959890
-0.257261 0.201084 2.997574 97.000000 29 359.959892
-0.654729 0.476330 3.152647 54.000000 26 359.959895
-0.921890 0.655609 3.130490 42.000000 24 359.959897
-1.199576 0.852472 3.105328 39.000000 22 359.959900
-2.357147 1.674502 4.799595 89.000000 20 359.959903
-5.847533 4.154077 9.569328 8.000000 18 359.959905
-1.996388 1.418225 2.733038 35.000000 16 359.959908
-2.039281 1.440678 2.533434 35.000000 15 359.959865
-2.199504 1.553874 2.253061 6.000000 13 359.959868
-2.723328 1.924652 2.270994 9.000000 11 359.959871
-8.339947 5.896272 4.214942 4.000000 7 359.959876
-9.216308 6.518264 3.405880 11.000000 5 359.959878
-10.106606 7.147930 2.441675 14.000000 3 359.959881
-2.065440 1.464028 2.335218 37.000000 14 359.959891
-2.735845 1.939232 2.525321 11.000000 12 359.959894
-3.806675 2.699262 2.826758 25.000000 10 359.959896
-8.490114 6.020236 4.898810 24.000000 8 359.959899
-8.505213 6.033173 3.716390 10.000000 6 359.959901
-10.457141 7.420518 3.183326 4.000000 4 359.959904
-10.208384 7.246676 1.836055 15.000000 2 359.959906
-0.028079 0.028251 3.009159 96.000000 31 359.959920
-0.375355 0.281643 2.983736 96.000000 28 359.959922
-0.491028 0.369377 2.977559 87.000000 27 359.959925
-0.786879 0.568220 3.148173 42.000000 25 359.959927
-1.053520 0.751998 3.108923 39.000000 23 359.959930
-2.098692 1.497517 4.790137 77.000000 21 359.959932
-2.611892 1.863717 4.785167 91.000000 19 359.959935
-1.961409 1.399563 2.960468 32.000000 17 359.959938
-0.141260 0.116677 2.999386 97.000000 30 359.959945
-0.256558 0.201981 2.997574 96.000000 29 359.959948
-0.653062 0.478612 3.152647 54.000000 26 359.959950
-0.919595 0.658823 3.130490 40.000000 24 359.959953
-1.196593 0.856655 3.105328 39.000000 22 359.959956
-2.351287 1.682720 4.799595 90.000000 20 359.959958
-5.742311 4.109562 9.421717 9.000000 18 359.959961
-1.991425 1.425185 2.733038 35.000000 16 359.959963
-2.037145 1.449855 2.536939 35.000000 15 359.959921
-2.194067 1.561542 2.253061 6.000000 13 359.959923
-2.713187 1.931721 2.268253 8.000000 11 359.959926
-9.193499 6.550395 3.405880 11.000000 5 359.959934
-10.649684 7.587932 2.574107 13.000000 3 359.959936
-2.060317 1.471228 2.335218 37.000000 14 359.959947
-2.729060 1.948770 2.525321 11.000000 12 359.959949
-3.800738 2.715039 2.829291 27.000000 10 359.959952
-8.380416 5.986521 4.848457 29.000000 8 359.959954
-8.476418 6.057334 3.713105 10.000000 6 359.959957
-9.466362 6.767255 2.897281 13.000000 4 359.959959
-0.027981 0.028348 3.009159 97.000000 31 359.959975
-0.374370 0.282952 2.983736 95.000000 28 359.959978
-0.489736 0.371089 2.977559 87.000000 27 359.959980
-0.784891 0.570964 3.148173 42.000000 25 359.959983
-1.050888 0.755671 3.108923 39.000000 23 359.959985
-2.093453 1.504833 4.790137 79.000000 21 359.959988
-2.605371 1.872823 4.785167 94.000000 19 359.959991
-1.959115 1.408273 2.964305 32.000000 17 359.959993
-0.140630 0.116983 2.994394 97.000000 30 359.960001
-0.255851 0.202875 2.997574 96.000000 29 359.960003
-0.651388 0.480889 3.152647 57.000000 26 359.960006
-0.917290 0.662029 3.130490 42.000000 24 359.960009
-1.195362 0.862100 3.109829 39.000000 22 359.960011
-2.345399 1.690917 4.799595 90.000000 20 359.960014
-5.639918 4.066128 9.278094 14.000000 18 359.960016
-1.986438 1.432128 2.733038 35.000000 16 359.960019
-2.034970 1.459036 2.540443 35.000000 15 359.959976
-2.191766 1.571460 2.256199 6.000000 13 359.959979
-2.652062 1.902187 2.224389 3.000000 11 359.959982
-9.242253 6.629008 6.037691 3.000000 9 359.959984
-7.944516 5.700305 4.038877 8.000000 7 359.959987
-9.201756 6.604826 3.417153 13.000000 5 359.959989
-10.631112 7.630789 2.575972 15.000000 3 359.959992
-2.058200 1.480592 2.338543 37.000000 14 359.960002
-2.699272 1.941761 2.504718 8.000000 12 359.960005
-3.794737 2.730808 2.831823 30.000000 10 359.960007
-7.980035 5.742685 4.632358 6.000000 8 359.960010
-8.451389 6.084127 3.711462 10.000000 6 359.960012
-9.351964 6.734926 2.870318 11.000000 4 359.960015
-7.891360 5.685146 1.446999 4.000000 2 359.960017
-0.027881 0.028446 3.009159 97.000000 31 359.960031
-0.373380 0.284257 2.983736 95.000000 28 359.960033
-0.488438 0.372796 2.977559 85.000000 27 359.960036
-0.782893 0.573700 3.148173 42.000000 25 359.960038
-1.049826 0.760481 3.113526 39.000000 23 359.960041
-2.088187 1.512132 4.790137 77.000000 21 359.960043
-2.598817 1.881905 4.785167 95.000000 19 359.960046
-1.954187 1.415103 2.964305 32.000000 17 359.960049
-0.140221 0.117473 2.994394 97.000000 30 359.960056
-0.255141 0.203767 2.997574 96.000000 29 359.960059
-0.649705 0.483160 3.152647 57.000000 26 359.960061
-0.914974 0.665227 3.130490 40.000000 24 359.960064
-1.192345 0.866267 3.109829 39.000000 22 359.960067
-2.339483 1.699094 4.799595 90.000000 20 359.960069
-5.525705 4.013174 9.114525 14.000000 18 359.960072
-1.984170 1.441046 2.736713 35.000000 16 359.960074
-2.029864 1.466130 2.540443 35.000000 15 359.960032
-2.186267 1.579101 2.256199 7.000000 13 359.960035
-2.570842 1.857556 2.164077 2.000000 11 359.960037
-8.709147 6.292793 5.708531 3.000000 9 359.960040
-7.838155 5.665540 3.995797 11.000000 7 359.960042
-10.624315 7.682244 2.580635 13.000000 3 359.960047
-2.053020 1.487768 2.338543 37.000000 14 359.960058
-2.672840 1.936940 2.487060 7.000000 12 359.960060
-3.792162 2.749098 2.836888 34.000000 10 359.960063
-7.585138 5.498796 4.418356 3.000000 8 359.960065
-8.445392 6.124680 3.718033 10.000000 6 359.960068
-9.080535 6.587711 2.796462 13.000000 4 359.960070
-7.767262 5.637032 1.429064 10.000000 2 359.960073
-0.820486 0.595677 0.134576 4.000000 0 359.960076
-0.027755 0.028509 3.004159 98.000000 31 359.960086
-0.371769 0.285085 2.978796 96.000000 28 359.960089
-0.487134 0.374499 2.977559 83.000000 27 359.960091
-0.780886 0.576429 3.148173 40.000000 25 359.960094
-1.047165 0.764141 3.113526 39.000000 23 359.960096
-2.082896 1.519411 4.790137 77.000000 21 359.960099
-2.592232 1.890966 4.785167 95.000000 19 359.960102
-1.949236 1.421915 2.964305 32.000000 17 359.960104
-0.139810 0.117962 2.994394 97.000000 30 359.960112
-0.254428 0.204656 2.997574 97.000000 29 359.960114
-0.648015 0.485425 3.152647 52.000000 26 359.960117
-0.912646 0.668417 3.130490 40.000000 24 359.960120
-1.189314 0.870424 3.109829 39.000000 22 359.960122
-2.333538 1.707250 4.799595 90.000000 20 359.960125
-5.399771 3.950575 8.931008 12.000000 18 359.960127
-1.979128 1.447963 2.736713 34.000000 16 359.960130
-2.027618 1.475305 2.543948 35.000000 15 359.960087
-2.180742 1.586723 2.256199 6.000000 13 359.960090
-2.560962 1.864058 2.161335 1.000000 11 359.960093
-8.500872 6.187584 5.587993 4.000000 9 359.960095
-7.833322 5.703780 4.003290 11.000000 7 359.960098
-8.705613 6.341259 3.253687 5.000000 5 359.960100
-2.050830 1.497127 2.341867 37.000000 14 359.960113
-2.568123 1.874761 2.398765 7.000000 12 359.960116
-3.789507 2.767404 2.841953 45.000000 10 359.960118
-7.411958 5.412820 4.330238 6.000000 8 359.960121
-0.798239 0.583791 0.133569 4.000000 0 359.960131
-0.027655 0.028606 3.004159 98.000000 31 359.960142
-0.370772 0.286381 2.978796 96.000000 28 359.960144
-0.485823 0.376197 2.977559 83.000000 27 359.960147
-0.778869 0.579152 3.148173 42.000000 25 359.960149
-1.044492 0.767791 3.113526 39.000000 23 359.960152
-2.077579 1.526673 4.790137 79.000000 21 359.960155
-2.585616 1.900003 4.785167 95.000000 19 359.960157
-1.946844 1.430609 2.968142 32.000000 17 359.960160
-0.139398 0.118449 2.994394 97.000000 30 359.960167
-0.254127 0.205880 3.002545 97.000000 29 359.960170
-0.646316 0.487684 3.152647 52.000000 26 359.960173
-0.910307 0.671598 3.130490 40.000000 24 359.960175
-1.186269 0.874570 3.109829 39.000000 22 359.960178
-2.327564 1.715385 4.799595 90.000000 20 359.960180
-5.332571 3.930061 8.843240 11.000000 18 359.960183
-1.974062 1.454862 2.736713 34.000000 16 359.960185
-2.022456 1.482373 2.543948 35.000000 15 359.960143
-2.175190 1.594325 2.256199 6.000000 13 359.960146
-2.611765 1.915019 2.207940 2.000000 11 359.960148
-7.809626 5.728347 4.001417 10.000000 7 359.960153
-8.637011 6.337553 3.236776 10.000000 5 359.960156
-8.855551 6.497910 2.176811 11.000000 3 359.960158
-2.045591 1.504276 2.341867 37.000000 14 359.960169
-2.473642 1.819059 2.319299 10.000000 12 359.960171
-3.786769 2.785724 2.847018 51.000000 10 359.960174
-7.276032 5.352598 4.263100 9.000000 8 359.960176
-10.803587 7.953453 3.326349 17.000000 4 359.960181
-0.800218 0.589538 0.133770 4.000000 0 359.960187
-0.027555 0.028702 3.004159 97.000000 31 359.960197
-0.369770 0.287674 2.978796 96.000000 28 359.960200
-0.484507 0.377890 2.977559 85.000000 27 359.960202
-0.776842 0.581867 3.148173 42.000000 25 359.960205
-1.040235 0.770270 3.108923 39.000000 23 359.960207
-2.072238 1.533916 4.790137 79.000000 21 359.960210
-2.581230 1.910691 4.789300 95.000000 19 359.960212
-1.941838 1.437396 2.968142 32.000000 17 359.960215
-0.138983 0.118935 2.994394 97.000000 30 359.960223
-0.253406 0.206766 3.002545 97.000000 29 359.960225
-0.645611 0.490698 3.157487 54.000000 26 359.960228
-0.907957 0.674772 3.130490 40.000000 24 359.960230
-1.183209 0.878706 3.109829 39.000000 22 359.960233
-2.321562 1.723499 4.799595 90.000000 20 359.960235
-5.231701 3.883975 8.699617 11.000000 18 359.960238
-1.971693 1.463765 2.740388 34.000000 16 359.960241
-2.017269 1.489424 2.543948 35.000000 15 359.960198
-2.169611 1.601908 2.256199 6.000000 13 359.960201
-2.618518 1.934061 2.218906 4.000000 11 359.960203
-7.121136 5.259749 4.718733 4.000000 9 359.960206
-7.800767 5.763838 4.007036 10.000000 7 359.960209
-8.603262 6.359108 3.232548 12.000000 5 359.960211
-8.386434 6.198838 2.071425 2.000000 3 359.960214
-2.043329 1.513631 2.345192 37.000000 14 359.960224
-2.460782 1.822871 2.313413 4.000000 12 359.960227
-3.780486 2.801492 2.849550 57.000000 10 359.960229
-7.235425 5.361751 4.250512 10.000000 8 359.960232
-10.783566 7.996906 3.328694 16.000000 4 359.960237
-0.027455 0.028798 3.004159 97.000000 31 359.960253
-0.368152 0.288483 2.973857 96.000000 28 359.960255
-0.483185 0.379579 2.977559 85.000000 27 359.960258
-0.774806 0.584575 3.148173 42.000000 25 359.960260
-1.037540 0.773896 3.108923 39.000000 23 359.960263
-2.066871 1.541140 4.790137 79.000000 21 359.960265
-2.574545 1.919690 4.789300 95.000000 19 359.960268
-1.939379 1.446082 2.971979 32.000000 17 359.960270
-0.138567 0.119419 2.994394 97.000000 30 359.960278
-0.252683 0.207649 3.002545 96.000000 29 359.960281
-0.643894 0.492949 3.157487 54.000000 26 359.960283
-0.905596 0.677937 3.130490 40.000000 24 359.960286
-1.180134 0.882831 3.109829 39.000000 22 359.960288
-2.315532 1.731593 4.799595 90.000000 20 359.960291
-5.150528 3.851672 8.587912 11.000000 18 359.960294
-1.966572 1.470639 2.740388 34.000000 16 359.960296
-2.014919 1.498585 2.547452 35.000000 15 359.960254
-2.167130 1.611795 2.259336 6.000000 13 359.960256
-2.668782 1.985622 2.265511 6.000000 11 359.960259
-6.971223 5.186729 4.632967 5.000000 9 359.960261
-7.784320 5.793801 4.008909 10.000000 7 359.960264
-6.977844 5.195440 1.743142 5.000000 3 359.960269
-2.038033 1.520754 2.345192 37.000000 14 359.960279
-3.774138 2.817251 2.852082 61.000000 10 359.960285
-7.205754 5.378830 4.244218 10.000000 8 359.960287
-4.420030 3.300590 2.007998 36.000000 6 359.960290
-10.759480 8.037407 3.329866 16.000000 4 359.960292
-0.027354 0.028894 3.004159 97.000000 31 359.960308
-0.367143 0.289766 2.973857 96.000000 28 359.960311
-0.481857 0.381264 2.977559 85.000000 27 359.960313
-0.772761 0.587276 3.148173 42.000000 25 359.960316
-1.034832 0.777513 3.108923 37.000000 23 359.960318
-2.063394 1.549784 4.794526 77.000000 21 359.960321
-2.567828 1.928665 4.789300 95.000000 19 359.960323
-1.934319 1.452843 2.971979 32.000000 17 359.960326
-0.138150 0.119902 2.994394 97.000000 30 359.960334
-0.251546 0.208189 2.997574 96.000000 29 359.960336
-0.642170 0.495194 3.157487 52.000000 26 359.960339
-0.903224 0.681094 3.130490 40.000000 24 359.960341
-1.177045 0.886945 3.109829 38.000000 22 359.960344
-2.309473 1.739665 4.799595 90.000000 20 359.960347
-5.060016 3.811599 8.460247 12.000000 18 359.960349
-1.964134 1.479534 2.744064 34.000000 16 359.960352
-2.009676 1.505609 2.547452 35.000000 15 359.960309
-2.161491 1.619350 2.259336 6.000000 13 359.960312
-2.625028 1.967341 2.235355 4.000000 11 359.960314
-6.828997 5.118040 4.551836 6.000000 9 359.960317
-8.261084 6.193580 4.259895 6.000000 7 359.960320
-10.995688 8.246794 4.127388 14.000000 5 359.960322
-6.967525 5.225660 1.745008 5.000000 3 359.960325
-2.032712 1.527858 2.345192 37.000000 14 359.960335
-3.764282 2.830408 2.852082 68.000000 10 359.960340
-7.205072 5.417588 4.254708 10.000000 8 359.960343
-4.442448 3.341548 2.022782 82.000000 6 359.960345
-10.750778 8.089529 3.335728 12.000000 4 359.960348
-0.027253 0.028989 3.004159 97.000000 31 359.960364
-0.366129 0.291046 2.973857 96.000000 28 359.960366
-0.480523 0.382943 2.977559 87.000000 27 359.960369
-0.770707 0.589970 3.148173 42.000000 25 359.960371
-1.032112 0.781121 3.108923 37.000000 23 359.960374
-2.057972 1.556977 4.794526 77.000000 21 359.960376
-2.563324 1.939314 4.793433 95.000000 19 359.960379
-1.931793 1.461520 2.975816 32.000000 17 359.960381
-0.137730 0.120384 2.994394 97.000000 30 359.960389
-0.250818 0.209065 2.997574 97.000000 29 359.960392
-0.640437 0.497432 3.157487 52.000000 26 359.960394
-0.900842 0.684243 3.130490 40.000000 24 359.960397
-1.173942 0.891048 3.109829 38.000000 22 359.960399
-2.303386 1.747716 4.799595 89.000000 20 359.960402
-4.974650 3.774584 8.340563 12.000000 18 359.960405
-1.958958 1.486381 2.744064 34.000000 16 359.960407
-2.004408 1.512615 2.547452 35.000000 15 359.960365
-2.158932 1.629230 2.262474 6.000000 13 359.960367
-2.628157 1.984050 2.243579 4.000000 11 359.960370
-6.715623 5.069777 4.489249 9.000000 9 359.960373
-8.143227 6.149738 4.211196 5.000000 7 359.960375
-10.955352 8.276450 4.123161 14.000000 5 359.960378
-6.757186 5.104857 1.699309 15.000000 3 359.960380
-2.027366 1.534945 2.345192 37.000000 14 359.960391
-2.389997 1.809502 2.266322 2.000000 12 359.960393
-3.754379 2.843530 2.852082 71.000000 10 359.960396
-7.186117 5.442706 4.254708 10.000000 8 359.960398
-4.445813 3.368442 2.029353 78.000000 6 359.960401
-6.476919 4.909122 2.050868 3.000000 4 359.960403
-0.027152 0.029084 3.004159 97.000000 31 359.960419
-0.365111 0.292322 2.973857 96.000000 28 359.960422
-0.479184 0.384618 2.977559 87.000000 27 359.960424
-0.768642 0.592657 3.148173 40.000000 25 359.960427
-1.030933 0.785903 3.113526 39.000000 23 359.960429
-2.052525 1.564151 4.794526 76.000000 21 359.960432
-2.556539 1.948250 4.793433 95.000000 19 359.960434
-1.926679 1.468255 2.975816 32.000000 17 359.960437
-0.137309 0.120864 2.994394 97.000000 30 359.960445
-0.250087 0.209940 2.997574 97.000000 29 359.960447
-0.638697 0.499665 3.157487 52.000000 26 359.960450
-0.898448 0.687383 3.130490 40.000000 24 359.960452
-1.170825 0.895140 3.109829 39.000000 22 359.960455
-2.299344 1.757329 4.803862 90.000000 20 359.960458
-4.887210 3.735189 8.216887 12.000000 18 359.960460
-1.953757 1.493210 2.744064 33.000000 16 359.960463
-1.999116 1.519603 2.547452 35.000000 15 359.960420
-2.156331 1.639112 2.265612 6.000000 13 359.960423
-2.614558 1.988150 2.238096 6.000000 11 359.960425
-6.683781 5.082462 4.479977 11.000000 9 359.960428
-10.937847 8.323356 4.127388 13.000000 5 359.960433
-2.024965 1.544277 2.348517 37.000000 14 359.960446
-2.367596 1.805578 2.251607 3.000000 12 359.960449
-3.744430 2.856618 2.852082 74.000000 10 359.960451
-7.163466 5.465003 4.252610 12.000000 8 359.960454
-4.434028 3.383940 2.029353 75.000000 6 359.960456
-0.027050 0.029179 3.004159 97.000000 31 359.960475
-0.364693 0.294083 2.978796 96.000000 28 359.960477
-0.477838 0.386289 2.977559 87.000000 27 359.960480
-0.766569 0.595336 3.148173 40.000000 25 359.960482
-1.028183 0.789497 3.113526 39.000000 23 359.960485
-2.047052 1.571307 4.794526 76.000000 21 359.960487
-2.549723 1.957162 4.793433 94.000000 19 359.960490
-1.924085 1.476923 2.979653 32.000000 17 359.960493
-0.136886 0.121342 2.994394 97.000000 30 359.960500
-0.249352 0.210811 2.997574 97.000000 29 359.960503
-0.636949 0.501891 3.157487 52.000000 26 359.960505
-0.896043 0.690515 3.130490 40.000000 24 359.960508
-1.167693 0.899222 3.109829 39.000000 22 359.960511
-2.293196 1.765345 4.803862 90.000000 20 359.960513
-4.802495 3.697071 8.097203 12.000000 18 359.960516
-1.948533 1.500021 2.744064 33.000000 16 359.960518
-1.993799 1.526572 2.547452 35.000000 15 359.960476
-2.153687 1.648996 2.268750 6.000000 13 359.960478
-2.610922 1.999807 2.240838 7.000000 11 359.960481
-6.680067 5.116537 4.489249 11.000000 9 359.960484
-7.400916 5.670714 3.855320 9.000000 7 359.960486
-10.908726 8.361485 4.127388 13.000000 5 359.960489
-2.019562 1.551336 2.348517 37.000000 14 359.960502
-2.367690 1.818756 2.257493 7.000000 12 359.960504
-3.734436 2.869671 2.852082 79.000000 10 359.960507
-4.422188 3.399397 2.029353 75.000000 6 359.960512
-8.322799 6.400163 2.622959 4.000000 4 359.960514
-0.026948 0.029273 3.004159 97.000000 31 359.960530
-0.363664 0.295354 2.978796 96.000000 28 359.960533
-0.476487 0.387954 2.977559 89.000000 27 359.960535
-0.764486 0.598008 3.148173 40.000000 25 359.960538
-1.025421 0.793081 3.113526 39.000000 23 359.960540
-2.041554 1.578443 4.794526 76.000000 21 359.960543
-2.542876 1.966051 4.793433 91.000000 19 359.960545
-1.918918 1.483631 2.979653 32.000000 17 359.960548
-0.136462 0.121819 2.994394 97.000000 30 359.960556
-0.248615 0.211681 2.997574 96.000000 29 359.960558
-0.635193 0.504111 3.157487 54.000000 26 359.960561
-0.893627 0.693639 3.130490 40.000000 24 359.960563
-1.164547 0.903292 3.109829 39.000000 22 359.960566
-2.287019 1.773339 4.803862 90.000000 20 359.960569
-4.720488 3.660253 7.981509 12.000000 18 359.960571
-1.945964 1.508891 2.747739 33.000000 16 359.960574
-1.991282 1.535700 2.550957 35.000000 15 359.960531
-2.151001 1.658881 2.271888 6.000000 13 359.960534
-2.603925 2.008909 2.240838 7.000000 11 359.960537
-6.662165 5.139823 4.489249 11.000000 9 359.960539
-7.304006 5.637033 3.815986 10.000000 7 359.960542
-8.499736 6.562233 2.130180 7.000000 3 359.960547
-2.017088 1.560661 2.351842 37.000000 14 359.960557
-2.354933 1.822063 2.251607 5.000000 12 359.960560
-3.724396 2.882689 2.852082 79.000000 10 359.960562
-7.717332 5.973239 4.598789 12.000000 8 359.960565
-4.414030 3.417704 2.030996 77.000000 6 359.960567
-8.069843 6.250590 2.552620 3.000000 4 359.960570
-0.026846 0.029367 3.004159 97.000000 31 359.960586
-0.362631 0.296622 2.978796 96.000000 28 359.960588
-0.475130 0.389615 2.977559 87.000000 27 359.960591
-0.762394 0.600673 3.148173 40.000000 25 359.960593
-1.022646 0.796656 3.113526 39.000000 23 359.960596
-2.036032 1.585559 4.794526 77.000000 21 359.960598
-2.535997 1.974915 4.793433 92.000000 19 359.960601
-1.913728 1.490320 2.979653 31.000000 17 359.960604
-0.136036 0.122295 2.994394 97.000000 30 359.960611
-0.247874 0.212547 2.997574 96.000000 29 359.960614
-0.633430 0.506326 3.157487 52.000000 26 359.960616
-0.891200 0.696754 3.130490 40.000000 24 359.960619
-1.161387 0.907352 3.109829 39.000000 22 359.960622
-2.280815 1.781311 4.803862 90.000000 20 359.960624
-4.643548 3.626619 7.873792 12.000000 18 359.960627
-1.940685 1.515674 2.747739 33.000000 16 359.960629
-1.985910 1.542641 2.550957 35.000000 15 359.960587
-2.148271 1.668767 2.275025 6.000000 13 359.960589
-2.596897 2.017986 2.240838 8.000000 11 359.960592
-6.647682 5.165765 4.491567 11.000000 9 359.960595
-7.262323 5.645423 3.804748 11.000000 7 359.960597
-8.476778 6.591863 2.130180 8.000000 3 359.960602
-2.011628 1.567693 2.351842 37.000000 14 359.960613
-2.348559 1.830272 2.251607 5.000000 12 359.960615
-3.717711 2.898323 2.854615 81.000000 10 359.960618
-7.717911 6.016884 4.611377 12.000000 8 359.960620
-4.402073 3.433091 2.030996 82.000000 6 359.960623
-6.135651 4.786798 1.967633 5.000000 4 359.960625
-0.026769 0.029495 3.009159 97.000000 31 359.960641
-0.361593 0.297886 2.978796 96.000000 28 359.960644
-0.473767 0.391271 2.977559 85.000000 27 359.960646
-0.760293 0.603331 3.148173 40.000000 25 359.960649
-1.019859 0.800221 3.113526 39.000000 23 359.960651
-2.030486 1.592657 4.794526 77.000000 21 359.960654
-2.529088 1.983755 4.793433 94.000000 19 359.960657
-1.911036 1.498969 2.983490 31.000000 17 359.960659
-0.135608 0.122769 2.994394 97.000000 30 359.960667
-0.247131 0.213411 2.997574 97.000000 29 359.960669
-0.631658 0.508534 3.157487 52.000000 26 359.960672
-0.888763 0.699860 3.130490 40.000000 24 359.960675
-1.158212 0.911400 3.109829 38.000000 22 359.960677
-2.274584 1.789262 4.803862 89.000000 20 359.960680
-4.566901 3.592493 7.766075 12.000000 18 359.960682
-1.938047 1.524535 2.751414 33.000000 16 359.960685
-1.983321 1.551762 2.554461 35.000000 15 359.960642
-2.145499 1.678655 2.278163 6.000000 13 359.960645
-2.593130 2.029615 2.243579 9.000000 11 359.960648
-6.636587 5.194399 4.496203 11.000000 9 359.960650
-7.264474 5.687887 3.815986 11.000000 7 359.960653
-8.465317 6.630499 2.132977 11.000000 3 359.960658
-2.009081 1.577011 2.355167 37.000000 14 359.960668
-2.364412 1.855929 2.272209 12.000000 12 359.960671
-3.707571 2.911283 2.854615 83.000000 10 359.960673
-4.390062 3.448436 2.030996 77.000000 6 359.960678
-6.004249 4.718091 1.932464 16.000000 4 359.960681
-0.026666 0.029589 3.009159 97.000000 31 359.960697
-0.360551 0.299146 2.978796 97.000000 28 359.960699
-0.472398 0.392923 2.977559 89.000000 27 359.960702
-0.758182 0.605981 3.148173 42.000000 25 359.960704
-1.017060 0.803776 3.113526 39.000000 23 359.960707
-2.024914 1.599735 4.794526 77.000000 21 359.960709
-2.522148 1.992571 4.793433 95.000000 19 359.960712
-1.905792 1.505631 2.983490 31.000000 17 359.960715
-0.135179 0.123242 2.994394 97.000000 30 359.960722
-0.246385 0.214272 2.997574 97.000000 29 359.960725
-0.629879 0.510735 3.157487 52.000000 26 359.960727
-0.886314 0.702958 3.130490 40.000000 24 359.960730
-1.155024 0.915438 3.109829 38.000000 22 359.960733
-2.268324 1.797191 4.803862 90.000000 20 359.960735
-4.492912 3.559749 7.662348 12.000000 18 359.960738
-1.935371 1.533396 2.755089 32.000000 16 359.960740
-1.977893 1.558675 2.554461 35.000000 15 359.960698
-2.142684 1.688543 2.281301 7.000000 13 359.960701
-2.586030 2.038655 2.243579 9.000000 11 359.960703
-7.321019 5.773494 3.855320 4.000000 7 359.960708
-8.442122 6.660008 2.132977 11.000000 3 359.960713
-2.003564 1.584014 2.355167 36.000000 14 359.960724
-2.383285 1.884226 2.295754 6.000000 12 359.960726
-3.697386 2.924207 2.854615 85.000000 10 359.960729
-6.732381 5.324546 4.055393 5.000000 8 359.960731
-4.377998 3.463739 2.030996 8.000000 6 359.960734
-0.026562 0.029681 3.009159 96.000000 31 359.960752
-0.359505 0.300403 2.978796 97.000000 28 359.960755
-0.471024 0.394569 2.977559 87.000000 27 359.960757
-0.756062 0.608624 3.148173 42.000000 25 359.960760
-1.014248 0.807321 3.113526 39.000000 23 359.960762
-2.019317 1.606793 4.794526 77.000000 21 359.960765
-2.515177 2.001363 4.793433 95.000000 19 359.960768
-1.903034 1.514271 2.987327 31.000000 17 359.960770
-0.134748 0.123713 2.994394 97.000000 30 359.960778
-0.245635 0.215131 2.997574 97.000000 29 359.960780
-0.628093 0.512931 3.157487 54.000000 26 359.960783
-0.885203 0.707125 3.135183 40.000000 24 359.960786
-1.151821 0.919464 3.109829 38.000000 22 359.960788
-2.262037 1.805098 4.803862 90.000000 20 359.960791
-4.419208 3.526531 7.558621 13.000000 18 359.960793
-1.932657 1.542258 2.758764 27.000000 16 359.960796
-1.975233 1.567787 2.557966 33.000000 15 359.960753
-2.139826 1.698432 2.284439 12.000000 13 359.960756
-2.578897 2.047669 2.243579 10.000000 11 359.960759
-7.113651 5.648322 4.839271 9.000000 9 359.960761
-7.355273 5.842266 3.883415 4.000000 7 359.960764
-5.735641 4.557430 2.241884 7.000000 5 359.960766
-8.434207 6.701660 2.136708 11.000000 3 359.960769
-2.000944 1.593324 2.358492 36.000000 14 359.960779
-2.376693 1.892533 2.295754 6.000000 12 359.960782
-3.690529 2.939781 2.857147 85.000000 10 359.960784
-6.696005 5.333876 4.044903 10.000000 8 359.960787
-7.704326 6.141478 2.467041 12.000000 4 359.960792
-0.026433 0.029739 3.004159 96.000000 31 359.960808
-0.359048 0.302157 2.983736 96.000000 28 359.960810
-0.469644 0.396211 2.977559 85.000000 27 359.960813
-0.753933 0.611259 3.148173 40.000000 25 359.960815
-1.011424 0.810857 3.113526 39.000000 23 359.960818
-2.013696 1.613832 4.794526 77.000000 21 359.960821
-2.508176 2.010130 4.793433 95.000000 19 359.960823
-1.900238 1.522909 2.991163 31.000000 17 359.960826
-0.134315 0.124182 2.994394 96.000000 30 359.960833
-0.244883 0.215987 2.997574 97.000000 29 359.960836
-0.626298 0.515120 3.157487 54.000000 26 359.960839
-0.882730 0.710211 3.135183 40.000000 24 359.960841
-1.148605 0.923479 3.109829 39.000000 22 359.960844
-2.255722 1.812983 4.803862 90.000000 20 359.960846
-4.348141 3.494732 7.458884 13.000000 18 359.960849
-1.929904 1.551118 2.762439 16.000000 16 359.960851
-1.969748 1.574672 2.557966 26.000000 15 359.960809
-2.136925 1.708322 2.287576 10.000000 13 359.960812
-2.571734 2.056659 2.243579 10.000000 11 359.960814
-7.152710 5.720157 4.878677 11.000000 9 359.960817
-7.338455 5.870801 3.885288 4.000000 7 359.960819
-5.719698 4.577424 2.241884 7.000000 5 359.960822
-8.418432 6.737199 2.138573 11.000000 3 359.960824
-1.995370 1.600299 2.358492 36.000000 14 359.960835
-2.363767 1.895760 2.289868 7.000000 12 359.960837
-3.680244 2.952646 2.857147 86.000000 10 359.960840
-6.673804 5.354376 4.042805 14.000000 8 359.960842
-7.690422 6.174420 2.469385 12.000000 4 359.960847
-0.026329 0.029831 3.004159 97.000000 31 359.960863
-0.357991 0.303409 2.983736 96.000000 28 359.960866
-0.468258 0.397848 2.977559 85.000000 27 359.960868
-0.751795 0.613887 3.148173 40.000000 25 359.960871
-1.010107 0.815610 3.118128 39.000000 23 359.960873
-2.008050 1.620852 4.794526 79.000000 21 359.960876
-2.501144 2.018873 4.793433 95.000000 19 359.960878
-1.894911 1.529533 2.991163 31.000000 17 359.960881
-0.133881 0.124650 2.994394 97.000000 30 359.960889
-0.244127 0.216841 2.997574 96.000000 29 359.960891
-0.624497 0.517303 3.157487 54.000000 26 359.960894
-0.880245 0.713288 3.135183 40.000000 24 359.960896
-1.145374 0.927483 3.109829 39.000000 22 359.960899
-2.249380 1.820845 4.803862 90.000000 20 359.960901
-4.260952 3.449206 7.331220 13.000000 18 359.960904
-1.924478 1.557845 2.762439 14.000000 16 359.960907
-1.967018 1.583775 2.561471 16.000000 15 359.960864
-2.133981 1.718212 2.290714 3.000000 13 359.960867
-2.564539 2.065623 2.243579 10.000000 11 359.960869
-7.335966 5.910924 3.894654 4.000000 7 359.960875
-5.569223 4.488981 2.191153 13.000000 5 359.960877
-8.406337 6.775792 2.141371 12.000000 3 359.960880
-1.992677 1.609601 2.361816 36.000000 14 359.960890
-2.357135 1.904000 2.289868 8.000000 12 359.960893
-3.673269 2.968184 2.859680 87.000000 10 359.960895
-6.658605 5.380493 4.044903 7.000000 8 359.960898
-7.668823 6.201227 2.469385 12.000000 4 359.960903
-0.026225 0.029923 3.004159 97.000000 31 359.960919
-0.356930 0.304656 2.983736 96.000000 28 359.960921
-0.466866 0.399480 2.977559 89.000000 27 359.960924
-0.749647 0.616508 3.148173 40.000000 25 359.960926
-1.007254 0.819130 3.118128 38.000000 23 359.960929
-2.002380 1.627851 4.794526 79.000000 21 359.960931
-2.496265 2.029366 4.797566 95.000000 19 359.960934
-1.892047 1.538160 2.995000 31.000000 17 359.960936
-0.133445 0.125117 2.994394 97.000000 30 359.960944
-0.243369 0.217692 2.997574 96.000000 29 359.960947
-0.622687 0.519480 3.157487 54.000000 26 359.960949
-0.877750 0.716356 3.135183 40.000000 24 359.960952
-1.142130 0.931475 3.109829 38.000000 22 359.960954
-2.243011 1.828686 4.803862 90.000000 20 359.960957
-4.188151 3.414542 7.227493 14.000000 18 359.960960
-1.919028 1.564553 2.762439 14.000000 16 359.960962
-1.961477 1.590632 2.561471 15.000000 15 359.960920
-2.127970 1.725651 2.290714 3.000000 13 359.960922
-2.560561 2.077197 2.246321 10.000000 11 359.960925
-6.252480 5.072196 4.299170 2.000000 9 359.960927
-7.315289 5.936495 3.894654 5.000000 7 359.960930
-5.534897 4.493276 2.184107 7.000000 5 359.960933
-8.390262 6.811286 2.143236 11.000000 3 359.960935
-1.987046 1.616547 2.361816 36.000000 14 359.960945
-2.347339 1.909665 2.286925 8.000000 12 359.960948
-3.662885 2.980988 2.859680 87.000000 10 359.960951
-5.361963 4.365321 2.494233 8.000000 6 359.960956
-7.650899 6.231028 2.470558 11.000000 4 359.960958
-0.026120 0.030014 3.004159 97.000000 31 359.960974
-0.355864 0.305900 2.983736 96.000000 28 359.960977
-0.465469 0.401107 2.977559 84.000000 27 359.960979
-0.747491 0.619121 3.148173 40.000000 25 359.960982
-1.004388 0.822641 3.118128 38.000000 23 359.960984
-1.998539 1.636348 4.798914 78.000000 21 359.960987
-2.489166 2.038068 4.797566 95.000000 19 359.960989
-1.886667 1.544755 2.995000 31.000000 17 359.960992
-0.133217 0.125782 2.999386 97.000000 30 359.961000
-0.243003 0.218898 3.002545 97.000000 29 359.961002
-0.620870 0.521650 3.157487 52.000000 26 359.961005
-0.875244 0.719415 3.135183 40.000000 24 359.961007
-1.138871 0.935456 3.109829 38.000000 22 359.961010
-2.236613 1.836505 4.803862 90.000000 20 359.961013
-4.078375 3.348810 7.059934 22.000000 18 359.961015
-1.916175 1.573394 2.766115 14.000000 16 359.961018
-1.955913 1.597469 2.561471 15.000000 15 359.960975
-2.124949 1.735531 2.293852 3.000000 13 359.960978
-2.553294 2.086122 2.246321 8.000000 11 359.960980
-6.207291 5.071566 4.280626 8.000000 9 359.960983
-7.341186 6.000134 3.919003 7.000000 7 359.960986
-8.377844 6.849860 2.146034 11.000000 3 359.960991
-1.984280 1.625840 2.365141 36.000000 14 359.961001
-2.337532 1.915286 2.283982 8.000000 12 359.961004
-3.652457 2.993756 2.859680 88.000000 10 359.961006
-7.491379 6.140358 4.565220 10.000000 8 359.961009
-5.288263 4.336102 2.467950 29.000000 6 359.961011
-7.636618 6.263862 2.472902 11.000000 4 359.961014
-0.026015 0.030105 3.004159 97.000000 31 359.961030
-0.354207 0.306632 2.978796 96.000000 28 359.961032
-0.464066 0.402730 2.977559 84.000000 27 359.961035
-0.746472 0.622683 3.152945 42.000000 25 359.961037
-1.001511 0.826142 3.118128 39.000000 23 359.961040
-1.992816 1.643315 4.798914 78.000000 21 359.961042
-2.482037 2.046744 4.797566 94.000000 19 359.961045
-1.883736 1.553372 2.998837 31.000000 17 359.961047
-0.132777 0.126246 2.999386 97.000000 30 359.961055
-0.242238 0.219745 3.002545 97.000000 29 359.961058
-0.619045 0.523815 3.157487 51.000000 26 359.961060
-0.872727 0.722466 3.135183 40.000000 24 359.961063
-1.135599 0.939426 3.109829 38.000000 22 359.961065
-2.232199 1.845963 4.808127 90.000000 20 359.961068
-3.999305 3.307324 6.944239 35.000000 18 359.961071
-1.910671 1.580073 2.766115 14.000000 16 359.961073
-1.950325 1.604286 2.561471 14.000000 15 359.961031
-2.118877 1.742938 2.293852 3.000000 13 359.961033
-2.545997 2.095022 2.246321 8.000000 11 359.961036
-6.172446 5.079128 4.269036 10.000000 9 359.961039
-7.320196 6.025723 3.919003 6.000000 7 359.961041
-7.029160 5.788210 2.764696 7.000000 5 359.961044
-8.361466 6.885308 2.147900 11.000000 3 359.961046
-1.978593 1.632757 2.365141 36.000000 14 359.961057
-2.330832 1.923434 2.283982 8.000000 12 359.961059
-3.641985 3.006487 2.859680 89.000000 10 359.961062
-7.480401 6.175139 4.571514 10.000000 8 359.961064
-5.087388 4.201177 2.384173 25.000000 6 359.961067
-7.614706 6.290481 2.472902 11.000000 4 359.961069
-0.025910 0.030196 3.004159 96.000000 31 359.961085
-0.353135 0.307866 2.978796 96.000000 28 359.961088
-0.462657 0.404347 2.977559 89.000000 27 359.961090
-0.744294 0.625285 3.152945 40.000000 25 359.961093
-0.998621 0.829633 3.118128 39.000000 23 359.961095
-1.987067 1.650261 4.798914 78.000000 21 359.961098
-2.474877 2.055396 4.797566 91.000000 19 359.961100
-1.878303 1.559937 2.998837 31.000000 17 359.961103
-0.132335 0.126709 2.999386 97.000000 30 359.961111
-0.241469 0.220589 3.002545 97.000000 29 359.961113
