# .PCD v.7 - Point Cloud Data file format
VERSION .7
FIELDS x y z intensity ring timestamp
SIZE 4 4 4 4 2 8
TYPE F F F F U D
COUNT 1 1 1 1 1 1
WIDTH 907
HEIGHT 1
VIEWPOINT 0 0 0 1 0 0 0
POINTS 907
DATA ascii
-0.022968 -0.032436 2.999159 96.000000 31 360.232922
-0.211439 -0.414580 2.959039 96.000000 28 360.232925
-0.266836 -0.521655 2.840492 74.000000 27 360.232927
-0.203943 -0.418756 1.535330 64.000000 25 360.232930
-0.412436 -0.858559 2.303482 77.000000 23 360.232932
-0.530076 -1.103917 2.310544 36.000000 21 360.232935
-0.515536 -1.073632 1.821843 20.000000 19 360.232937
-0.511508 -1.065237 1.490918 39.000000 17 360.232940
-0.090474 -0.158652 2.989403 97.000000 30 360.232948
-0.154300 -0.285948 2.982660 97.000000 29 360.232950
-0.212676 -0.429043 1.879937 22.000000 26 360.232953
-0.361872 -0.749957 2.318641 69.000000 24 360.232955
-0.469804 -0.974480 2.299679 74.000000 22 360.232958
-0.528339 -1.096367 2.060866 17.000000 20 360.232961
-0.511447 -1.061309 1.634216 23.000000 18 360.232963
-0.508262 -1.054694 1.347501 39.000000 16 360.232966
-0.506789 -1.058717 1.233248 40.000000 15 360.232923
-0.500517 -1.045609 1.016777 42.000000 13 360.232926
-0.497611 -1.039071 0.839949 40.000000 11 360.232928
-0.496224 -1.036170 0.687685 39.000000 9 360.232931
-0.491116 -1.025044 0.547544 38.000000 7 360.232934
-0.479146 -0.999614 0.415567 24.000000 5 360.232936
-0.477734 -0.996668 0.301312 8.000000 3 360.232939
-0.480110 -1.001175 0.192436 13.000000 1 360.232941
-0.504617 -1.049942 1.118323 46.000000 14 360.232949
-0.498392 -1.036983 0.921298 48.000000 12 360.232952
-0.495861 -1.031256 0.757766 44.000000 10 360.232954
-0.498067 -1.035837 0.618783 40.000000 8 360.232957
-0.491568 -1.021865 0.483586 35.000000 6 360.232959
-0.482760 -1.003108 0.359214 13.000000 4 360.232962
-0.479023 -0.994897 0.246029 13.000000 2 360.232964
-0.487709 -1.012486 0.139010 29.000000 0 360.232967
-0.023081 -0.032356 2.999159 96.000000 31 360.232978
-0.212885 -0.413840 2.959039 96.000000 28 360.232980
-0.268655 -0.520720 2.840492 74.000000 27 360.232983
-0.205403 -0.418042 1.535330 62.000000 25 360.232985
-0.415430 -0.857114 2.303482 77.000000 23 360.232988
-0.533927 -1.102060 2.310544 36.000000 21 360.232990
-0.519281 -1.071826 1.821843 20.000000 19 360.232993
-0.515223 -1.063445 1.490918 39.000000 17 360.232996
-0.091027 -0.158335 2.989403 97.000000 30 360.233003
-0.155297 -0.285407 2.982660 97.000000 29 360.233006
-0.214735 -0.429423 1.884776 22.000000 26 360.233008
-0.364488 -0.748689 2.318641 71.000000 24 360.233011
-0.473202 -0.972834 2.299679 74.000000 22 360.233014
-0.532163 -1.094516 2.060866 16.000000 20 360.233016
-0.515148 -1.059518 1.634216 24.000000 18 360.233019
-0.511940 -1.052914 1.347501 39.000000 16 360.233021
-0.510482 -1.056942 1.233248 40.000000 15 360.232979
-0.504164 -1.043855 1.016777 42.000000 13 360.232981
-0.501235 -1.037328 0.839949 42.000000 11 360.232984
-0.499838 -1.034432 0.687685 39.000000 9 360.232987
-0.494691 -1.023324 0.547544 38.000000 7 360.232989
-0.482633 -0.997935 0.415567 24.000000 5 360.232992
-0.479072 -0.990572 0.300379 8.000000 3 360.232994
-0.483602 -0.999493 0.192436 14.000000 1 360.232997
-0.508279 -1.048174 1.118323 46.000000 14 360.233005
-0.503772 -1.038873 0.924241 50.000000 12 360.233007
-0.499458 -1.029519 0.757766 42.000000 10 360.233010
-0.501679 -1.034092 0.618783 40.000000 8 360.233012
-0.495132 -1.020143 0.483586 35.000000 6 360.233015
-0.486259 -1.001417 0.359214 13.000000 4 360.233017
-0.482492 -0.993219 0.246029 15.000000 2 360.233020
-0.493424 -1.015271 0.139211 29.000000 0 360.233022
-0.023194 -0.032275 2.999159 97.000000 31 360.233033
-0.214328 -0.413094 2.959039 96.000000 28 360.233036
-0.270471 -0.519780 2.840492 74.000000 27 360.233038
-0.206861 -0.417322 1.535330 62.000000 25 360.233041
-0.418420 -0.855659 2.303482 65.000000 23 360.233043
-0.536718 -1.098037 2.306155 35.000000 21 360.233046
-0.523019 -1.070006 1.821843 20.000000 19 360.233048
-0.518932 -1.061640 1.490918 39.000000 17 360.233051
-0.091579 -0.158016 2.989403 97.000000 30 360.233059
-0.156293 -0.284863 2.982660 96.000000 29 360.233061
-0.216233 -0.428670 1.884776 22.000000 26 360.233064
-0.367099 -0.747412 2.318641 73.000000 24 360.233066
-0.476595 -0.971176 2.299679 72.000000 22 360.233069
-0.535980 -1.092652 2.060866 16.000000 20 360.233072
-0.518844 -1.057713 1.634216 25.000000 18 360.233074
-0.515613 -1.051120 1.347501 39.000000 16 360.233077
-0.514168 -1.055153 1.233248 40.000000 15 360.233034
-0.507805 -1.042089 1.016777 42.000000 13 360.233037
-0.504853 -1.035572 0.839949 42.000000 11 360.233040
-0.503446 -1.032681 0.687685 39.000000 9 360.233042
-0.498260 -1.021591 0.547544 38.000000 7 360.233045
-0.486113 -0.996244 0.415567 24.000000 5 360.233047
-0.482527 -0.988894 0.300379 8.000000 3 360.233050
-0.484903 -0.993324 0.191990 14.000000 1 360.233052
-0.511935 -1.046393 1.118323 46.000000 14 360.233060
-0.507395 -1.037109 0.924241 50.000000 12 360.233063
-0.503048 -1.027769 0.757766 44.000000 10 360.233065
-0.505286 -1.032335 0.618783 40.000000 8 360.233068
-0.498690 -1.018408 0.483586 35.000000 6 360.233070
-0.489752 -0.999713 0.359214 13.000000 4 360.233073
-0.485956 -0.991528 0.246029 14.000000 2 360.233075
-0.496965 -1.013543 0.139211 29.000000 0 360.233078
-0.023306 -0.032194 2.999159 97.000000 31 360.233089
-0.215769 -0.412344 2.959039 97.000000 28 360.233091
-0.272284 -0.518832 2.840492 71.000000 27 360.233094
-0.208317 -0.416598 1.535330 62.000000 25 360.233096
-0.421404 -0.854193 2.303482 65.000000 23 360.233099
-0.540548 -1.096157 2.306155 35.000000 21 360.233101
-0.526751 -1.068174 1.821843 20.000000 19 360.233104
-0.522635 -1.059822 1.490918 39.000000 17 360.233107
-0.092130 -0.157696 2.989403 97.000000 30 360.233114
-0.157286 -0.284316 2.982660 96.000000 29 360.233117
-0.217728 -0.427913 1.884776 22.000000 26 360.233119
-0.369705 -0.746126 2.318641 73.000000 24 360.233122
-0.479982 -0.969507 2.299679 72.000000 22 360.233125
-0.540948 -1.093112 2.065132 16.000000 20 360.233127
-0.522533 -1.055895 1.634216 26.000000 18 360.233130
-0.517775 -1.046276 1.343826 39.000000 16 360.233132
-0.516275 -1.050152 1.229743 40.000000 15 360.233090
-0.511439 -1.040310 1.016777 42.000000 13 360.233092
-0.508465 -1.033804 0.839949 40.000000 11 360.233095
-0.507048 -1.030917 0.687685 39.000000 9 360.233098
-0.501823 -1.019845 0.547544 38.000000 7 360.233100
-0.489588 -0.994541 0.415567 24.000000 5 360.233103
-0.485976 -0.987204 0.300379 8.000000 3 360.233105
-0.488367 -0.991625 0.191990 15.000000 1 360.233108
-0.515584 -1.044600 1.118323 46.000000 14 360.233116
-0.511012 -1.035331 0.924241 50.000000 12 360.233118
-0.506633 -1.026007 0.757766 44.000000 10 360.233121
-0.508886 -1.030565 0.618783 40.000000 8 360.233123
-0.502242 -1.016661 0.483586 35.000000 6 360.233126
-0.491085 -0.993640 0.358041 13.000000 4 360.233128
-0.489415 -0.989826 0.246029 14.000000 2 360.233131
-0.500500 -1.011802 0.139211 29.000000 0 360.233134
-0.023418 -0.032113 2.999159 97.000000 31 360.233144
-0.217207 -0.411588 2.959039 97.000000 28 360.233147
-0.274093 -0.517879 2.840492 74.000000 27 360.233149
-0.209770 -0.415868 1.535330 62.000000 25 360.233152
-0.424383 -0.852717 2.303482 77.000000 23 360.233154
-0.544371 -1.094264 2.306155 34.000000 21 360.233157
-0.530476 -1.066329 1.821843 20.000000 19 360.233160
-0.526331 -1.057991 1.490918 39.000000 17 360.233162
-0.092680 -0.157373 2.989403 97.000000 30 360.233170
-0.158017 -0.283300 2.977688 96.000000 29 360.233172
-0.218645 -0.426032 1.879937 22.000000 26 360.233175
-0.372308 -0.744831 2.318641 71.000000 24 360.233178
-0.483364 -0.967825 2.299679 72.000000 22 360.233180
-0.544760 -1.091217 2.065132 16.000000 20 360.233183
-0.526215 -1.054065 1.634216 26.000000 18 360.233185
-0.521424 -1.044462 1.343826 39.000000 16 360.233188
-0.519937 -1.048343 1.229743 40.000000 15 360.233145
-0.515068 -1.038519 1.016777 42.000000 13 360.233148
-0.512070 -1.032022 0.839949 42.000000 11 360.233151
-0.508674 -1.025172 0.685367 39.000000 9 360.233153
-0.505380 -1.018087 0.547544 38.000000 7 360.233156
-0.493056 -0.992826 0.415567 24.000000 5 360.233158
-0.489419 -0.985501 0.300379 8.000000 3 360.233161
-0.489610 -0.985454 0.191544 15.000000 1 360.233163
-0.519228 -1.042794 1.118323 46.000000 14 360.233171
-0.514623 -1.033541 0.924241 50.000000 12 360.233174
-0.508289 -1.020373 0.755233 44.000000 10 360.233176
-0.512481 -1.028782 0.618783 40.000000 8 360.233179
-0.505787 -1.014902 0.483586 35.000000 6 360.233181
-0.494550 -0.991920 0.358041 13.000000 4 360.233184
-0.492867 -0.988112 0.246029 13.000000 2 360.233186
-0.504029 -1.010049 0.139211 29.000000 0 360.233189
-0.023530 -0.032031 2.999159 97.000000 31 360.233200
-0.218642 -0.410827 2.959039 97.000000 28 360.233202
-0.275899 -0.516919 2.840492 73.000000 27 360.233205
-0.211220 -0.415133 1.535330 64.000000 25 360.233207
-0.427357 -0.851230 2.303482 77.000000 23 360.233210
-0.548187 -1.092357 2.306155 35.000000 21 360.233212
-0.534195 -1.064471 1.821843 20.000000 19 360.233215
-0.530021 -1.056147 1.490918 39.000000 17 360.233218
-0.093229 -0.157049 2.989403 97.000000 30 360.233225
-0.159004 -0.282746 2.977688 95.000000 29 360.233228
-0.220131 -0.425266 1.879937 22.000000 26 360.233230
-0.374905 -0.743527 2.318641 73.000000 24 360.233233
-0.486739 -0.966132 2.299679 71.000000 22 360.233236
-0.548566 -1.089309 2.065132 16.000000 20 360.233238
-0.529891 -1.052222 1.634216 26.000000 18 360.233241
-0.525067 -1.042636 1.343826 39.000000 16 360.233243
-0.523594 -1.046522 1.229743 40.000000 15 360.233201
-0.518690 -1.036714 1.016777 42.000000 13 360.233204
-0.515669 -1.030229 0.839949 40.000000 11 360.233206
-0.512250 -1.023391 0.685367 39.000000 9 360.233209
-0.508931 -1.016317 0.547544 38.000000 7 360.233211
-0.496519 -0.991099 0.415567 23.000000 5 360.233214
-0.492856 -0.983787 0.300379 8.000000 3 360.233216
-0.493047 -0.983739 0.191544 14.000000 1 360.233219
-0.522864 -1.040975 1.118323 46.000000 14 360.233227
-0.518228 -1.031739 0.924241 50.000000 12 360.233229
-0.511847 -1.018592 0.755233 44.000000 10 360.233232
-0.516069 -1.026987 0.618783 40.000000 8 360.233234
-0.509327 -1.013130 0.483586 35.000000 6 360.233237
-0.498010 -0.990188 0.358041 12.000000 4 360.233239
-0.496313 -0.986385 0.246029 14.000000 2 360.233242
-0.507552 -1.008283 0.139211 29.000000 0 360.233245
-0.023642 -0.031948 2.999159 97.000000 31 360.233255
-0.220075 -0.410061 2.959039 96.000000 28 360.233258
-0.277702 -0.515953 2.840492 73.000000 27 360.233260
-0.212668 -0.414393 1.535330 64.000000 25 360.233263
-0.431208 -0.851476 2.308084 77.000000 23 360.233265
-0.551997 -1.090437 2.306155 35.000000 21 360.233268
-0.537908 -1.062600 1.821843 20.000000 19 360.233271
-0.535152 -1.057151 1.494755 39.000000 17 360.233273
-0.093777 -0.156722 2.989403 97.000000 30 360.233281
-0.159990 -0.282190 2.977688 96.000000 29 360.233283
-0.221614 -0.424495 1.879937 22.000000 26 360.233286
-0.377499 -0.742214 2.318641 71.000000 24 360.233289
-0.490109 -0.964427 2.299679 71.000000 22 360.233291
-0.552365 -1.087387 2.065132 16.000000 20 360.233294
-0.533561 -1.050366 1.634216 25.000000 18 360.233296
-0.528703 -1.040796 1.343826 39.000000 16 360.233299
-0.527243 -1.044688 1.229743 40.000000 15 360.233256
-0.522305 -1.034897 1.016777 42.000000 13 360.233259
-0.519262 -1.028422 0.839949 40.000000 11 360.233262
-0.515819 -1.021596 0.685367 39.000000 9 360.233264
-0.512475 -1.014534 0.547544 38.000000 7 360.233267
-0.499976 -0.989360 0.415567 23.000000 5 360.233269
-0.496287 -0.982060 0.300379 8.000000 3 360.233272
-0.498724 -0.986457 0.191990 14.000000 1 360.233274
-0.526495 -1.039143 1.118323 46.000000 14 360.233282
-0.521826 -1.029923 0.924241 50.000000 12 360.233285
-0.515400 -1.016800 0.755233 45.000000 10 360.233287
-0.519650 -1.025179 0.618783 40.000000 8 360.233290
-0.512860 -1.011346 0.483586 35.000000 6 360.233292
-0.501463 -0.988443 0.358041 12.000000 4 360.233295
-0.499753 -0.984647 0.246029 13.000000 2 360.233298
-0.511068 -1.006505 0.139211 29.000000 0 360.233300
-0.023753 -0.031866 2.999159 97.000000 31 360.233311
-0.221505 -0.409291 2.959039 96.000000 28 360.233313
-0.279015 -0.514085 2.835597 73.000000 27 360.233316
-0.214113 -0.413648 1.535330 64.000000 25 360.233318
-0.434178 -0.849966 2.308084 77.000000 23 360.233321
-0.556889 -1.090637 2.310544 35.000000 21 360.233324
-0.541614 -1.060715 1.821843 20.000000 19 360.233326
-0.538839 -1.055277 1.494755 39.000000 17 360.233329
-0.094172 -0.156147 2.984411 97.000000 30 360.233336
-0.160975 -0.281629 2.977688 96.000000 29 360.233339
-0.223095 -0.423719 1.879937 22.000000 26 360.233342
-0.380087 -0.740892 2.318641 71.000000 24 360.233344
-0.493472 -0.962710 2.299679 72.000000 22 360.233347
-0.556157 -1.085453 2.065132 16.000000 20 360.233349
-0.537224 -1.048497 1.634216 25.000000 18 360.233352
-0.532333 -1.038944 1.343826 39.000000 16 360.233354
-0.530887 -1.042841 1.229743 40.000000 15 360.233312
-0.525914 -1.033068 1.016777 42.000000 13 360.233315
-0.522849 -1.026604 0.839949 40.000000 11 360.233317
-0.519382 -1.019789 0.685367 39.000000 9 360.233320
-0.516014 -1.012739 0.547544 38.000000 7 360.233322
-0.503426 -0.987609 0.415567 24.000000 5 360.233325
-0.499712 -0.980322 0.300379 8.000000 3 360.233327
-0.502165 -0.984710 0.191990 14.000000 1 360.233330
-0.530119 -1.037299 1.118323 46.000000 14 360.233338
-0.525418 -1.028095 0.924241 50.000000 12 360.233340
-0.518946 -1.014994 0.755233 45.000000 10 360.233343
-0.523226 -1.023359 0.618783 40.000000 8 360.233345
-0.516388 -1.009550 0.483586 35.000000 6 360.233348
-0.504910 -0.986687 0.358041 13.000000 4 360.233350
-0.503187 -0.982896 0.246029 14.000000 2 360.233353
-0.514578 -1.004715 0.139211 30.000000 0 360.233356
-0.023865 -0.031782 2.999159 97.000000 31 360.233366
-0.222932 -0.408515 2.959039 97.000000 28 360.233369
-0.280808 -0.513108 2.835597 73.000000 27 360.233371
-0.215556 -0.412898 1.535330 64.000000 25 360.233374
-0.437142 -0.848445 2.308084 77.000000 23 360.233376
-0.560693 -1.088686 2.310544 36.000000 21 360.233379
-0.545313 -1.058818 1.821843 20.000000 19 360.233381
-0.542520 -1.053389 1.494755 39.000000 17 360.233384
-0.094717 -0.155817 2.984411 97.000000 30 360.233392
-0.161957 -0.281066 2.977688 95.000000 29 360.233394
-0.224573 -0.422937 1.879937 22.000000 26 360.233397
-0.382671 -0.739560 2.318641 71.000000 24 360.233399
-0.496830 -0.960982 2.299679 72.000000 22 360.233402
-0.558745 -1.081188 2.060866 16.000000 20 360.233404
-0.540881 -1.046615 1.634216 24.000000 18 360.233407
-0.537512 -1.040092 1.347501 40.000000 16 360.233410
-0.534524 -1.040981 1.229743 40.000000 15 360.233367
-0.529517 -1.031226 1.016777 42.000000 13 360.233370
-0.526430 -1.024772 0.839949 40.000000 11 360.233372
-0.522938 -1.017970 0.685367 39.000000 9 360.233375
-0.519545 -1.010932 0.547544 38.000000 7 360.233378
-0.506870 -0.985845 0.415567 24.000000 5 360.233380
-0.503131 -0.978572 0.300379 8.000000 3 360.233383
-0.505599 -0.982951 0.191990 14.000000 1 360.233385
-0.533737 -1.035443 1.118323 46.000000 14 360.233393
-0.529004 -1.026255 0.924241 50.000000 12 360.233396
-0.522486 -1.013177 0.755233 45.000000 10 360.233398
-0.526795 -1.021526 0.618783 40.000000 8 360.233401
-0.519908 -1.007741 0.483586 35.000000 6 360.233403
-0.510581 -0.989238 0.359214 13.000000 4 360.233406
-0.506615 -0.981134 0.246029 14.000000 2 360.233408
-0.518082 -1.002913 0.139211 30.000000 0 360.233411
-0.023975 -0.031699 2.999159 97.000000 31 360.233422
-0.224357 -0.407734 2.959039 96.000000 28 360.233424
-0.282597 -0.512125 2.835597 71.000000 27 360.233427
-0.216300 -0.410822 1.530559 62.000000 25 360.233429
-0.440101 -0.846914 2.308084 77.000000 23 360.233432
-0.564490 -1.086722 2.310544 36.000000 21 360.233434
-0.549005 -1.056908 1.821843 20.000000 19 360.233437
-0.546193 -1.051489 1.494755 39.000000 17 360.233439
-0.095260 -0.155486 2.984411 97.000000 30 360.233447
-0.162937 -0.280499 2.977688 95.000000 29 360.233450
-0.226642 -0.423259 1.884776 22.000000 26 360.233452
-0.385250 -0.738220 2.318641 73.000000 24 360.233455
-0.500181 -0.959242 2.299679 72.000000 22 360.233457
-0.562516 -1.079231 2.060866 17.000000 20 360.233460
-0.544531 -1.044721 1.634216 23.000000 18 360.233463
-0.541140 -1.038209 1.347501 40.000000 16 360.233465
-0.538154 -1.039109 1.229743 40.000000 15 360.233423
-0.533114 -1.029371 1.016777 42.000000 13 360.233425
-0.530003 -1.022928 0.839949 42.000000 11 360.233428
-0.526488 -1.016139 0.685367 39.000000 9 360.233430
-0.523071 -1.009112 0.547544 38.000000 7 360.233433
-0.510308 -0.984070 0.415567 25.000000 5 360.233436
-0.508805 -0.981170 0.301312 8.000000 3 360.233438
-0.511320 -0.985601 0.192436 11.000000 1 360.233441
-0.539070 -1.036886 1.121648 46.000000 14 360.233448
-0.532583 -1.024402 0.924241 50.000000 12 360.233451
-0.526019 -1.011347 0.755233 42.000000 10 360.233454
-0.530357 -1.019681 0.618783 40.000000 8 360.233456
-0.523423 -1.005920 0.483586 36.000000 6 360.233459
-0.514031 -0.987449 0.359214 13.000000 4 360.233461
-0.510037 -0.979359 0.246029 14.000000 2 360.233464
-0.521580 -1.001098 0.139211 29.000000 0 360.233466
-0.024086 -0.031615 2.999159 95.000000 31 360.233477
-0.226156 -0.407628 2.963979 96.000000 28 360.233480
-0.284383 -0.511136 2.835597 71.000000 27 360.233482
-0.217732 -0.410065 1.530559 62.000000 25 360.233485
-0.443055 -0.845373 2.308084 77.000000 23 360.233487
-0.568280 -1.084745 2.310544 36.000000 21 360.233490
-0.551386 -1.052493 1.817710 20.000000 19 360.233492
-0.549860 -1.049576 1.494755 39.000000 17 360.233495
-0.095956 -0.155398 2.989403 97.000000 30 360.233503
-0.163915 -0.279928 2.977688 96.000000 29 360.233505
-0.228118 -0.422466 1.884776 22.000000 26 360.233508
-0.387825 -0.736871 2.318641 71.000000 24 360.233510
-0.503526 -0.957490 2.299679 72.000000 22 360.233513
-0.566280 -1.077261 2.060866 17.000000 20 360.233516
-0.548174 -1.042814 1.634216 23.000000 18 360.233518
-0.544761 -1.036314 1.347501 40.000000 16 360.233521
-0.541778 -1.037224 1.229743 40.000000 15 360.233478
-0.536704 -1.027504 1.016777 42.000000 13 360.233481
-0.533571 -1.021072 0.839949 42.000000 11 360.233483
-0.530032 -1.014295 0.685367 39.000000 9 360.233486
-0.526590 -1.007280 0.547544 38.000000 7 360.233489
-0.513740 -0.982283 0.415567 24.000000 5 360.233491
-0.512227 -0.979388 0.301312 8.000000 3 360.233494
-0.514758 -0.983810 0.192436 11.000000 1 360.233496
-0.542686 -1.034998 1.121648 46.000000 14 360.233504
-0.536155 -1.022537 0.924241 50.000000 12 360.233507
-0.531549 -1.013322 0.757766 44.000000 10 360.233509
-0.533913 -1.017824 0.618783 40.000000 8 360.233512
-0.526931 -1.004087 0.483586 36.000000 6 360.233514
-0.517474 -0.985649 0.359214 13.000000 4 360.233517
-0.513452 -0.977573 0.246029 14.000000 2 360.233519
-0.525071 -0.999271 0.139211 28.000000 0 360.233522
-0.024196 -0.031531 2.999159 95.000000 31 360.233533
-0.227578 -0.406836 2.963979 96.000000 28 360.233535
-0.286664 -0.511027 2.840492 73.000000 27 360.233538
-0.219162 -0.409302 1.530559 62.000000 25 360.233540
-0.446003 -0.843821 2.308084 77.000000 23 360.233543
-0.572063 -1.082755 2.310544 36.000000 21 360.233545
-0.555056 -1.050562 1.817710 21.000000 19 360.233548
-0.553521 -1.047650 1.494755 39.000000 17 360.233550
-0.096498 -0.155062 2.989403 97.000000 30 360.233558
-0.164891 -0.279354 2.977688 96.000000 29 360.233561
-0.229591 -0.421667 1.884776 22.000000 26 360.233563
-0.390394 -0.735513 2.318641 71.000000 24 360.233566
-0.506865 -0.955727 2.299679 74.000000 22 360.233568
-0.571258 -1.077582 2.065132 17.000000 20 360.233571
-0.551811 -1.040894 1.634216 23.000000 18 360.233574
-0.548375 -1.034406 1.347501 39.000000 16 360.233576
-0.545395 -1.035327 1.229743 40.000000 15 360.233534
-0.540287 -1.025624 1.016777 42.000000 13 360.233536
-0.537132 -1.019204 0.839949 40.000000 11 360.233539
-0.535635 -1.016358 0.687685 39.000000 9 360.233542
-0.530103 -1.005436 0.547544 38.000000 7 360.233544
-0.517166 -0.980483 0.415567 25.000000 5 360.233547
-0.515642 -0.977594 0.301312 8.000000 3 360.233549
-0.515865 -0.977602 0.191990 13.000000 1 360.233552
-0.546296 -1.033098 1.121648 46.000000 14 360.233560
-0.539721 -1.020659 0.924241 50.000000 12 360.233562
-0.535083 -1.011461 0.757766 42.000000 10 360.233565
-0.537463 -1.015954 0.618783 42.000000 8 360.233567
-0.530433 -1.002241 0.483586 35.000000 6 360.233570
-0.520912 -0.983837 0.359214 13.000000 4 360.233572
-0.516861 -0.975775 0.246029 14.000000 2 360.233575
-0.528556 -0.997433 0.139211 28.000000 0 360.233577
-0.024306 -0.031446 2.999159 97.000000 31 360.233588
-0.228997 -0.406039 2.963979 95.000000 28 360.233591
-0.288446 -0.510024 2.840492 73.000000 27 360.233593
-0.220590 -0.408535 1.530559 62.000000 25 360.233596
-0.448946 -0.842259 2.308084 77.000000 23 360.233598
-0.576965 -1.082866 2.314933 36.000000 21 360.233601
-0.558720 -1.048618 1.817710 21.000000 19 360.233603
-0.557174 -1.045712 1.494755 39.000000 17 360.233606
-0.097011 -0.154741 2.989403 97.000000 30 360.233614
-0.165816 -0.278806 2.977688 96.000000 29 360.233616
-0.230988 -0.420903 1.884776 22.000000 26 360.233619
-0.392831 -0.734214 2.318641 71.000000 24 360.233621
-0.510198 -0.953952 2.299679 74.000000 22 360.233624
-0.575016 -1.075581 2.065132 16.000000 20 360.233627
-0.554020 -1.036303 1.630227 23.000000 18 360.233629
-0.551802 -1.032582 1.347501 39.000000 16 360.233632
-0.549006 -1.033417 1.229743 40.000000 15 360.233589
-0.543864 -1.023732 1.016777 42.000000 13 360.233592
-0.540686 -1.017322 0.839949 40.000000 11 360.233594
-0.539179 -1.014482 0.687685 39.000000 9 360.233597
-0.533435 -1.003672 0.547544 38.000000 7 360.233600
-0.520415 -0.978763 0.415567 25.000000 5 360.233602
-0.519051 -0.975788 0.301312 8.000000 3 360.233605
-0.519274 -0.975796 0.191990 14.000000 1 360.233607
-0.549899 -1.031185 1.121648 46.000000 14 360.233615
-0.543281 -1.018769 0.924241 50.000000 12 360.233618
-0.538434 -1.009681 0.757766 42.000000 10 360.233620
-0.540829 -1.014166 0.618783 42.000000 8 360.233623
-0.533753 -1.000477 0.483586 35.000000 6 360.233625
-0.524171 -0.982104 0.359214 12.000000 4 360.233628
-0.517762 -0.969687 0.245340 14.000000 2 360.233630
-0.531861 -0.995674 0.139211 29.000000 0 360.233633
-0.024410 -0.031365 2.999159 96.000000 31 360.233644
-0.230342 -0.405278 2.963979 95.000000 28 360.233646
-0.290136 -0.509064 2.840492 74.000000 27 360.233649
-0.221943 -0.407801 1.530559 62.000000 25 360.233651
-0.451736 -0.840766 2.308084 77.000000 23 360.233654
-0.580553 -1.080947 2.314933 36.000000 21 360.233656
-0.562194 -1.046759 1.817710 21.000000 19 360.233659
-0.560639 -1.043859 1.494755 39.000000 17 360.233662
-0.097551 -0.154401 2.989403 97.000000 30 360.233669
-0.166789 -0.278225 2.977688 96.000000 29 360.233672
-0.232456 -0.420094 1.884776 23.000000 26 360.233674
-0.395392 -0.732838 2.318641 71.000000 24 360.233677
-0.513359 -0.952254 2.299679 74.000000 22 360.233680
-0.578580 -1.073668 2.065132 16.000000 20 360.233682
-0.557454 -1.034460 1.630227 23.000000 18 360.233685
-0.555403 -1.030649 1.347501 39.000000 16 360.233687
-0.552430 -1.031591 1.229743 40.000000 15 360.233645
-0.547256 -1.021923 1.016777 40.000000 13 360.233647
-0.544057 -1.015524 0.839949 40.000000 11 360.233650
-0.542541 -1.012688 0.687685 39.000000 9 360.233653
-0.536935 -1.001804 0.547544 38.000000 7 360.233655
-0.523828 -0.976940 0.415567 24.000000 5 360.233658
-0.519963 -0.969733 0.300379 8.000000 3 360.233660
-0.522507 -0.974068 0.191990 14.000000 1 360.233663
-0.553315 -1.029355 1.121648 46.000000 14 360.233671
-0.546656 -1.016962 0.924241 48.000000 12 360.233673
-0.541955 -1.007795 0.757766 44.000000 10 360.233676
-0.544366 -1.012272 0.618783 42.000000 8 360.233678
-0.537242 -0.998608 0.483586 35.000000 6 360.233681
-0.529900 -0.984548 0.360386 13.000000 4 360.233683
-0.521143 -0.967874 0.245340 15.000000 2 360.233686
-0.535333 -0.993812 0.139211 29.000000 0 360.233688
-0.024519 -0.031280 2.999159 96.000000 31 360.233699
-0.231755 -0.404471 2.963979 97.000000 28 360.233702
-0.291911 -0.508048 2.840492 69.000000 27 360.233704
-0.223365 -0.407024 1.530559 62.000000 25 360.233707
-0.454668 -0.839184 2.308084 77.000000 23 360.233709
-0.584323 -1.078914 2.314933 36.000000 21 360.233712
-0.565845 -1.044791 1.817710 21.000000 19 360.233714
-0.564279 -1.041895 1.494755 39.000000 17 360.233717
-0.098089 -0.154060 2.989403 97.000000 30 360.233725
-0.167759 -0.277642 2.977688 96.000000 29 360.233727
-0.233921 -0.419280 1.884776 21.000000 26 360.233730
-0.397947 -0.731454 2.318641 69.000000 24 360.233732
-0.516680 -0.950457 2.299679 74.000000 22 360.233735
-0.582324 -1.071642 2.065132 16.000000 20 360.233738
-0.561061 -1.032508 1.630227 23.000000 18 360.233740
-0.558997 -1.028704 1.347501 39.000000 16 360.233743
-0.556028 -1.029656 1.229743 40.000000 15 360.233700
-0.550820 -1.020006 1.016777 40.000000 13 360.233703
-0.547598 -1.013618 0.839949 40.000000 11 360.233706
-0.546072 -1.010788 0.687685 39.000000 9 360.233708
-0.540428 -0.999924 0.547544 38.000000 7 360.233711
-0.527235 -0.975106 0.415567 24.000000 5 360.233713
-0.523345 -0.967912 0.300379 8.000000 3 360.233716
-0.525904 -0.972239 0.191990 15.000000 1 360.233718
-0.556905 -1.027418 1.121648 46.000000 14 360.233726
-0.550203 -1.015048 0.924241 48.000000 12 360.233729
-0.545470 -1.005897 0.757766 42.000000 10 360.233731
-0.547896 -1.010366 0.618783 42.000000 8 360.233734
-0.540725 -0.996726 0.483586 36.000000 6 360.233736
-0.533334 -0.982693 0.360386 13.000000 4 360.233739
-0.524519 -0.966049 0.245340 16.000000 2 360.233741
-0.536414 -0.987547 0.139010 28.000000 0 360.233744
-0.024628 -0.031194 2.999159 96.000000 31 360.233755
-0.233165 -0.403660 2.963979 97.000000 28 360.233757
-0.293683 -0.507026 2.840492 73.000000 27 360.233760
-0.224785 -0.406241 1.530559 64.000000 25 360.233762
-0.456658 -0.835877 2.303482 75.000000 23 360.233765
-0.588085 -1.076868 2.314933 36.000000 21 360.233767
-0.569488 -1.042809 1.817710 22.000000 19 360.233770
-0.567913 -1.039919 1.494755 39.000000 17 360.233773
-0.098626 -0.153717 2.989403 97.000000 30 360.233780
-0.168727 -0.277054 2.977688 96.000000 29 360.233783
-0.235383 -0.418461 1.884776 22.000000 26 360.233785
-0.400498 -0.730060 2.318641 69.000000 24 360.233788
-0.519994 -0.948647 2.299679 74.000000 22 360.233791
-0.586061 -1.069603 2.065132 16.000000 20 360.233793
-0.564662 -1.030544 1.630227 23.000000 18 360.233796
-0.562585 -1.026747 1.347501 39.000000 16 360.233798
-0.559618 -1.027709 1.229743 40.000000 15 360.233756
-0.554377 -1.018077 1.016777 42.000000 13 360.233758
-0.551133 -1.011701 0.839949 42.000000 11 360.233761
-0.549597 -1.008876 0.687685 39.000000 9 360.233764
-0.543916 -0.998031 0.547544 38.000000 7 360.233766
-0.530635 -0.973260 0.415567 25.000000 5 360.233769
-0.524369 -0.961766 0.299446 8.000000 3 360.233771
-0.529294 -0.970397 0.191990 13.000000 1 360.233774
-0.560488 -1.025467 1.121648 46.000000 14 360.233782
-0.553743 -1.013121 0.924241 50.000000 12 360.233784
-0.548978 -1.003987 0.757766 42.000000 10 360.233787
-0.551420 -1.008447 0.618783 40.000000 8 360.233789
-0.546467 -0.998976 0.485229 36.000000 6 360.233792
-0.536761 -0.980825 0.360386 13.000000 4 360.233794
-0.530266 -0.968556 0.246029 14.000000 2 360.233797
-0.539858 -0.985668 0.139010 28.000000 0 360.233800
-0.024737 -0.031108 2.999159 96.000000 31 360.233810
-0.234573 -0.402843 2.963979 97.000000 28 360.233813
-0.295451 -0.505998 2.840492 74.000000 27 360.233815
-0.226201 -0.405454 1.530559 62.000000 25 360.233818
-0.459573 -0.834278 2.303482 77.000000 23 360.233820
-0.591841 -1.074808 2.314933 36.000000 21 360.233823
-0.573125 -1.040815 1.817710 23.000000 19 360.233826
-0.571539 -1.037930 1.494755 39.000000 17 360.233828
-0.099162 -0.153371 2.989403 97.000000 30 360.233836
-0.169693 -0.276464 2.977688 96.000000 29 360.233838
-0.236842 -0.417637 1.884776 22.000000 26 360.233841
-0.403044 -0.728658 2.318641 71.000000 24 360.233844
-0.523303 -0.946826 2.299679 74.000000 22 360.233846
-0.589791 -1.067550 2.065132 16.000000 20 360.233849
-0.568256 -1.028566 1.630227 23.000000 18 360.233851
-0.566165 -1.024777 1.347501 39.000000 16 360.233854
-0.563202 -1.025749 1.229743 40.000000 15 360.233811
-0.557927 -1.016136 1.016777 42.000000 13 360.233814
-0.554661 -1.009771 0.839949 40.000000 11 360.233817
-0.553115 -1.006951 0.687685 39.000000 9 360.233819
-0.547396 -0.996127 0.547544 38.000000 7 360.233822
-0.534030 -0.971402 0.415567 25.000000 5 360.233824
-0.527723 -0.959930 0.299446 8.000000 3 360.233827
-0.532678 -0.968543 0.191990 13.000000 1 360.233829
-0.562262 -1.020234 1.118323 46.000000 14 360.233837
-0.557276 -1.011182 0.924241 50.000000 12 360.233840
-0.552479 -1.002065 0.757766 44.000000 10 360.233842
-0.554936 -1.006516 0.618783 40.000000 8 360.233845
-0.549951 -0.997062 0.485229 35.000000 6 360.233847
-0.540181 -0.978945 0.360386 13.000000 4 360.233850
-0.533644 -0.966699 0.246029 14.000000 2 360.233852
-0.543296 -0.983778 0.139010 28.000000 0 360.233855
-0.024846 -0.031021 2.999159 96.000000 31 360.233866
-0.235978 -0.402022 2.963979 97.000000 28 360.233868
-0.297215 -0.504964 2.840492 73.000000 27 360.233871
-0.227615 -0.404662 1.530559 62.000000 25 360.233873
-0.461534 -0.830961 2.298879 75.000000 23 360.233876
-0.595589 -1.072736 2.314933 35.000000 21 360.233878
-0.576754 -1.038808 1.817710 23.000000 19 360.233881
-0.575159 -1.035929 1.494755 39.000000 17 360.233884
-0.099697 -0.153024 2.989403 97.000000 30 360.233891
-0.170939 -0.276323 2.982660 96.000000 29 360.233894
-0.238299 -0.416808 1.884776 22.000000 26 360.233896
-0.405585 -0.727246 2.318641 71.000000 24 360.233899
-0.526605 -0.944994 2.299679 75.000000 22 360.233902
-0.593514 -1.065485 2.065132 16.000000 20 360.233904
-0.571843 -1.026576 1.630227 23.000000 18 360.233907
-0.569739 -1.022794 1.347501 39.000000 16 360.233909
-0.566779 -1.023777 1.229743 40.000000 15 360.233867
-0.561471 -1.014182 1.016777 42.000000 13 360.233870
-0.558183 -1.007828 0.839949 42.000000 11 360.233872
-0.554481 -1.001139 0.685367 39.000000 9 360.233875
-0.553117 -0.998265 0.549417 38.000000 7 360.233877
-0.537417 -0.969531 0.415567 25.000000 5 360.233880
-0.531071 -0.958082 0.299446 8.000000 3 360.233882
-0.536056 -0.966678 0.191990 13.000000 1 360.233885
-0.565820 -1.018265 1.118323 46.000000 14 360.233893
-0.560802 -1.009230 0.924241 52.000000 12 360.233895
-0.555974 -1.000130 0.757766 44.000000 10 360.233898
-0.558446 -1.004573 0.618783 40.000000 8 360.233900
-0.553428 -0.995136 0.485229 35.000000 6 360.233903
-0.543595 -0.977054 0.360386 13.000000 4 360.233905
-0.537015 -0.964830 0.246029 13.000000 2 360.233908
-0.546726 -0.981875 0.139010 28.000000 0 360.233911
-0.024954 -0.030935 2.999159 96.000000 31 360.233921
-0.237380 -0.401196 2.963979 97.000000 28 360.233924
-0.298976 -0.503923 2.840492 73.000000 27 360.233926
-0.229027 -0.403865 1.530559 64.000000 25 360.233929
-0.464432 -0.829345 2.298879 65.000000 23 360.233931
-0.599330 -1.070650 2.314933 35.000000 21 360.233934
-0.580377 -1.036788 1.817710 24.000000 19 360.233937
-0.578771 -1.033915 1.494755 39.000000 17 360.233939
-0.100231 -0.152675 2.989403 97.000000 30 360.233947
-0.171902 -0.275725 2.982660 96.000000 29 360.233949
-0.239752 -0.415973 1.884776 22.000000 26 360.233952
-0.408121 -0.725826 2.318641 71.000000 24 360.233955
-0.529900 -0.943150 2.299679 75.000000 22 360.233957
-0.598507 -1.065681 2.069398 16.000000 20 360.233960
-0.576899 -1.027202 1.634216 23.000000 18 360.233962
-0.573306 -1.020799 1.347501 39.000000 16 360.233965
-0.572088 -1.024906 1.233248 40.000000 15 360.233922
-0.565007 -1.012216 1.016777 40.000000 13 360.233925
-0.561697 -1.005874 0.839949 42.000000 11 360.233928
-0.557972 -0.999197 0.685367 39.000000 9 360.233930
-0.556598 -0.996328 0.549417 38.000000 7 360.233933
-0.540798 -0.967650 0.415567 25.000000 5 360.233935
-0.534412 -0.956222 0.299446 8.000000 3 360.233938
-0.539427 -0.964801 0.191990 13.000000 1 360.233940
-0.569371 -1.016284 1.118323 46.000000 14 360.233948
-0.564321 -1.007267 0.924241 52.000000 12 360.233951
-0.559461 -0.998183 0.757766 45.000000 10 360.233953
-0.561950 -1.002617 0.618783 42.000000 8 360.233956
-0.556898 -0.993199 0.485229 35.000000 6 360.233958
-0.547002 -0.975150 0.360386 13.000000 4 360.233961
-0.542803 -0.967269 0.246719 13.000000 2 360.233964
-0.550150 -0.979961 0.139010 28.000000 0 360.233966
-0.025062 -0.030847 2.999159 97.000000 31 360.233977
-0.238779 -0.400365 2.963979 96.000000 28 360.233979
-0.300733 -0.502876 2.840492 73.000000 27 360.233982
-0.229693 -0.401767 1.525787 64.000000 25 360.233984
-0.467324 -0.827718 2.298879 65.000000 23 360.233987
-0.603063 -1.068552 2.314933 35.000000 21 360.233990
-0.583993 -1.034756 1.817710 24.000000 19 360.233992
-0.582377 -1.031888 1.494755 39.000000 17 360.233995
-0.100763 -0.152325 2.989403 97.000000 30 360.234002
-0.172864 -0.275123 2.982660 96.000000 29 360.234005
-0.241203 -0.415134 1.884776 22.000000 26 360.234008
-0.409801 -0.722896 2.313948 71.000000 24 360.234010
-0.533189 -0.941295 2.299679 75.000000 22 360.234013
-0.599653 -1.059047 2.060866 16.000000 20 360.234015
-0.580481 -1.025182 1.634216 23.000000 18 360.234018
-0.576865 -1.018792 1.347501 39.000000 16 360.234020
-0.575662 -1.022903 1.233248 40.000000 15 360.233978
-0.568537 -1.010238 1.016777 40.000000 13 360.233981
-0.565205 -1.003907 0.839949 40.000000 11 360.233983
-0.561456 -0.997243 0.685367 39.000000 9 360.233986
-0.560072 -0.994379 0.549417 38.000000 7 360.233988
-0.544173 -0.965756 0.415567 25.000000 5 360.233991
-0.537746 -0.954351 0.299446 8.000000 3 360.233993
-0.542792 -0.962912 0.191990 13.000000 1 360.233996
-0.572915 -1.014290 1.118323 46.000000 14 360.234004
-0.567834 -1.005291 0.924241 50.000000 12 360.234006
-0.562942 -0.996224 0.757766 45.000000 10 360.234009
-0.567679 -1.004601 0.620881 40.000000 8 360.234011
-0.560362 -0.991249 0.485229 35.000000 6 360.234014
-0.550403 -0.973235 0.360386 13.000000 4 360.234016
-0.546176 -0.965368 0.246719 13.000000 2 360.234019
-0.553568 -0.978035 0.139010 28.000000 0 360.234022
-0.025169 -0.030760 2.999159 97.000000 31 360.234032
-0.239774 -0.398863 2.959039 96.000000 28 360.234035
-0.302487 -0.501824 2.840492 74.000000 27 360.234037
-0.231094 -0.400963 1.525787 64.000000 25 360.234040
-0.470210 -0.826082 2.298879 75.000000 23 360.234042
-0.606790 -1.066440 2.314933 34.000000 21 360.234045
-0.588993 -1.035157 1.821843 26.000000 19 360.234047
-0.585975 -1.029849 1.494755 39.000000 17 360.234050
-0.101294 -0.151972 2.989403 97.000000 30 360.234058
-0.173823 -0.274518 2.982660 96.000000 29 360.234060
-0.242650 -0.414289 1.884776 22.000000 26 360.234063
-0.412322 -0.721461 2.313948 71.000000 24 360.234065
-0.536471 -0.939428 2.299679 75.000000 22 360.234068
-0.590416 -1.034297 2.018206 13.000000 20 360.234070
-0.584056 -1.023149 1.634216 24.000000 18 360.234073
-0.580418 -1.016772 1.347501 39.000000 16 360.234076
-0.579229 -1.020887 1.233248 40.000000 15 360.234033
-0.572060 -1.008247 1.016777 40.000000 13 360.234036
-0.568706 -1.001928 0.839949 40.000000 11 360.234038
-0.564934 -0.995277 0.685367 39.000000 9 360.234041
-0.563540 -0.992418 0.549417 38.000000 7 360.234044
-0.549910 -0.968022 0.416976 25.000000 5 360.234046
-0.541074 -0.952468 0.299446 8.000000 3 360.234049
-0.546150 -0.961012 0.191990 14.000000 1 360.234051
-0.576452 -1.012284 1.118323 46.000000 14 360.234059
-0.571340 -1.003302 0.924241 50.000000 12 360.234062
-0.566416 -0.994253 0.757766 45.000000 10 360.234064
-0.571182 -1.002613 0.620881 40.000000 8 360.234067
-0.563818 -0.989287 0.485229 36.000000 6 360.234069
-0.553797 -0.971308 0.360386 13.000000 4 360.234072
-0.549542 -0.963455 0.246719 14.000000 2 360.234074
-0.556978 -0.976097 0.139010 28.000000 0 360.234077
-0.025276 -0.030672 2.999159 97.000000 31 360.234088
-0.241165 -0.398024 2.959039 97.000000 28 360.234090
-0.304237 -0.500765 2.840492 74.000000 27 360.234093
-0.232493 -0.400154 1.525787 66.000000 25 360.234095
-0.473091 -0.824436 2.298879 75.000000 23 360.234098
-0.610509 -1.064315 2.314933 34.000000 21 360.234100
-0.592602 -1.033095 1.821843 27.000000 19 360.234103
-0.589567 -1.027798 1.494755 39.000000 17 360.234105
-0.101824 -0.151618 2.989403 97.000000 30 360.234113
-0.174780 -0.273909 2.982660 96.000000 29 360.234116
-0.244735 -0.414523 1.889615 22.000000 26 360.234118
-0.414838 -0.720017 2.313948 71.000000 24 360.234121
-0.540834 -0.939437 2.304179 77.000000 22 360.234123
-0.586218 -1.018667 1.992611 12.000000 20 360.234126
-0.589127 -1.023717 1.638206 24.000000 18 360.234129
-0.585655 -1.017678 1.351176 39.000000 16 360.234131
-0.582789 -1.018859 1.233248 40.000000 15 360.234089
-0.575576 -1.006244 1.016777 42.000000 13 360.234091
-0.572200 -0.999937 0.839949 40.000000 11 360.234094
-0.570605 -0.997145 0.687685 39.000000 9 360.234096
-0.567001 -0.990445 0.549417 38.000000 7 360.234099
-0.553286 -0.966096 0.416976 24.000000 5 360.234102
-0.544396 -0.950574 0.299446 8.000000 3 360.234104
-0.549501 -0.959099 0.191990 14.000000 1 360.234107
-0.579982 -1.010266 1.118323 46.000000 14 360.234114
-0.574838 -1.001302 0.924241 48.000000 12 360.234117
-0.569883 -0.992270 0.757766 44.000000 10 360.234120
-0.574678 -1.000613 0.620881 40.000000 8 360.234122
-0.567268 -0.987312 0.485229 36.000000 6 360.234125
-0.557184 -0.969369 0.360386 13.000000 4 360.234127
-0.552902 -0.961531 0.246719 14.000000 2 360.234130
-0.560382 -0.974146 0.139010 28.000000 0 360.234132
-0.025414 -0.030614 3.004159 97.000000 31 360.234143
-0.242553 -0.397180 2.959039 96.000000 28 360.234146
-0.305983 -0.499700 2.840492 74.000000 27 360.234148
-0.233888 -0.399340 1.525787 62.000000 25 360.234151
-0.476944 -0.824470 2.303482 77.000000 23 360.234153
-0.610622 -1.055956 2.301766 30.000000 21 360.234156
-0.596205 -1.031020 1.821843 28.000000 19 360.234158
-0.593151 -1.025733 1.494755 39.000000 17 360.234161
-0.102352 -0.151261 2.989403 97.000000 30 360.234169
-0.175735 -0.273298 2.982660 96.000000 29 360.234171
-0.246180 -0.413666 1.889615 22.000000 26 360.234174
-0.418216 -0.720057 2.318641 71.000000 24 360.234176
-0.544110 -0.937543 2.304179 77.000000 22 360.234179
-0.568830 -0.980521 1.924356 12.000000 20 360.234182
-0.592697 -1.021654 1.638206 24.000000 18 360.234184
-0.589204 -1.015628 1.351176 39.000000 16 360.234187
-0.586342 -1.016819 1.233248 40.000000 15 360.234144
-0.579085 -1.004229 1.016777 42.000000 13 360.234147
-0.575687 -0.997933 0.839949 40.000000 11 360.234149
-0.574082 -0.995147 0.687685 39.000000 9 360.234152
-0.570454 -0.988460 0.549417 38.000000 7 360.234155
-0.556655 -0.964159 0.416976 24.000000 5 360.234157
-0.550167 -0.952922 0.300379 8.000000 3 360.234160
-0.552845 -0.957175 0.191990 13.000000 1 360.234162
-0.583505 -1.008235 1.118323 46.000000 14 360.234170
-0.578330 -0.999289 0.924241 52.000000 12 360.234173
-0.573344 -0.990275 0.757766 44.000000 10 360.234175
-0.578168 -0.998601 0.620881 40.000000 8 360.234178
-0.573078 -0.989413 0.486872 36.000000 6 360.234180
-0.560564 -0.967418 0.360386 13.000000 4 360.234183
-0.556255 -0.959596 0.246719 14.000000 2 360.234185
-0.563779 -0.972184 0.139010 27.000000 0 360.234188
-0.025521 -0.030525 3.004159 97.000000 31 360.234199
-0.243938 -0.396330 2.959039 96.000000 28 360.234201
-0.307725 -0.498629 2.840492 73.000000 27 360.234204
-0.235280 -0.398521 1.525787 62.000000 25 360.234206
-0.479819 -0.822800 2.303482 77.000000 23 360.234209
-0.599826 -1.028981 2.249103 19.000000 21 360.234211
-0.599800 -1.028933 1.821843 30.000000 19 360.234214
-0.596728 -1.023657 1.494755 39.000000 17 360.234216
-0.102854 -0.150921 2.989403 97.000000 30 360.234224
-0.176641 -0.272713 2.982660 96.000000 29 360.234227
-0.247551 -0.412847 1.889615 22.000000 26 360.234229
-0.420601 -0.718666 2.318641 71.000000 24 360.234232
-0.545180 -0.931879 2.295178 69.000000 22 360.234234
-0.549867 -0.940257 1.851835 12.000000 20 360.234237
-0.596259 -1.019579 1.638206 24.000000 18 360.234240
-0.592568 -1.013668 1.351176 39.000000 16 360.234242
-0.589888 -1.014766 1.233248 40.000000 15 360.234200
-0.582587 -1.002201 1.016777 42.000000 13 360.234202
-0.579167 -0.995918 0.839949 40.000000 11 360.234205
-0.577552 -0.993137 0.687685 40.000000 9 360.234208
-0.573729 -0.986562 0.549417 38.000000 7 360.234210
-0.559849 -0.962308 0.416976 25.000000 5 360.234213
-0.553490 -0.950996 0.300379 8.000000 3 360.234215
-0.558689 -0.959544 0.192436 13.000000 1 360.234218
-0.587020 -1.006192 1.118323 46.000000 14 360.234226
-0.581815 -0.997264 0.924241 52.000000 12 360.234228
-0.576624 -0.988368 0.757766 45.000000 10 360.234231
-0.581476 -0.996679 0.620881 40.000000 8 360.234233
-0.576356 -0.987507 0.486872 36.000000 6 360.234236
-0.563769 -0.965554 0.360386 13.000000 4 360.234238
-0.559434 -0.957746 0.246719 14.000000 2 360.234241
-0.567000 -0.970309 0.139010 27.000000 0 360.234243
-0.025622 -0.030440 3.004159 97.000000 31 360.234254
-0.245250 -0.395519 2.959039 96.000000 28 360.234257
-0.309377 -0.497605 2.840492 73.000000 27 360.234259
-0.236601 -0.397738 1.525787 64.000000 25 360.234262
-0.482545 -0.821205 2.303482 77.000000 23 360.234264
-0.603209 -1.026938 1.821843 31.000000 19 360.234269
-0.600119 -1.021672 1.494755 39.000000 17 360.234272
-0.103380 -0.150561 2.989403 97.000000 30 360.234280
-0.177592 -0.272095 2.982660 96.000000 29 360.234282
-0.248990 -0.411981 1.889615 22.000000 26 360.234285
-0.423107 -0.717194 2.318641 73.000000 24 360.234287
-0.550479 -0.933818 2.304179 52.000000 22 360.234290
-0.549010 -0.931688 1.839037 19.000000 20 360.234293
-0.599637 -1.017596 1.638206 24.000000 18 360.234295
-0.596103 -1.011593 1.351176 39.000000 16 360.234298
-0.593250 -1.012804 1.233248 40.000000 15 360.234255
-0.585907 -1.000264 1.016777 42.000000 13 360.234258
-0.582466 -0.993992 0.839949 40.000000 11 360.234260
-0.580843 -0.991216 0.687685 40.000000 9 360.234263
-0.577169 -0.984554 0.549417 38.000000 7 360.234266
-0.563204 -0.960348 0.416976 25.000000 5 360.234268
-0.556640 -0.949155 0.300379 8.000000 3 360.234271
-0.561868 -0.957686 0.192436 12.000000 1 360.234273
-0.590354 -1.004240 1.118323 46.000000 14 360.234281
-0.585119 -0.995329 0.924241 50.000000 12 360.234284
-0.580071 -0.986349 0.757766 45.000000 10 360.234286
-0.584951 -0.994643 0.620881 40.000000 8 360.234289
-0.579800 -0.985489 0.486872 36.000000 6 360.234291
-0.567136 -0.963580 0.360386 13.000000 4 360.234294
-0.562774 -0.955787 0.246719 14.000000 2 360.234296
-0.570384 -0.968324 0.139010 28.000000 0 360.234299
-0.025728 -0.030350 3.004159 97.000000 31 360.234310
-0.247042 -0.395319 2.963979 97.000000 28 360.234312
-0.311112 -0.496522 2.840492 73.000000 27 360.234315
-0.237988 -0.396910 1.525787 64.000000 25 360.234317
-0.485409 -0.819515 2.303482 77.000000 23 360.234320
-0.503063 -0.849648 1.876066 10.000000 21 360.234322
-0.606790 -1.024826 1.821843 31.000000 19 360.234325
-0.603682 -1.019571 1.494755 39.000000 17 360.234328
-0.103905 -0.150199 2.989403 97.000000 30 360.234335
-0.178540 -0.271474 2.982660 96.000000 29 360.234338
-0.250427 -0.411109 1.889615 22.000000 26 360.234340
-0.425608 -0.715713 2.318641 71.000000 24 360.234343
-0.552259 -0.929766 1.839037 24.000000 20 360.234348
-0.603186 -1.015497 1.638206 25.000000 18 360.234351
-0.601362 -1.012421 1.354851 39.000000 16 360.234353
-0.596781 -1.010727 1.233248 40.000000 15 360.234311
-0.591375 -1.001565 1.019914 42.000000 13 360.234313
-0.585932 -0.991952 0.839949 40.000000 11 360.234316
-0.584299 -0.989182 0.687685 39.000000 9 360.234319
-0.580603 -0.982533 0.549417 38.000000 7 360.234321
-0.566553 -0.958376 0.416976 25.000000 5 360.234324
-0.559950 -0.947206 0.300379 8.000000 3 360.234326
-0.565207 -0.955718 0.192436 12.000000 1 360.234329
-0.593856 -1.002173 1.118323 46.000000 14 360.234337
-0.588589 -0.993281 0.924241 50.000000 12 360.234339
-0.583510 -0.984318 0.757766 45.000000 10 360.234342
-0.588420 -0.992595 0.620881 40.000000 8 360.234344
-0.583236 -0.983459 0.486872 36.000000 6 360.234347
-0.570496 -0.961594 0.360386 13.000000 4 360.234349
-0.566107 -0.953817 0.246719 13.000000 2 360.234352
-0.573760 -0.966327 0.139010 27.000000 0 360.234354
-0.025834 -0.030260 3.004159 94.000000 31 360.234365
-0.248420 -0.394455 2.963979 97.000000 28 360.234368
-0.312844 -0.495433 2.840492 73.000000 27 360.234370
-0.239372 -0.396077 1.525787 62.000000 25 360.234373
-0.487265 -0.816139 2.298879 71.000000 23 360.234375
-0.504798 -0.845829 1.871678 17.000000 21 360.234378
-0.610364 -1.022702 1.821843 32.000000 19 360.234380
-0.607237 -1.017458 1.494755 39.000000 17 360.234383
-0.104428 -0.149836 2.989403 97.000000 30 360.234391
-0.179487 -0.270849 2.982660 96.000000 29 360.234393
-0.252519 -0.411304 1.894454 22.000000 26 360.234396
-0.428104 -0.714223 2.318641 71.000000 24 360.234398
-0.456274 -0.761810 1.899104 8.000000 22 360.234401
-0.554161 -0.925595 1.834771 26.000000 20 360.234404
-0.606727 -1.013385 1.638206 25.000000 18 360.234406
-0.604892 -1.010316 1.354851 39.000000 16 360.234409
-0.602130 -1.011702 1.236752 40.000000 15 360.234366
-0.594867 -0.999495 1.019914 40.000000 13 360.234369
-0.589391 -0.989901 0.839949 40.000000 11 360.234372
-0.587748 -0.987137 0.687685 39.000000 9 360.234374
-0.584029 -0.980500 0.549417 38.000000 7 360.234377
-0.569895 -0.956393 0.416976 25.000000 5 360.234379
-0.565767 -0.949466 0.301312 8.000000 3 360.234382
-0.568540 -0.953740 0.192436 11.000000 1 360.234384
-0.597350 -1.000094 1.118323 46.000000 14 360.234392
-0.592053 -0.991220 0.924241 52.000000 12 360.234395
-0.586943 -0.982275 0.757766 45.000000 10 360.234397
-0.591881 -0.990535 0.620881 40.000000 8 360.234400
-0.586665 -0.981417 0.486872 36.000000 6 360.234402
-0.573849 -0.959597 0.360386 13.000000 4 360.234405
-0.569433 -0.951835 0.246719 13.000000 2 360.234407
-0.577130 -0.964319 0.139010 27.000000 0 360.234410
-0.025908 -0.030140 2.999159 95.000000 31 360.234421
-0.249796 -0.393585 2.963979 96.000000 28 360.234423
-0.314024 -0.493480 2.835597 73.000000 27 360.234426
-0.240753 -0.395239 1.525787 62.000000 25 360.234428
-0.490111 -0.814433 2.298879 62.000000 23 360.234431
-0.499103 -0.829692 1.840957 22.000000 21 360.234433
-0.612479 -1.018154 1.817710 33.000000 19 360.234436
-0.610785 -1.015332 1.494755 39.000000 17 360.234439
-0.104951 -0.149470 2.989403 97.000000 30 360.234446
-0.180431 -0.270221 2.982660 96.000000 29 360.234449
-0.253953 -0.410420 1.894454 22.000000 26 360.234451
-0.430594 -0.712724 2.318641 69.000000 24 360.234454
-0.454429 -0.752756 1.881101 8.000000 22 360.234457
-0.556041 -0.921422 1.830505 28.000000 20 360.234459
-0.610260 -1.011261 1.638206 25.000000 18 360.234462
-0.608415 -1.008198 1.354851 39.000000 16 360.234464
-0.605658 -1.009594 1.236752 40.000000 15 360.234422
-0.598352 -0.997412 1.019914 42.000000 13 360.234424
-0.594995 -0.991423 0.842690 40.000000 11 360.234427
-0.591191 -0.985079 0.687685 39.000000 9 360.234430
-0.587448 -0.978456 0.549417 38.000000 7 360.234432
-0.573230 -0.954397 0.416976 25.000000 5 360.234435
-0.569078 -0.947485 0.301312 8.000000 3 360.234437
-0.571866 -0.951749 0.192436 14.000000 1 360.234440
-0.600838 -0.998003 1.118323 44.000000 14 360.234448
-0.597594 -0.992611 0.927184 50.000000 12 360.234450
-0.590368 -0.980220 0.757766 44.000000 10 360.234453
-0.595335 -0.988463 0.620881 42.000000 8 360.234455
-0.590088 -0.979363 0.486872 36.000000 6 360.234458
-0.577195 -0.957588 0.360386 13.000000 4 360.234460
-0.572752 -0.949841 0.246719 14.000000 2 360.234463
-0.580492 -0.962298 0.139010 28.000000 0 360.234466
-0.026013 -0.030049 2.999159 97.000000 31 360.234476
-0.251168 -0.392711 2.963979 96.000000 28 360.234479
-0.315744 -0.492381 2.835597 73.000000 27 360.234481
-0.242131 -0.394396 1.525787 62.000000 25 360.234484
-0.493964 -0.814387 2.303482 37.000000 23 360.234486
-0.501996 -0.827944 1.840957 25.000000 21 360.234489
-0.616030 -1.016010 1.817710 33.000000 19 360.234492
-0.614325 -1.013194 1.494755 39.000000 17 360.234494
-0.105472 -0.149103 2.989403 97.000000 30 360.234502
-0.181373 -0.269589 2.982660 96.000000 29 360.234504
-0.255384 -0.409531 1.894454 23.000000 26 360.234507
-0.433080 -0.711216 2.318641 69.000000 24 360.234510
-0.460450 -0.756746 1.894604 15.000000 22 360.234512
