# .PCD v.7 - Point Cloud Data file format
VERSION .7
FIELDS x y z intensity ring timestamp
SIZE 4 4 4 4 2 8
TYPE F F F F U D
COUNT 1 1 1 1 1 1
WIDTH 942
HEIGHT 1
VIEWPOINT 0 0 0 1 0 0 0
POINTS 942
DATA ascii
1.072934 0.922886 2.385077 20.000000 20 360.988306
1.117091 0.960863 2.025187 26.000000 18 360.988309
1.183171 1.017698 1.770145 23.000000 16 360.988311
1.330264 1.150290 1.807993 22.000000 15 360.988269
2.019393 1.746178 2.234234 16.000000 13 360.988272
2.057869 1.778820 1.867999 17.000000 11 360.988274
2.105907 1.820341 1.543037 17.000000 9 360.988277
2.143875 1.852506 1.233074 19.000000 7 360.988279
2.174891 1.878644 0.934151 19.000000 5 360.988282
2.204429 1.904159 0.644516 23.000000 3 360.988284
1.307788 1.129254 0.247766 29.000000 1 360.988287
2.044070 1.761912 2.048529 21.000000 12 360.988297
2.078563 1.791011 1.697296 18.000000 10 360.988300
2.142857 1.846407 1.395062 19.000000 8 360.988302
2.168756 1.868064 1.084809 21.000000 6 360.988305
2.199068 1.893505 0.790627 24.000000 4 360.988307
1.264763 1.088639 0.324668 72.000000 2 360.988310
1.291178 1.110983 0.162387 83.000000 0 360.988313
0.037013 0.021806 3.369145 51.000000 31 360.988323
0.417841 0.340801 3.428269 18.000000 28 360.988326
0.520837 0.423793 3.251692 87.000000 27 360.988328
0.774918 0.656155 3.291324 90.000000 25 360.988331
1.045538 0.895212 3.302229 12.000000 23 360.988333
1.354023 1.159739 3.333102 17.000000 21 360.988336
1.099038 0.941341 2.197941 23.000000 19 360.988338
1.143401 0.979335 1.878449 24.000000 17 360.988341
0.165444 0.122402 3.388731 50.000000 30 360.988349
0.291929 0.226955 3.400258 42.000000 29 360.988351
0.644750 0.538193 3.268789 90.000000 26 360.988354
0.907832 0.774570 3.299429 88.000000 24 360.988356
1.198689 1.023439 3.321368 12.000000 22 360.988359
1.078132 0.920829 2.389343 19.000000 20 360.988361
1.122730 0.958916 2.029177 26.000000 18 360.988364
1.186716 1.013561 1.770145 23.000000 16 360.988367
1.331565 1.143317 1.804489 22.000000 15 360.988324
2.025476 1.739118 2.234234 16.000000 13 360.988327
2.064066 1.771626 1.867999 17.000000 11 360.988329
2.115610 1.815864 1.545355 17.000000 9 360.988332
2.153846 1.848030 1.234947 20.000000 7 360.988335
2.185076 1.874164 0.935560 18.000000 5 360.988337
2.218520 1.902849 0.646381 23.000000 3 360.988340
1.315503 1.127924 0.248212 29.000000 1 360.988342
1.883660 1.612222 2.288670 14.000000 14 360.988350
2.056350 1.760023 2.054415 21.000000 12 360.988353
2.084802 1.783745 1.697296 18.000000 10 360.988355
2.149289 1.838915 1.395062 19.000000 8 360.988358
2.178852 1.863551 1.086452 23.000000 6 360.988360
2.209359 1.888976 0.791799 25.000000 4 360.988363
1.272320 1.087436 0.325358 74.000000 2 360.988365
1.298846 1.109715 0.162589 82.000000 0 360.988368
0.037089 0.021677 3.369145 53.000000 31 360.988379
0.419028 0.339341 3.428269 18.000000 28 360.988381
0.522313 0.421972 3.251692 89.000000 27 360.988384
0.777204 0.653446 3.291324 90.000000 25 360.988386
1.048656 0.891557 3.302229 12.000000 23 360.988389
1.365363 1.161214 3.350656 17.000000 21 360.988391
1.104461 0.939322 2.202074 23.000000 19 360.988394
1.149255 0.977415 1.882286 24.000000 17 360.988396
0.165871 0.121823 3.388731 49.000000 30 360.988404
0.292719 0.225935 3.400258 43.000000 29 360.988407
0.646625 0.535939 3.268789 90.000000 26 360.988409
0.909213 0.770281 3.294737 86.000000 24 360.988412
1.202254 1.019248 3.321368 13.000000 22 360.988414
1.083329 0.918747 2.393609 19.000000 20 360.988417
1.128369 0.956940 2.033166 26.000000 18 360.988420
1.190247 1.009413 1.770145 24.000000 16 360.988422
1.335548 1.138662 1.804489 22.000000 15 360.988380
2.034497 1.734563 2.237372 16.000000 13 360.988382
2.073420 1.767123 1.870740 17.000000 11 360.988385
2.125308 1.811342 1.547673 17.000000 9 360.988387
2.160284 1.840501 1.234947 20.000000 7 360.988390
2.191605 1.866525 0.935560 18.000000 5 360.988393
2.232628 1.901463 0.648246 25.000000 3 360.988395
1.319432 1.123325 0.248212 28.000000 1 360.988398
1.894967 1.610474 2.295320 14.000000 14 360.988405
2.065561 1.755452 2.057358 21.000000 12 360.988408
2.094301 1.779248 1.699828 18.000000 10 360.988411
2.159153 1.834340 1.397161 19.000000 8 360.988413
2.185344 1.855935 1.086452 23.000000 6 360.988416
2.215939 1.881252 0.791799 24.000000 4 360.988418
1.276108 1.082988 0.325358 74.000000 2 360.988421
1.302712 1.105174 0.162589 83.000000 0 360.988423
0.037125 0.021529 3.364146 53.000000 31 360.988434
0.419604 0.337390 3.423330 18.000000 28 360.988437
0.523783 0.420146 3.251692 90.000000 27 360.988439
0.779480 0.650729 3.291324 90.000000 25 360.988442
1.051762 0.887891 3.302229 12.000000 23 360.988444
1.382221 1.167261 3.381377 21.000000 21 360.988447
1.109883 0.937277 2.206207 22.000000 19 360.988449
1.155109 0.975465 1.886123 24.000000 17 360.988452
0.166295 0.121244 3.388731 50.000000 30 360.988460
0.293082 0.224588 3.395287 43.000000 29 360.988462
0.647521 0.532880 3.263949 90.000000 26 360.988465
0.911896 0.767103 3.294737 86.000000 24 360.988467
1.205804 1.015045 3.321368 13.000000 22 360.988470
1.088524 0.916639 2.397875 19.000000 20 360.988473
1.131703 0.952995 2.033166 26.000000 18 360.988475
1.191170 1.003068 1.766470 24.000000 16 360.988478
1.339515 1.133993 1.804489 22.000000 15 360.988435
2.043510 1.729966 2.240510 15.000000 13 360.988438
2.082768 1.762576 1.873482 17.000000 11 360.988440
2.138381 1.809636 1.552309 17.000000 9 360.988443
2.170235 1.835943 1.236820 19.000000 7 360.988446
2.201770 1.861961 0.936969 18.000000 5 360.988448
2.239252 1.893658 0.648246 25.000000 3 360.988451
1.327148 1.121927 0.248659 28.000000 1 360.988453
1.894869 1.599033 2.288670 14.000000 14 360.988461
2.074765 1.750838 2.060301 22.000000 12 360.988464
2.103795 1.774706 1.702361 18.000000 10 360.988466
2.169012 1.829719 1.399259 19.000000 8 360.988469
2.195420 1.851339 1.088094 22.000000 6 360.988471
2.226209 1.876638 0.792971 25.000000 4 360.988474
1.283667 1.081718 0.326048 76.000000 2 360.988476
1.310382 1.103839 0.162791 83.000000 0 360.988479
0.037200 0.021399 3.364146 53.000000 31 360.988490
0.420779 0.335923 3.423330 16.000000 28 360.988492
0.524449 0.417681 3.246796 90.000000 27 360.988495
0.780597 0.647051 3.286553 92.000000 25 360.988497
1.053358 0.882959 3.297627 12.000000 23 360.988500
1.389959 1.165507 3.390154 20.000000 21 360.988502
1.113148 0.933397 2.206207 22.000000 19 360.988505
1.158507 0.971427 1.886123 24.000000 17 360.988507
0.166717 0.120662 3.388731 51.000000 30 360.988515
0.293864 0.223563 3.395287 43.000000 29 360.988518
0.649377 0.530616 3.263949 90.000000 26 360.988520
0.914569 0.763915 3.294737 88.000000 24 360.988523
1.209340 1.010830 3.321368 14.000000 22 360.988525
1.093718 0.914507 2.402140 19.000000 20 360.988528
1.137334 0.950973 2.037156 26.000000 18 360.988531
1.194664 0.998904 1.766470 24.000000 16 360.988533
1.340735 1.127016 1.800984 22.000000 15 360.988491
2.052516 1.725327 2.243648 16.000000 13 360.988493
2.095310 1.760675 1.878964 17.000000 11 360.988496
2.148077 1.805011 1.554627 17.000000 9 360.988499
2.180180 1.831338 1.238693 19.000000 7 360.988501
2.208256 1.854264 0.936969 17.000000 5 360.988504
2.253372 1.892148 0.650112 23.000000 3 360.988506
1.331056 1.117288 0.248659 28.000000 1 360.988509
1.897577 1.590010 2.285345 15.000000 14 360.988517
2.083962 1.746181 2.063245 20.000000 12 360.988519
2.113282 1.770121 1.704893 18.000000 10 360.988522
2.178865 1.825051 1.401357 19.000000 8 360.988524
2.205489 1.846696 1.089737 20.000000 6 360.988527
2.236473 1.871976 0.794143 25.000000 4 360.988529
1.287436 1.077230 0.326048 76.000000 2 360.988532
1.314228 1.099258 0.162791 83.000000 0 360.988534
0.037274 0.021269 3.364146 51.000000 31 360.988545
0.421950 0.334452 3.423330 16.000000 28 360.988548
0.525904 0.415848 3.246796 89.000000 27 360.988550
0.782851 0.644322 3.286553 89.000000 25 360.988553
1.056433 0.879277 3.297627 12.000000 23 360.988555
1.382972 1.151451 3.363822 16.000000 21 360.988558
1.118562 0.931306 2.210340 22.000000 19 360.988560
1.164355 0.969429 1.889960 23.000000 17 360.988563
0.166901 0.119912 3.383740 51.000000 30 360.988571
0.294643 0.222536 3.395287 43.000000 29 360.988573
0.651225 0.528346 3.263949 91.000000 26 360.988576
0.915901 0.759616 3.290044 88.000000 24 360.988578
1.212861 1.006603 3.321368 13.000000 22 360.988581
1.096904 0.910684 2.402140 19.000000 20 360.988584
1.140647 0.946997 2.037156 26.000000 18 360.988586
1.195535 0.992563 1.762795 25.000000 16 360.988589
1.344661 1.122329 1.800984 22.000000 15 360.988546
2.061515 1.720646 2.246785 16.000000 13 360.988549
2.104654 1.756029 1.881706 17.000000 11 360.988551
2.157766 1.800340 1.556945 17.000000 9 360.988554
2.190120 1.826686 1.240566 19.000000 7 360.988557
2.218400 1.849616 0.938378 17.000000 5 360.988559
2.263736 1.887416 0.651044 23.000000 3 360.988562
1.338774 1.115824 0.249105 28.000000 1 360.988564
1.900245 1.580988 2.282020 15.000000 14 360.988572
2.093152 1.741481 2.066188 20.000000 12 360.988575
2.122763 1.765490 1.707426 18.000000 10 360.988577
2.185223 1.817434 1.401357 18.000000 8 360.988580
2.219185 1.845025 1.093022 21.000000 6 360.988582
2.246732 1.867265 0.795316 24.000000 4 360.988585
1.294997 1.075894 0.326738 77.000000 2 360.988587
1.321900 1.097856 0.162992 83.000000 0 360.988590
0.037348 0.021139 3.364146 51.000000 31 360.988601
0.423114 0.332977 3.423330 18.000000 28 360.988603
0.527352 0.414010 3.246796 89.000000 27 360.988606
0.785095 0.641586 3.286553 89.000000 25 360.988608
1.059496 0.875584 3.297627 12.000000 23 360.988611
1.381443 1.142037 3.350656 13.000000 21 360.988613
1.121806 0.927396 2.210340 22.000000 19 360.988616
1.167732 0.965358 1.889960 23.000000 17 360.988619
0.167319 0.119329 3.383740 51.000000 30 360.988626
0.295418 0.221506 3.395287 43.000000 29 360.988629
0.653065 0.526070 3.263949 91.000000 26 360.988631
0.918547 0.756415 3.290044 88.000000 24 360.988634
1.216367 1.002363 3.321368 13.000000 22 360.988637
1.102088 0.908508 2.406406 19.000000 20 360.988639
1.146271 0.944927 2.041145 26.000000 18 360.988642
1.198993 0.988383 1.762795 26.000000 16 360.988644
1.345824 1.115352 1.797479 22.000000 15 360.988602
2.067508 1.713440 2.246785 16.000000 13 360.988604
2.113991 1.751339 1.884447 16.000000 11 360.988607
2.167449 1.795623 1.559263 17.000000 9 360.988610
2.200053 1.821987 1.242439 19.000000 7 360.988612
2.228538 1.844921 0.939787 18.000000 5 360.988615
2.274094 1.882635 0.651977 24.000000 3 360.988617
1.346497 1.114318 0.249551 25.000000 1 360.988620
1.902873 1.571967 2.278695 15.000000 14 360.988628
2.102334 1.736738 2.069131 20.000000 12 360.988630
2.132237 1.760814 1.709958 17.000000 10 360.988633
2.195053 1.812685 1.403455 19.000000 8 360.988635
2.229253 1.840273 1.094665 22.000000 6 360.988638
2.256985 1.862504 0.796488 24.000000 4 360.988640
1.302565 1.074519 0.327428 77.000000 2 360.988643
1.329579 1.096413 0.163194 83.000000 0 360.988645
0.037422 0.021008 3.364146 41.000000 31 360.988656
0.424274 0.331498 3.423330 18.000000 28 360.988659
0.528794 0.412167 3.246796 87.000000 27 360.988661
0.787330 0.638842 3.286553 87.000000 25 360.988664
1.061036 0.870641 3.293024 12.000000 23 360.988666
1.376162 1.129608 3.328713 10.000000 21 360.988669
1.127211 0.925260 2.214473 22.000000 19 360.988671
1.173572 0.963311 1.893797 24.000000 17 360.988674
0.167734 0.118744 3.383740 50.000000 30 360.988682
0.296189 0.220474 3.395287 42.000000 29 360.988684
0.654898 0.523787 3.263949 91.000000 26 360.988687
0.921182 0.753204 3.290044 90.000000 24 360.988689
1.218174 0.996732 3.316867 13.000000 22 360.988692
1.107271 0.906307 2.410672 18.000000 20 360.988695
1.151895 0.942828 2.045135 26.000000 18 360.988697
1.202435 0.984192 1.762795 27.000000 16 360.988700
1.349710 1.110648 1.797479 22.000000 15 360.988657
2.076483 1.708686 2.249923 17.000000 13 360.988660
2.120091 1.743949 1.884447 16.000000 11 360.988663
2.173704 1.788046 1.559263 17.000000 9 360.988665
2.209980 1.817240 1.244312 18.000000 7 360.988668
2.238670 1.840177 0.941197 18.000000 5 360.988670
2.288242 1.880924 0.653842 24.000000 3 360.988673
1.350379 1.109612 0.249551 25.000000 1 360.988675
1.905461 1.562947 2.275371 15.000000 14 360.988683
2.111509 1.731952 2.072074 19.000000 12 360.988686
2.141704 1.756094 1.712490 17.000000 10 360.988688
2.204876 1.807889 1.405553 19.000000 8 360.988691
2.239316 1.835474 1.096308 22.000000 6 360.988693
2.267233 1.857695 0.797660 25.000000 4 360.988696
1.306308 1.069965 0.327428 77.000000 2 360.988698
1.337263 1.094931 0.163395 83.000000 0 360.988701
0.037495 0.020878 3.364146 41.000000 31 360.988712
0.425429 0.330015 3.423330 21.000000 28 360.988714
0.530230 0.410318 3.246796 89.000000 27 360.988717
0.789555 0.636089 3.286553 89.000000 25 360.988719
1.064068 0.866932 3.293024 12.000000 23 360.988722
1.380097 1.124797 3.328713 10.000000 21 360.988724
1.132615 0.923097 2.218606 23.000000 19 360.988727
1.176928 0.959208 1.893797 24.000000 17 360.988730
0.168148 0.118158 3.383740 49.000000 30 360.988737
0.296957 0.219439 3.395287 42.000000 29 360.988740
0.656722 0.521498 3.263949 91.000000 26 360.988742
0.923806 0.749984 3.290044 91.000000 24 360.988745
1.221819 0.992260 3.316867 13.000000 22 360.988748
1.110585 0.902243 2.410672 18.000000 20 360.988750
1.155343 0.938600 2.045135 27.000000 18 360.988753
1.203403 0.977641 1.759119 27.000000 16 360.988755
1.350816 1.103673 1.793975 22.000000 15 360.988713
2.079420 1.698964 2.246785 16.000000 13 360.988715
2.129404 1.739183 1.887189 17.000000 11 360.988718
2.183363 1.783250 1.561581 17.000000 9 360.988721
2.216310 1.809515 1.244312 18.000000 7 360.988723
2.248797 1.835385 0.942606 18.000000 5 360.988726
2.298926 1.875630 0.654775 23.000000 3 360.988728
1.358296 1.107802 0.249997 28.000000 1 360.988731
1.908281 1.553595 2.272046 15.000000 14 360.988739
2.120977 1.726753 2.075017 19.000000 12 360.988741
2.151470 1.750954 1.715023 17.000000 10 360.988744
2.215008 1.802661 1.407651 18.000000 8 360.988746
2.249691 1.830235 1.097950 21.000000 6 360.988749
2.274026 1.849373 0.797660 25.000000 4 360.988751
1.314063 1.068294 0.328118 77.000000 2 360.988754
1.341077 1.090256 0.163395 85.000000 0 360.988757
0.037571 0.020740 3.364146 52.000000 31 360.988767
0.426019 0.327980 3.418391 18.000000 28 360.988770
0.531730 0.408372 3.246796 89.000000 27 360.988772
0.791881 0.633191 3.286553 89.000000 25 360.988775
1.067239 0.863026 3.293024 12.000000 23 360.988777
1.387935 1.122745 3.337491 12.000000 21 360.988780
1.138179 0.920709 2.222739 23.000000 19 360.988783
1.182928 0.956904 1.897634 24.000000 17 360.988785
0.168559 0.117570 3.383740 51.000000 30 360.988793
0.297721 0.218401 3.395287 41.000000 29 360.988795
0.658538 0.519202 3.263949 90.000000 26 360.988798
0.926418 0.746754 3.290044 90.000000 24 360.988801
1.225275 0.987989 3.316867 13.000000 22 360.988803
1.115758 0.899998 2.414938 18.000000 20 360.988806
1.160958 0.936454 2.049124 27.000000 18 360.988808
1.206638 0.973644 1.759119 27.000000 16 360.988811
1.354853 1.098715 1.793975 21.000000 15 360.988768
2.085633 1.691331 2.246785 14.000000 13 360.988771
2.139013 1.734000 1.889930 17.000000 11 360.988774
2.189884 1.775236 1.561581 17.000000 9 360.988776
2.226215 1.804687 1.246185 18.000000 7 360.988779
2.258917 1.830544 0.944015 18.000000 5 360.988781
2.305459 1.867594 0.654775 23.000000 3 360.988784
1.362154 1.103054 0.249997 28.000000 1 360.988786
1.907884 1.542229 2.265396 15.000000 14 360.988794
2.130135 1.721880 2.077960 20.000000 12 360.988797
2.160617 1.746520 1.717555 18.000000 10 360.988799
2.224503 1.798159 1.409749 18.000000 8 360.988802
2.259422 1.825733 1.099593 21.000000 6 360.988804
2.283927 1.844876 0.798833 25.000000 4 360.988807
1.321451 1.067042 0.328807 77.000000 2 360.988809
1.348762 1.088706 0.163597 85.000000 0 360.988812
0.037640 0.020615 3.364146 52.000000 31 360.988823
0.426487 0.326094 3.413451 18.000000 28 360.988825
0.533081 0.406607 3.246796 89.000000 27 360.988828
0.793977 0.630562 3.286553 89.000000 25 360.988830
1.070095 0.859483 3.293024 12.000000 23 360.988833
1.397254 1.122638 3.350656 15.000000 21 360.988835
1.143420 0.918693 2.226871 24.000000 19 360.988838
1.186095 0.952976 1.897634 24.000000 17 360.988841
0.168968 0.116981 3.383740 52.000000 30 360.988848
0.298481 0.217360 3.395287 41.000000 29 360.988851
0.660347 0.516901 3.263949 90.000000 26 360.988853
0.929019 0.743516 3.290044 90.000000 24 360.988856
1.227016 0.982345 3.312366 13.000000 22 360.988859
1.120928 0.897728 2.419204 18.000000 20 360.988861
1.164220 0.932396 2.049124 26.000000 18 360.988864
1.210199 0.969215 1.759119 27.000000 16 360.988866
1.355711 1.091979 1.790470 21.000000 15 360.988824
2.085167 1.679522 2.240510 12.000000 13 360.988827
2.148008 1.729520 1.892672 17.000000 11 360.988829
2.199210 1.770743 1.563899 17.000000 9 360.988832
2.236112 1.799812 1.248058 18.000000 7 360.988834
2.269031 1.825655 0.945424 19.000000 5 360.988837
2.315792 1.862614 0.655707 24.000000 3 360.988839
1.369878 1.101413 0.250443 28.000000 1 360.988842
1.910343 1.533223 2.262071 15.000000 14 360.988850
2.139285 1.716964 2.080903 18.000000 12 360.988852
2.170367 1.741287 1.720088 18.000000 10 360.988855
2.234619 1.792833 1.411847 18.000000 8 360.988857
2.269782 1.820394 1.101236 21.000000 6 360.988860
2.294466 1.839533 0.800005 25.000000 4 360.988862
1.329218 1.065288 0.329497 79.000000 2 360.988865
1.356453 1.087116 0.163798 85.000000 0 360.988868
0.037715 0.020477 3.364146 51.000000 31 360.988878
0.426441 0.323590 3.403573 26.000000 28 360.988881
0.534568 0.404650 3.246796 84.000000 27 360.988883
0.796282 0.627647 3.286553 87.000000 25 360.988886
1.073238 0.855555 3.293024 12.000000 23 360.988888
1.412598 1.126471 3.376988 23.000000 21 360.988891
1.146779 0.914496 2.226871 24.000000 19 360.988894
1.192086 0.950621 1.901471 24.000000 17 360.988896
0.169156 0.116198 3.378748 52.000000 30 360.988904
0.299276 0.216265 3.395287 40.000000 29 360.988906
0.662237 0.514477 3.263949 90.000000 26 360.988909
0.931738 0.740106 3.290044 90.000000 24 360.988912
1.230437 0.978056 3.312366 13.000000 22 360.988914
1.126097 0.895433 2.423470 18.000000 20 360.988917
1.169827 0.930202 2.053114 26.000000 18 360.988919
1.213575 0.964985 1.759119 28.000000 16 360.988922
1.359704 1.087003 1.790470 22.000000 15 360.988879
2.088268 1.669437 2.237372 12.000000 13 360.988882
2.157599 1.724246 1.895413 17.000000 11 360.988885
2.209146 1.765436 1.566217 17.000000 9 360.988887
2.246316 1.794498 1.249931 19.000000 7 360.988890
2.279455 1.820320 0.946833 19.000000 5 360.988892
2.326118 1.857584 0.656640 23.000000 3 360.988895
1.377606 1.099732 0.250890 28.000000 1 360.988897
1.912763 1.524218 2.258746 15.000000 14 360.988905
2.151587 1.714525 2.086790 18.000000 12 360.988908
2.179804 1.736387 1.722620 18.000000 10 360.988910
2.244414 1.787850 1.413945 18.000000 8 360.988913
2.279817 1.815401 1.102879 20.000000 6 360.988915
2.304677 1.834540 0.801177 24.000000 4 360.988918
1.332928 1.060642 0.329497 79.000000 2 360.988921
1.360428 1.082137 0.163798 85.000000 0 360.988923
0.037786 0.020346 3.364146 51.000000 31 360.988934
0.426326 0.321166 3.393694 28.000000 28 360.988936
0.535977 0.402782 3.246796 86.000000 27 360.988939
0.798469 0.624864 3.286553 89.000000 25 360.988941
1.077750 0.853016 3.297627 12.000000 23 360.988944
1.412765 1.118559 3.368211 25.000000 21 360.988947
1.152171 0.912234 2.231004 24.000000 19 360.988949
1.195397 0.946455 1.901471 24.000000 17 360.988952
0.169561 0.115607 3.378748 52.000000 30 360.988959
0.300029 0.215219 3.395287 42.000000 29 360.988962
0.663033 0.511394 3.259110 90.000000 26 360.988965
0.934316 0.736849 3.290044 91.000000 24 360.988967
1.232134 0.972406 3.307865 13.000000 22 360.988970
1.131262 0.893113 2.427736 18.000000 20 360.988972
1.173066 0.926113 2.053114 26.000000 18 360.988975
1.216936 0.960743 1.759119 29.000000 16 360.988977
1.363490 1.082250 1.790470 23.000000 15 360.988935
2.091034 1.659718 2.234234 12.000000 13 360.988938
2.166880 1.719303 1.898155 17.000000 11 360.988940
2.218765 1.760467 1.568535 17.000000 9 360.988943
2.256198 1.789526 1.251804 19.000000 7 360.988945
2.289555 1.815333 0.948243 18.000000 5 360.988948
2.336437 1.852505 0.657573 23.000000 3 360.988950
1.381436 1.094916 0.250890 28.000000 1 360.988953
1.912215 1.512898 2.252097 15.000000 14 360.988961
2.160729 1.709511 2.089733 18.000000 12 360.988963
2.189233 1.731442 1.725153 17.000000 10 360.988966
2.250641 1.780005 1.413945 18.000000 8 360.988968
2.289845 1.810361 1.104521 21.000000 6 360.988971
2.314880 1.829497 0.802350 24.000000 4 360.988973
1.340508 1.059053 0.330187 79.000000 2 360.988976
1.368118 1.080478 0.164000 85.000000 0 360.988979
0.037857 0.020213 3.364146 50.000000 31 360.988989
0.426199 0.318746 3.383816 29.000000 28 360.988992
0.537380 0.400908 3.246796 87.000000 27 360.988994
0.799465 0.621157 3.281781 89.000000 25 360.988997
1.080721 0.849248 3.297627 12.000000 23 360.988999
1.416660 1.113621 3.368211 22.000000 21 360.989002
1.155348 0.908206 2.231004 24.000000 19 360.989004
1.201214 0.944257 1.905308 23.000000 17 360.989007
0.169964 0.115014 3.378748 51.000000 30 360.989015
0.300779 0.214170 3.395287 42.000000 29 360.989017
0.664814 0.509076 3.259110 90.000000 26 360.989020
0.936882 0.733583 3.290044 91.000000 24 360.989022
1.235521 0.968099 3.307865 13.000000 22 360.989025
1.138478 0.892376 2.436268 17.000000 20 360.989027
1.178664 0.923872 2.057103 26.000000 18 360.989030
1.222950 0.958581 1.762795 30.000000 16 360.989033
1.367260 1.077484 1.790470 22.000000 15 360.988990
2.093757 1.649999 2.231097 12.000000 13 360.988993
2.176153 1.714316 1.900896 17.000000 11 360.988995
2.228377 1.755453 1.570853 17.000000 9 360.988998
2.266073 1.784508 1.253677 19.000000 7 360.989001
2.299647 1.810297 0.949652 19.000000 5 360.989003
2.346750 1.847376 0.658505 23.000000 3 360.989006
1.389163 1.093167 0.251336 28.000000 1 360.989008
1.914548 1.503907 2.248772 15.000000 14 360.989016
2.169862 1.704455 2.092676 19.000000 12 360.989019
2.202045 1.729115 1.730217 17.000000 10 360.989021
2.260410 1.774940 1.416043 18.000000 8 360.989024
2.299865 1.805273 1.106164 21.000000 6 360.989026
2.325076 1.824406 0.803522 25.000000 4 360.989029
1.348093 1.057423 0.330877 79.000000 2 360.989031
1.371881 1.075696 0.164000 85.000000 0 360.989034
0.037927 0.020081 3.364146 50.000000 31 360.989045
0.425437 0.315868 3.368998 31.000000 28 360.989047
0.538776 0.399030 3.246796 89.000000 27 360.989050
0.801629 0.618362 3.281781 87.000000 25 360.989052
1.083678 0.845471 3.297627 12.000000 23 360.989055
1.411096 1.101299 3.346268 16.000000 21 360.989057
1.158511 0.904168 2.231004 23.000000 19 360.989060
1.207030 0.942031 1.909145 23.000000 17 360.989062
0.170364 0.114420 3.378748 52.000000 30 360.989070
0.301524 0.213119 3.395287 41.000000 29 360.989073
0.666587 0.506753 3.259110 91.000000 26 360.989075
0.938075 0.729249 3.285351 91.000000 24 360.989078
1.240612 0.965117 3.312366 12.000000 22 360.989080
1.143645 0.889999 2.440534 17.000000 20 360.989083
1.181882 0.919752 2.057103 26.000000 18 360.989086
1.226289 0.954306 1.762795 29.000000 16 360.989088
1.368204 1.070507 1.786966 23.000000 15 360.989046
2.093372 1.637883 2.224821 12.000000 13 360.989048
2.185418 1.709285 1.903638 17.000000 11 360.989051
2.237981 1.750393 1.573171 17.000000 9 360.989053
2.275940 1.779443 1.255550 19.000000 7 360.989056
2.309732 1.805213 0.951061 18.000000 5 360.989059
2.357054 1.842198 0.659438 23.000000 3 360.989061
1.392971 1.088312 0.251336 28.000000 1 360.989064
1.916841 1.494918 2.245447 16.000000 14 360.989071
2.178986 1.699357 2.095619 18.000000 12 360.989074
2.211468 1.724068 1.732750 17.000000 10 360.989077
2.270171 1.769830 1.418141 18.000000 8 360.989079
2.309877 1.800137 1.107807 21.000000 6 360.989082
2.335264 1.819266 0.804694 25.000000 4 360.989084
1.351776 1.052711 0.330877 79.000000 2 360.989087
1.379570 1.073969 0.164201 82.000000 0 360.989089
0.037997 0.019949 3.364146 51.000000 31 360.989100
0.425285 0.313460 3.359119 33.000000 28 360.989103
0.540166 0.397147 3.246796 89.000000 27 360.989105
0.803782 0.615560 3.281781 89.000000 25 360.989108
1.086623 0.841683 3.297627 11.000000 23 360.989110
1.390312 1.077291 3.289215 12.000000 21 360.989113
1.161660 0.900118 2.231004 24.000000 19 360.989115
1.210311 0.937812 1.909145 23.000000 17 360.989118
0.170762 0.113825 3.378748 52.000000 30 360.989126
0.302267 0.212065 3.395287 42.000000 29 360.989128
0.668351 0.504423 3.259110 91.000000 26 360.989131
0.940614 0.725970 3.285351 91.000000 24 360.989133
1.243973 0.960781 3.312366 12.000000 22 360.989136
1.150872 0.889190 2.449066 17.000000 20 360.989139
1.187470 0.917463 2.061093 26.000000 18 360.989141
1.232296 0.952092 1.766470 29.000000 16 360.989144
1.371932 1.065725 1.786966 23.000000 15 360.989101
2.096002 1.628177 2.221683 12.000000 13 360.989104
2.194673 1.704211 1.906379 17.000000 11 360.989106
2.247576 1.745288 1.575489 18.000000 9 360.989109
2.285800 1.774330 1.257423 18.000000 7 360.989112
2.316019 1.797139 0.951061 18.000000 5 360.989114
2.367351 1.836971 0.660370 25.000000 3 360.989117
1.400696 1.086495 0.251782 28.000000 1 360.989119
1.919095 1.485932 2.242122 16.000000 14 360.989127
2.188100 1.694215 2.098562 18.000000 12 360.989130
2.220882 1.718977 1.735282 18.000000 10 360.989132
2.279924 1.764673 1.420239 18.000000 8 360.989135
2.319881 1.794953 1.109449 21.000000 6 360.989137
2.349290 1.817051 0.807039 25.000000 4 360.989140
1.359360 1.051015 0.331567 79.000000 2 360.989142
1.387263 1.072202 0.164403 76.000000 0 360.989145
0.038067 0.019816 3.364146 51.000000 31 360.989156
0.425122 0.311057 3.349241 37.000000 28 360.989158
0.540726 0.394659 3.241901 89.000000 27 360.989161
0.805926 0.612751 3.281781 87.000000 25 360.989163
1.088006 0.836694 3.293024 11.000000 23 360.989166
1.378873 1.060745 3.254106 10.000000 21 360.989168
1.167025 0.897774 2.235137 24.000000 19 360.989171
1.216118 0.935536 1.912982 23.000000 17 360.989173
0.171401 0.113387 3.383740 53.000000 30 360.989181
0.303005 0.211009 3.395287 43.000000 29 360.989184
0.670108 0.502087 3.259110 90.000000 26 360.989186
0.943143 0.722682 3.285351 90.000000 24 360.989189
1.247319 0.956433 3.312366 12.000000 22 360.989191
1.153969 0.885168 2.449066 17.000000 20 360.989194
1.193057 0.915147 2.065082 26.000000 18 360.989197
1.235611 0.947785 1.766470 29.000000 16 360.989199
1.375644 1.060929 1.786966 23.000000 15 360.989157
2.095507 1.616096 2.215407 12.000000 13 360.989159
2.203920 1.699093 1.909121 17.000000 11 360.989162
2.257164 1.740137 1.577807 18.000000 9 360.989165
2.295652 1.769170 1.259296 18.000000 7 360.989167
2.326078 1.791972 0.952470 18.000000 5 360.989170
2.377640 1.831694 0.661303 24.000000 3 360.989172
1.404480 1.081599 0.251782 28.000000 1 360.989175
1.921309 1.476948 2.238797 16.000000 14 360.989183
2.197205 1.689030 2.101505 18.000000 12 360.989185
2.230287 1.713841 1.737815 17.000000 10 360.989188
2.293267 1.762234 1.424435 19.000000 8 360.989190
2.329878 1.789721 1.111092 21.000000 6 360.989193
2.359473 1.811800 0.808211 26.000000 4 360.989195
1.363021 1.046264 0.331567 79.000000 2 360.989198
1.398925 1.073436 0.164806 65.000000 0 360.989200
0.038136 0.019683 3.364146 51.000000 31 360.989211
0.424947 0.308658 3.339362 40.000000 28 360.989214
0.542100 0.392769 3.241901 89.000000 27 360.989216
0.808060 0.609934 3.281781 87.000000 25 360.989219
1.090920 0.832891 3.293024 12.000000 23 360.989221
1.355911 1.035568 3.192665 8.000000 21 360.989224
1.170152 0.893695 2.235137 24.000000 19 360.989226
1.219376 0.931285 1.912982 23.000000 17 360.989229
0.171796 0.112788 3.383740 53.000000 30 360.989237
0.303740 0.209950 3.395287 42.000000 29 360.989239
0.671857 0.499745 3.259110 90.000000 26 360.989242
0.945660 0.719386 3.285351 90.000000 24 360.989244
1.252383 0.953392 3.316867 12.000000 22 360.989247
1.165351 0.887454 2.466129 17.000000 20 360.989250
1.198642 0.912803 2.069072 26.000000 18 360.989252
1.241609 0.945520 1.770145 28.000000 16 360.989255
1.379339 1.056121 1.786966 23.000000 15 360.989212
2.098045 1.606405 2.212270 12.000000 13 360.989215
2.213158 1.693931 1.911862 17.000000 11 360.989217
2.266742 1.734940 1.580125 17.000000 9 360.989220
2.305495 1.763963 1.261169 20.000000 7 360.989223
2.336130 1.786756 0.953879 18.000000 5 360.989225
2.387921 1.826368 0.662236 25.000000 3 360.989228
1.412204 1.079714 0.252228 28.000000 1 360.989230
1.923484 1.467967 2.235472 16.000000 14 360.989238
2.203088 1.681350 2.101505 18.000000 12 360.989241
2.239683 1.708660 1.740347 17.000000 10 360.989243
2.303013 1.756971 1.426533 19.000000 8 360.989246
2.339866 1.784441 1.112735 20.000000 6 360.989248
2.369649 1.806500 0.809384 25.000000 4 360.989251
1.370603 1.044501 0.332256 79.000000 2 360.989253
1.410611 1.074601 0.165209 58.000000 0 360.989256
0.038204 0.019550 3.364146 51.000000 31 360.989267
0.425391 0.306719 3.334423 57.000000 28 360.989269
0.543468 0.390874 3.241901 89.000000 27 360.989272
0.810184 0.607110 3.281781 90.000000 25 360.989274
1.092263 0.827898 3.288422 12.000000 23 360.989277
1.357609 1.029381 3.188276 8.000000 21 360.989279
1.175507 0.891305 2.239270 24.000000 19 360.989282
1.225175 0.928960 1.916819 22.000000 17 360.989285
0.172188 0.112187 3.383740 53.000000 30 360.989292
0.304471 0.208888 3.395287 43.000000 29 360.989295
0.673597 0.497396 3.259110 90.000000 26 360.989297
0.948165 0.716080 3.285351 91.000000 24 360.989300
1.253966 0.947702 3.312366 12.000000 22 360.989303
1.178844 0.891245 2.487459 17.000000 20 360.989305
1.204225 0.910431 2.073061 25.000000 18 360.989308
1.247607 0.943225 1.773820 28.000000 16 360.989310
1.380178 1.049141 1.783461 23.000000 15 360.989268
2.100540 1.596716 2.209132 13.000000 13 360.989270
2.222387 1.688725 1.914603 16.000000 11 360.989273
2.276312 1.729697 1.582443 17.000000 9 360.989276
2.315330 1.758708 1.263042 19.000000 7 360.989278
2.346173 1.781491 0.955288 18.000000 5 360.989281
2.398195 1.820992 0.663168 25.000000 3 360.989283
1.419931 1.077789 0.252674 28.000000 1 360.989286
1.925620 1.458988 2.232147 16.000000 14 360.989294
2.212165 1.676090 2.104449 17.000000 12 360.989296
2.249071 1.703435 1.742880 17.000000 10 360.989299
2.312750 1.751662 1.428631 19.000000 8 360.989301
2.349846 1.779113 1.114377 21.000000 6 360.989304
2.379816 1.801150 0.810556 25.000000 4 360.989306
1.374241 1.039711 0.332256 79.000000 2 360.989309
1.422323 1.075698 0.165612 41.000000 0 360.989311
0.038272 0.019416 3.364146 51.000000 31 360.989322
0.425195 0.304329 3.324545 70.000000 28 360.989325
0.544829 0.388975 3.241901 89.000000 27 360.989327
0.812299 0.604278 3.281781 89.000000 25 360.989330
1.095147 0.824080 3.288422 12.000000 23 360.989332
1.353537 1.018872 3.170721 8.000000 21 360.989335
1.178611 0.887196 2.239270 24.000000 19 360.989337
1.230971 0.926606 1.920656 22.000000 17 360.989340
0.172579 0.111586 3.383740 53.000000 30 360.989348
0.305198 0.207824 3.395287 40.000000 29 360.989350
0.675329 0.495042 3.259110 90.000000 26 360.989353
0.950659 0.712766 3.285351 91.000000 24 360.989355
1.257267 0.943319 3.312366 12.000000 22 360.989358
1.217407 0.913739 2.559980 17.000000 20 360.989361
1.209806 0.908031 2.077051 25.000000 18 360.989363
1.253603 0.940899 1.777495 28.000000 16 360.989366
1.383832 1.044317 1.783461 23.000000 15 360.989323
2.102994 1.587029 2.205994 13.000000 13 360.989326
2.231606 1.683475 1.917345 16.000000 11 360.989329
2.285872 1.724409 1.584761 17.000000 9 360.989331
2.325156 1.753407 1.264916 18.000000 7 360.989334
2.356208 1.776178 0.956698 18.000000 5 360.989336
2.408459 1.815566 0.664101 25.000000 3 360.989339
1.423684 1.072826 0.252674 28.000000 1 360.989341
1.927717 1.450013 2.228823 16.000000 14 360.989349
2.221232 1.670788 2.107392 17.000000 12 360.989352
2.258449 1.698165 1.745412 17.000000 10 360.989354
2.326105 1.749033 1.432827 19.000000 8 360.989357
2.356042 1.770899 1.114377 21.000000 6 360.989359
2.393861 1.798672 0.812901 25.000000 4 360.989362
1.381822 1.037881 0.332946 79.000000 2 360.989364
1.434060 1.076726 0.166015 37.000000 0 360.989367
0.038340 0.019283 3.364146 51.000000 31 360.989378
0.425621 0.302393 3.319605 81.000000 28 360.989380
0.546183 0.387071 3.241901 89.000000 27 360.989383
0.814403 0.601439 3.281781 89.000000 25 360.989385
1.098017 0.820252 3.288422 12.000000 23 360.989388
1.351328 1.009839 3.157555 9.000000 21 360.989390
1.183955 0.884761 2.243403 24.000000 19 360.989393
1.236766 0.924222 1.924493 22.000000 17 360.989396
0.172723 0.110827 3.378748 53.000000 30 360.989403
0.305922 0.206758 3.395287 42.000000 29 360.989406
0.676036 0.491942 3.254271 89.000000 26 360.989408
0.953141 0.709444 3.285351 90.000000 24 360.989411
1.258805 0.937624 3.307865 13.000000 22 360.989414
1.264507 0.942207 2.649565 17.000000 20 360.989416
1.215385 0.905603 2.081040 25.000000 18 360.989419
1.259598 0.938543 1.781170 28.000000 16 360.989421
1.384615 1.037342 1.779957 23.000000 15 360.989379
2.105405 1.577345 2.202856 13.000000 13 360.989381
2.244163 1.680688 1.922828 16.000000 11 360.989384
2.295424 1.719075 1.587079 17.000000 9 360.989387
2.334974 1.748058 1.266788 18.000000 7 360.989389
2.366235 1.770817 0.958107 18.000000 5 360.989392
2.418715 1.810091 0.665034 25.000000 3 360.989394
1.431408 1.070833 0.253121 28.000000 1 360.989397
1.926782 1.438806 2.222173 16.000000 14 360.989405
2.230290 1.665443 2.110335 17.000000 12 360.989407
2.267818 1.692850 1.747944 18.000000 10 360.989410
2.335834 1.743618 1.434926 20.000000 8 360.989412
2.365994 1.765489 1.116020 20.000000 6 360.989415
2.404021 1.793211 0.814073 25.000000 4 360.989417
1.385436 1.033052 0.332946 77.000000 2 360.989420
1.445821 1.077685 0.166418 36.000000 0 360.989423
0.038407 0.019149 3.364146 53.000000 31 360.989433
0.424133 0.299116 3.299848 86.000000 28 360.989436
0.547531 0.385162 3.241901 89.000000 27 360.989438
0.816497 0.598592 3.281781 87.000000 25 360.989441
1.100873 0.816414 3.288422 12.000000 23 360.989443
1.352921 1.003688 3.153167 13.000000 21 360.989446
1.189296 0.882300 2.247536 24.000000 19 360.989449
1.239985 0.919900 1.924493 22.000000 17 360.989451
0.173109 0.110224 3.378748 52.000000 30 360.989459
0.306641 0.205688 3.395287 43.000000 29 360.989461
0.677749 0.489579 3.254271 89.000000 26 360.989464
0.954224 0.705087 3.280658 89.000000 24 360.989467
1.262070 0.933224 3.307865 13.000000 22 360.989469
1.311820 0.970358 2.739149 18.000000 20 360.989472
1.220962 0.903148 2.085030 25.000000 18 360.989474
1.265592 0.936157 1.784846 27.000000 16 360.989477
1.388227 1.032503 1.779957 23.000000 15 360.989434
2.104651 1.565339 2.196581 13.000000 13 360.989437
2.253372 1.675339 1.925569 16.000000 11 360.989440
2.304966 1.713695 1.589397 17.000000 9 360.989442
2.344782 1.742663 1.268662 19.000000 7 360.989445
2.376253 1.765408 0.959516 18.000000 5 360.989447
2.428962 1.804567 0.665966 22.000000 3 360.989450
1.439135 1.068799 0.253567 28.000000 1 360.989452
1.913793 1.418728 2.202224 16.000000 14 360.989460
2.239337 1.660055 2.113278 17.000000 12 360.989463
2.277177 1.687490 1.750477 18.000000 10 360.989465
2.345552 1.738156 1.437024 19.000000 8 360.989468
2.375937 1.760030 1.117663 20.000000 6 360.989470
2.414172 1.787701 0.815245 24.000000 4 360.989473
1.393014 1.031156 0.333636 77.000000 2 360.989475
1.453590 1.075603 0.166620 36.000000 0 360.989478
0.038514 0.019030 3.369145 53.000000 31 360.989489
0.422627 0.295854 3.280091 91.000000 28 360.989491
0.548872 0.383248 3.241901 87.000000 27 360.989494
0.817374 0.594860 3.277009 87.000000 25 360.989496
1.103716 0.812567 3.288422 13.000000 23 360.989499
1.358346 1.000381 3.157555 14.000000 21 360.989501
1.192369 0.878143 2.247536 24.000000 19 360.989504
1.245769 0.917467 1.928330 22.000000 17 360.989507
0.173247 0.109466 3.373756 52.000000 30 360.989514
0.307357 0.204617 3.395287 42.000000 29 360.989517
0.679454 0.487210 3.254271 91.000000 26 360.989519
0.956679 0.701752 3.280658 89.000000 24 360.989522
1.263565 0.927524 3.303365 13.000000 22 360.989525
1.346732 0.988927 2.803138 21.000000 20 360.989527
1.224107 0.898880 2.085030 25.000000 18 360.989530
1.271585 0.933740 1.788521 27.000000 16 360.989532
1.388954 1.025532 1.776452 23.000000 15 360.989490
2.106971 1.555671 2.193443 14.000000 13 360.989493
2.262570 1.669946 1.928311 16.000000 11 360.989495
2.314498 1.708270 1.591715 17.000000 9 360.989498
2.354582 1.737219 1.270535 19.000000 7 360.989500
2.386261 1.759950 0.960925 18.000000 5 360.989503
2.439199 1.798993 0.666899 23.000000 3 360.989505
1.442857 1.063769 0.253567 26.000000 1 360.989508
1.888657 1.389905 2.168975 15.000000 14 360.989516
2.251629 1.657019 2.119164 17.000000 12 360.989518
2.286526 1.682086 1.753009 17.000000 10 360.989521
2.355261 1.732647 1.439122 19.000000 8 360.989523
2.385870 1.754524 1.119305 20.000000 6 360.989526
2.428230 1.785021 0.817590 24.000000 4 360.989528
1.396605 1.026287 0.333636 77.000000 2 360.989531
1.465388 1.076438 0.167023 35.000000 0 360.989534
0.038580 0.018896 3.369145 42.000000 31 360.989544
0.421103 0.292605 3.260334 92.000000 28 360.989547
0.550207 0.381330 3.241901 87.000000 27 360.989549
0.819446 0.592003 3.277009 89.000000 25 360.989552
1.106546 0.808709 3.288422 13.000000 23 360.989554
1.361829 0.995633 3.157555 16.000000 21 360.989557
1.197698 0.875636 2.251669 24.000000 19 360.989560
1.251553 0.915005 1.932167 22.000000 17 360.989562
0.173628 0.108860 3.373756 51.000000 30 360.989570
0.308070 0.203543 3.395287 42.000000 29 360.989572
0.681150 0.484836 3.254271 91.000000 26 360.989575
0.959123 0.698408 3.280658 91.000000 24 360.989578
1.265035 0.921825 3.298864 13.000000 22 360.989580
1.364928 0.994974 2.833000 22.000000 20 360.989583
1.229673 0.896377 2.089019 25.000000 18 360.989585
1.277576 0.931292 1.792196 27.000000 16 360.989588
1.392525 1.020678 1.776452 23.000000 15 360.989545
2.109248 1.546005 2.190305 14.000000 13 360.989548
2.271759 1.664510 1.931052 16.000000 11 360.989551
2.324020 1.702798 1.594033 17.000000 9 360.989553
2.364372 1.731729 1.272408 18.000000 7 360.989556
2.396261 1.754444 0.962335 18.000000 5 360.989558
2.449428 1.793370 0.667831 23.000000 3 360.989561
1.450580 1.061668 0.254013 26.000000 1 360.989563
1.793989 1.310608 2.059255 16.000000 14 360.989571
2.260663 1.651534 2.122108 17.000000 12 360.989574
2.295866 1.676637 1.755542 17.000000 10 360.989576
2.364960 1.727092 1.441220 19.000000 8 360.989579
2.399609 1.751753 1.122591 20.000000 6 360.989581
2.438372 1.779399 0.818762 24.000000 4 360.989584
1.404180 1.024324 0.334326 77.000000 2 360.989587
1.473173 1.074260 0.167224 35.000000 0 360.989589
0.038646 0.018761 3.369145 42.000000 31 360.989600
0.420202 0.289811 3.245517 95.000000 28 360.989602
0.551535 0.379407 3.241901 89.000000 27 360.989605
0.821507 0.589139 3.277009 89.000000 25 360.989607
1.109362 0.804841 3.288422 13.000000 23 360.989610
1.367235 0.992280 3.161944 18.000000 21 360.989613
1.203025 0.873103 2.255802 23.000000 19 360.989615
1.257333 0.912513 1.936003 22.000000 17 360.989618
0.174007 0.108254 3.373756 51.000000 30 360.989625
0.308778 0.202466 3.395287 42.000000 29 360.989628
0.682838 0.482455 3.254271 91.000000 26 360.989631
0.960156 0.694045 3.275965 89.000000 24 360.989633
1.268245 0.917404 3.298864 13.000000 22 360.989636
1.374732 0.994790 2.845798 23.000000 20 360.989638
1.235236 0.893846 2.093009 24.000000 18 360.989641
1.280819 0.926827 1.792196 27.000000 16 360.989643
1.393196 1.013712 1.772948 23.000000 15 360.989601
2.108337 1.534053 2.184030 14.000000 13 360.989604
2.280937 1.659029 1.933794 16.000000 11 360.989606
2.333533 1.697282 1.596351 17.000000 9 360.989609
2.374151 1.726192 1.274281 18.000000 7 360.989611
2.410132 1.751709 0.965153 18.000000 5 360.989614
2.459646 1.787697 0.668764 23.000000 3 360.989616
1.458307 1.059525 0.254459 28.000000 1 360.989619
1.659492 1.203490 1.906312 19.000000 14 360.989627
2.269686 1.646006 2.125051 17.000000 12 360.989629
2.305195 1.671143 1.758074 17.000000 10 360.989632
2.374648 1.721490 1.443318 18.000000 8 360.989634
2.409533 1.746138 1.124233 20.000000 6 360.989637
2.448505 1.773728 0.819935 24.000000 4 360.989639
1.407747 1.019416 0.334326 79.000000 2 360.989642
1.480961 1.072040 0.167426 35.000000 0 360.989645
0.038674 0.018604 3.364146 54.000000 31 360.989656
0.419978 0.287393 3.235638 94.000000 28 360.989659
0.552922 0.377383 3.241901 89.000000 27 360.989661
0.823661 0.586124 3.277009 89.000000 25 360.989664
1.112305 0.800770 3.288422 13.000000 23 360.989666
1.372807 0.988663 3.166333 20.000000 21 360.989669
1.206217 0.868688 2.255802 23.000000 19 360.989671
1.263271 0.909773 1.939841 22.000000 17 360.989674
0.174631 0.107796 3.378748 52.000000 30 360.989682
0.309483 0.201387 3.395287 42.000000 29 360.989684
0.684518 0.480068 3.254271 89.000000 26 360.989687
0.962573 0.690689 3.275965 89.000000 24 360.989689
1.269830 0.911479 3.294363 13.000000 22 360.989692
1.382605 0.992787 2.854329 22.000000 20 360.989694
1.238504 0.889313 2.093009 24.000000 18 360.989697
1.286800 0.924328 1.795871 26.000000 16 360.989700
1.396902 1.008599 1.772948 23.000000 15 360.989657
2.110789 1.524036 2.180892 15.000000 13 360.989660
2.290392 1.653105 1.936535 16.000000 11 360.989662
2.343330 1.691310 1.598669 17.000000 9 360.989665
2.387681 1.723320 1.278027 18.000000 7 360.989668
2.420122 1.746093 0.966562 18.000000 5 360.989670
2.470166 1.781543 0.669697 22.000000 3 360.989673
1.466220 1.057085 0.254906 28.000000 1 360.989675
1.588115 1.142868 1.823191 23.000000 14 360.989683
2.278985 1.640037 2.127994 17.000000 12 360.989686
2.314514 1.665604 1.760607 17.000000 10 360.989688
2.384327 1.715841 1.445416 18.000000 8 360.989691
2.419447 1.740474 1.125876 20.000000 6 360.989693
2.458628 1.768008 0.821107 24.000000 4 360.989696
1.415318 1.017387 0.335016 79.000000 2 360.989698
1.488751 1.069780 0.167627 35.000000 0 360.989701
0.038735 0.018475 3.364146 54.000000 31 360.989712
0.419643 0.285126 3.225760 94.000000 28 360.989714
0.554170 0.375548 3.241901 89.000000 27 360.989717
0.825600 0.583389 3.277009 89.000000 25 360.989719
1.114954 0.797077 3.288422 14.000000 23 360.989722
1.376078 0.984105 3.166333 19.000000 21 360.989724
1.211380 0.866320 2.259935 23.000000 19 360.989727
1.266281 0.905578 1.939841 22.000000 17 360.989729
0.175006 0.107186 3.378748 52.000000 30 360.989737
0.310184 0.200305 3.395287 42.000000 29 360.989740
0.686190 0.477676 3.254271 91.000000 26 360.989742
0.964978 0.687325 3.275965 88.000000 24 360.989745
1.273003 0.907041 3.294363 13.000000 22 360.989747
1.388186 0.989469 2.858595 22.000000 20 360.989750
1.244055 0.886734 2.096998 25.000000 18 360.989753
1.290179 0.919606 1.795871 26.000000 16 360.989755
1.397341 1.001883 1.769443 24.000000 15 360.989713
2.112667 1.514760 2.177754 14.000000 13 360.989715
2.299261 1.647937 1.939277 16.000000 11 360.989718
2.356128 1.688692 1.603305 17.000000 9 360.989720
2.397450 1.717675 1.279900 18.000000 7 360.989723
2.430103 1.740427 0.967971 18.000000 5 360.989726
2.480364 1.775769 0.670629 22.000000 3 360.989728
1.469901 1.051961 0.254906 28.000000 1 360.989731
1.570824 1.122123 1.799917 25.000000 14 360.989738
2.287985 1.634421 2.130937 17.000000 12 360.989741
2.324111 1.659616 1.763139 17.000000 10 360.989744
2.394294 1.709728 1.447514 19.000000 8 360.989746
2.429654 1.734338 1.127519 19.000000 6 360.989749
2.469048 1.761808 0.822279 24.000000 4 360.989751
1.423069 1.015068 0.335706 77.000000 2 360.989754
1.496544 1.067477 0.167829 35.000000 0 360.989756
0.038803 0.018333 3.364146 55.000000 31 360.989767
0.420040 0.283152 3.220820 95.000000 28 360.989770
0.555543 0.373514 3.241901 84.000000 27 360.989772
0.827733 0.580360 3.277009 89.000000 25 360.989775
1.116274 0.791855 3.283819 14.000000 23 360.989777
1.381630 0.980441 3.170721 17.000000 21 360.989780
1.216842 0.863503 2.264068 23.000000 19 360.989782
1.272206 0.902786 1.943677 22.000000 17 360.989785
0.175398 0.106544 3.378748 51.000000 30 360.989793
0.310917 0.199167 3.395287 42.000000 29 360.989795
0.687936 0.475158 3.254271 91.000000 26 360.989798
0.967491 0.683783 3.275965 88.000000 24 360.989800
1.274384 0.901335 3.289862 13.000000 22 360.989803
1.391632 0.984617 2.858595 22.000000 20 360.989806
1.249603 0.884126 2.100987 25.000000 18 360.989808
1.296149 0.917055 1.799546 25.000000 16 360.989811
1.401003 0.996755 1.769443 24.000000 15 360.989768
2.115033 1.504749 2.174616 14.000000 13 360.989771
2.308693 1.641922 1.942018 16.000000 11 360.989773
2.365912 1.682612 1.605623 17.000000 9 360.989776
2.411287 1.714249 1.283646 20.000000 7 360.989779
2.440376 1.734288 0.969380 18.000000 5 360.989781
2.486547 1.767100 0.670629 22.000000 3 360.989784
1.477624 1.049707 0.255352 28.000000 1 360.989786
1.571685 1.114473 1.796592 26.000000 14 360.989794
2.296973 1.628762 2.133880 17.000000 12 360.989797
2.333408 1.653986 1.765671 17.000000 10 360.989799
2.407652 1.706609 1.451710 19.000000 8 360.989802
2.439546 1.728577 1.129161 19.000000 6 360.989804
2.475183 1.753179 0.822279 24.000000 4 360.989807
1.426603 1.010095 0.335706 77.000000 2 360.989809
1.504524 1.064871 0.168030 34.000000 0 360.989812
0.038866 0.018198 3.364146 54.000000 31 360.989823
0.420380 0.281253 3.215881 95.000000 28 360.989825
0.556843 0.371572 3.241901 84.000000 27 360.989828
0.828528 0.576614 3.272238 89.000000 25 360.989830
1.119032 0.787953 3.283819 15.000000 23 360.989833
1.385044 0.975612 3.170721 17.000000 21 360.989835
1.222149 0.860870 2.268201 23.000000 19 360.989838
1.277971 0.900186 1.947514 21.000000 17 360.989840
0.175769 0.105931 3.378748 52.000000 30 360.989848
0.311610 0.198081 3.395287 41.000000 29 360.989851
0.689591 0.472754 3.254271 89.000000 26 360.989853
0.969872 0.680402 3.275965 89.000000 24 360.989856
1.277522 0.896881 3.289862 12.000000 22 360.989858
1.395060 0.979753 2.858595 22.000000 20 360.989861
1.255148 0.881491 2.104977 25.000000 18 360.989864
1.302116 0.914473 1.803222 25.000000 16 360.989866
1.401561 0.989801 1.765939 24.000000 15 360.989824
2.117093 1.495112 2.171479 15.000000 13 360.989826
2.317826 1.636265 1.944760 15.000000 11 360.989829
2.379009 1.679453 1.610259 17.000000 9 360.989832
2.421043 1.708494 1.285519 19.000000 7 360.989834
2.450335 1.728524 0.970790 17.000000 5 360.989837
2.496714 1.761241 0.671562 20.000000 3 360.989839
1.481279 1.044543 0.255352 28.000000 1 360.989842
1.569458 1.104681 1.789943 25.000000 14 360.989850
2.302644 1.620735 2.133880 18.000000 12 360.989852
2.346219 1.650792 1.770736 17.000000 10 360.989855
2.417307 1.700806 1.453808 19.000000 8 360.989857
2.449428 1.722768 1.130804 20.000000 6 360.989860
2.485264 1.747324 0.823451 23.000000 4 360.989862
1.434172 1.007956 0.336395 79.000000 2 360.989865
1.512320 1.062485 0.168232 34.000000 0 360.989867
0.038930 0.018062 3.364146 53.000000 31 360.989878
0.421359 0.279784 3.215881 96.000000 28 360.989881
0.558137 0.369626 3.241901 89.000000 27 360.989883
0.830535 0.573718 3.272238 87.000000 25 360.989886
1.121775 0.784043 3.283819 15.000000 23 360.989888
1.388441 0.970771 3.170721 16.000000 21 360.989891
1.225147 0.856599 2.268201 23.000000 19 360.989893
1.283733 0.897557 1.951351 21.000000 17 360.989896
0.176137 0.105317 3.378748 53.000000 30 360.989904
0.312299 0.196992 3.395287 41.000000 29 360.989906
0.691236 0.470344 3.254271 89.000000 26 360.989909
0.972241 0.677012 3.275965 89.000000 24 360.989911
1.278859 0.891171 3.285361 12.000000 22 360.989914
1.400611 0.976369 2.862861 22.000000 20 360.989917
1.260690 0.878828 2.108967 25.000000 18 360.989919
1.308082 0.911861 1.806897 26.000000 16 360.989922
1.405008 0.984903 1.765939 24.000000 15 360.989879
2.122299 1.487713 2.171479 16.000000 13 360.989882
2.326948 1.630563 1.947501 15.000000 11 360.989884
2.388485 1.673681 1.612577 17.000000 9 360.989887
2.430790 1.702693 1.287392 18.000000 7 360.989890
2.460284 1.722712 0.972199 17.000000 5 360.989892
2.506871 1.755333 0.672494 19.000000 3 360.989895
1.488996 1.042222 0.255798 29.000000 1 360.989897
1.573304 1.099196 1.789943 25.000000 14 360.989905
2.308288 1.612687 2.133880 18.000000 12 360.989908
2.355501 1.645061 1.773269 17.000000 10 360.989910
2.423229 1.692358 1.453808 18.000000 8 360.989913
