# .PCD v.7 - Point Cloud Data file format
VERSION .7
FIELDS x y z intensity ring timestamp
SIZE 4 4 4 4 2 8
TYPE F F F F U D
COUNT 1 1 1 1 1 1
WIDTH 907
HEIGHT 1
VIEWPOINT 0 0 0 1 0 0 0
POINTS 907
DATA ascii
-0.833003 -0.841188 0.316234 11.000000 3 360.437948
-0.826981 -0.834816 0.198237 13.000000 1 360.437950
-0.912607 -0.919653 1.234693 40.000000 14 360.437958
-0.892983 -0.899875 1.006650 42.000000 12 360.437961
-0.882083 -0.888580 0.821076 44.000000 10 360.437963
-0.880078 -0.886557 0.664940 47.000000 8 360.437966
-0.868899 -0.874990 0.518083 39.000000 6 360.437968
-0.846217 -0.851852 0.380315 23.000000 4 360.437971
-0.834188 -0.839449 0.257067 9.000000 2 360.437973
-0.848658 -0.853712 0.142234 25.000000 0 360.437976
-0.032591 -0.023125 3.024158 97.000000 31 360.437987
-0.338887 -0.323483 2.978796 95.000000 28 360.437989
-0.443509 -0.422315 2.967768 87.000000 27 360.437992
-0.438147 -0.433883 2.017274 22.000000 25 360.437994
-0.692471 -0.693226 2.367917 39.000000 23 360.437997
-0.856834 -0.858053 2.288600 57.000000 21 360.437999
-0.988705 -0.990105 2.127681 36.000000 19 360.438002
-0.955047 -0.956396 1.694276 38.000000 17 360.438004
-0.138726 -0.120563 3.009369 97.000000 30 360.438012
-0.241759 -0.220272 3.002545 96.000000 29 360.438015
-0.520828 -0.508517 2.838099 75.000000 26 360.438017
-0.402586 -0.401636 1.600648 58.000000 24 360.438020
-0.765614 -0.764304 2.299679 77.000000 22 360.438022
-1.008797 -1.007408 2.402140 34.000000 20 360.438025
-0.967986 -0.966650 1.885555 39.000000 18 360.438028
-0.936384 -0.935088 1.512883 39.000000 16 360.438030
-0.929050 -0.932635 1.373429 39.000000 15 360.437988
-0.906037 -0.909530 1.117185 39.000000 13 360.437990
-0.889957 -0.893076 0.911227 42.000000 11 360.437993
-0.882873 -0.885964 0.740999 40.000000 9 360.437995
-0.867907 -0.870641 0.585005 39.000000 7 360.437998
-0.860654 -0.863065 0.447978 33.000000 5 360.438001
-0.839403 -0.841754 0.317166 11.000000 3 360.438003
-0.829891 -0.831924 0.198237 12.000000 1 360.438006
-0.915811 -0.916462 1.234693 40.000000 14 360.438013
-0.896119 -0.896752 1.006650 40.000000 12 360.438016
-0.885180 -0.885496 0.821076 44.000000 10 360.438019
-0.886376 -0.886689 0.667038 47.000000 8 360.438021
-0.871948 -0.871952 0.518083 39.000000 6 360.438024
-0.849185 -0.848893 0.380315 23.000000 4 360.438026
-0.840616 -0.840033 0.257756 9.000000 2 360.438029
-0.851633 -0.850745 0.142234 26.000000 0 360.438031
-0.032672 -0.023011 3.024158 97.000000 31 360.438042
-0.340014 -0.322298 2.978796 96.000000 28 360.438045
-0.444980 -0.420764 2.967768 82.000000 27 360.438047
-0.439659 -0.432351 2.017274 23.000000 25 360.438050
-0.694887 -0.690804 2.367917 38.000000 23 360.438052
-0.859824 -0.855057 2.288600 59.000000 21 360.438055
-0.992155 -0.986647 2.127681 36.000000 19 360.438057
-0.960652 -0.955317 1.698113 38.000000 17 360.438060
-0.139146 -0.120078 3.009369 97.000000 30 360.438068
-0.242526 -0.219427 3.002545 97.000000 29 360.438070
-0.522600 -0.506696 2.838099 75.000000 26 360.438073
-0.403985 -0.400228 1.600648 58.000000 24 360.438075
-0.768277 -0.761627 2.299679 75.000000 22 360.438078
-1.014159 -1.005717 2.406406 34.000000 20 360.438081
-0.973494 -0.965387 1.889544 39.000000 18 360.438083
-0.939642 -0.931814 1.512883 39.000000 16 360.438086
-0.934825 -0.931904 1.376934 39.000000 15 360.438043
-0.911963 -0.909110 1.120323 39.000000 13 360.438046
-0.893069 -0.889964 0.911227 40.000000 11 360.438048
-0.885960 -0.882877 0.740999 40.000000 9 360.438051
-0.870941 -0.867607 0.585005 39.000000 7 360.438054
-0.863662 -0.860055 0.447978 33.000000 5 360.438056
-0.842336 -0.838818 0.317166 11.000000 3 360.438059
-0.832789 -0.829023 0.198237 12.000000 1 360.438061
-0.921653 -0.915892 1.238018 40.000000 14 360.438069
-0.902111 -0.896468 1.009593 40.000000 12 360.438072
-0.888265 -0.882401 0.821076 44.000000 10 360.438074
-0.889466 -0.883590 0.667038 47.000000 8 360.438077
-0.878338 -0.872230 0.519725 39.000000 6 360.438079
-0.852143 -0.845923 0.380315 24.000000 4 360.438082
-0.843543 -0.837093 0.257756 9.000000 2 360.438084
-0.858144 -0.851285 0.142436 25.000000 0 360.438087
-0.032752 -0.022897 3.024158 97.000000 31 360.438098
-0.341137 -0.321109 2.978796 96.000000 28 360.438100
-0.446446 -0.419208 2.967768 82.000000 27 360.438103
-0.442234 -0.431857 2.022046 22.000000 25 360.438105
-0.698684 -0.689747 2.372519 38.000000 23 360.438108
-0.862804 -0.852051 2.288600 57.000000 21 360.438110
-0.997595 -0.985155 2.131814 36.000000 19 360.438113
-0.963981 -0.951957 1.698113 38.000000 17 360.438115
-0.139564 -0.119592 3.009369 97.000000 30 360.438123
-0.243290 -0.218579 3.002545 96.000000 29 360.438126
-0.524365 -0.504869 2.838099 75.000000 26 360.438128
-0.405380 -0.398815 1.600648 56.000000 24 360.438131
-0.770931 -0.758941 2.299679 77.000000 22 360.438133
-1.019522 -1.004000 2.410672 34.000000 20 360.438136
-0.976858 -0.961983 1.889544 38.000000 18 360.438139
-0.945304 -0.930907 1.516559 39.000000 16 360.438141
-0.938072 -0.928635 1.376934 39.000000 15 360.438099
-0.915131 -0.905921 1.120323 40.000000 13 360.438101
-0.899142 -0.889782 0.913968 40.000000 11 360.438104
-0.892185 -0.882895 0.743317 40.000000 9 360.438107
-0.873964 -0.864561 0.585005 39.000000 7 360.438109
-0.866659 -0.857035 0.447978 33.000000 5 360.438112
-0.845259 -0.835873 0.317166 12.000000 3 360.438114
-0.835678 -0.826110 0.198237 12.000000 1 360.438117
-0.924845 -0.912669 1.238018 40.000000 14 360.438125
-0.905235 -0.893314 1.009593 42.000000 12 360.438127
-0.894409 -0.882322 0.823609 44.000000 10 360.438130
-0.892545 -0.880479 0.667038 47.000000 8 360.438132
-0.881377 -0.869159 0.519725 39.000000 6 360.438135
-0.858553 -0.846356 0.381488 24.000000 4 360.438137
-0.849987 -0.837620 0.258446 9.000000 2 360.438140
-0.861110 -0.848285 0.142436 25.000000 0 360.438142
-0.032793 -0.022761 3.019159 97.000000 31 360.438153
-0.341688 -0.319387 2.973857 96.000000 28 360.438156
-0.447907 -0.417647 2.967768 87.000000 27 360.438158
-0.444811 -0.431350 2.026818 22.000000 25 360.438161
-0.701088 -0.687304 2.372519 38.000000 23 360.438163
-0.865773 -0.849034 2.288600 55.000000 21 360.438166
-1.001028 -0.981667 2.131814 36.000000 19 360.438168
-0.969587 -0.950831 1.701950 38.000000 17 360.438171
-0.139981 -0.119104 3.009369 97.000000 30 360.438179
-0.244052 -0.217728 3.002545 97.000000 29 360.438181
-0.526125 -0.503035 2.838099 75.000000 26 360.438184
-0.408004 -0.398604 1.605341 54.000000 24 360.438186
-0.773576 -0.756245 2.299679 77.000000 22 360.438189
-1.024885 -1.002259 2.414938 34.000000 20 360.438192
-0.982365 -0.960675 1.893534 38.000000 18 360.438194
-0.948548 -0.927601 1.516559 39.000000 16 360.438197
-0.943851 -0.927855 1.380438 39.000000 15 360.438154
-0.918288 -0.902721 1.120323 39.000000 13 360.438157
-0.902242 -0.886638 0.913968 40.000000 11 360.438159
-0.895262 -0.879775 0.743317 40.000000 9 360.438162
-0.880284 -0.864754 0.586878 39.000000 7 360.438165
-0.869645 -0.854005 0.447978 33.000000 5 360.438167
-0.851676 -0.836359 0.318099 12.000000 3 360.438170
-0.838557 -0.823188 0.198237 13.000000 1 360.438172
-0.930692 -0.912049 1.241343 42.000000 14 360.438180
-0.908348 -0.890148 1.009593 40.000000 12 360.438183
-0.897484 -0.879195 0.823609 44.000000 10 360.438185
-0.895613 -0.877358 0.667038 47.000000 8 360.438188
-0.884405 -0.866077 0.519725 39.000000 6 360.438190
-0.861502 -0.843354 0.381488 24.000000 4 360.438193
-0.852906 -0.834648 0.258446 9.000000 2 360.438195
-0.867637 -0.848767 0.142637 25.000000 0 360.438198
-0.032873 -0.022646 3.019159 97.000000 31 360.438209
-0.342801 -0.318192 2.973857 96.000000 28 360.438211
-0.449362 -0.416081 2.967768 87.000000 27 360.438214
-0.447390 -0.430830 2.031590 22.000000 25 360.438216
-0.704882 -0.686215 2.377122 38.000000 23 360.438219
-0.867014 -0.844335 2.284212 53.000000 21 360.438221
-1.006465 -0.980130 2.135947 36.000000 19 360.438224
-0.975197 -0.949678 1.705787 38.000000 17 360.438227
-0.140396 -0.118615 3.009369 97.000000 30 360.438234
-0.244810 -0.216875 3.002545 97.000000 29 360.438237
-0.527877 -0.501196 2.838099 74.000000 26 360.438239
-0.409393 -0.397177 1.605341 54.000000 24 360.438242
-0.776211 -0.753540 2.299679 77.000000 22 360.438245
-1.028377 -0.998675 2.414938 33.000000 20 360.438247
-0.987875 -0.959339 1.897523 38.000000 18 360.438250
-0.954212 -0.926646 1.520234 39.000000 16 360.438252
-0.947084 -0.924555 1.380438 39.000000 15 360.438210
-0.924219 -0.902230 1.123461 39.000000 13 360.438212
-0.908324 -0.886404 0.916710 40.000000 11 360.438215
-0.901498 -0.879739 0.745636 42.000000 9 360.438218
-0.883297 -0.861676 0.586878 39.000000 7 360.438220
-0.872621 -0.850964 0.447978 34.000000 5 360.438223
-0.854590 -0.833381 0.318099 12.000000 3 360.438225
-0.844991 -0.823732 0.198683 12.000000 1 360.438228
-0.933870 -0.908794 1.241343 42.000000 14 360.438236
-0.914346 -0.889791 1.012536 40.000000 12 360.438238
-0.903637 -0.879063 0.826141 44.000000 10 360.438241
-0.898670 -0.874227 0.667038 49.000000 8 360.438243
-0.887423 -0.862985 0.519725 39.000000 6 360.438246
-0.864440 -0.840341 0.381488 24.000000 4 360.438248
-0.855814 -0.831665 0.258446 9.000000 2 360.438251
-0.870595 -0.845734 0.142637 25.000000 0 360.438253
-0.032952 -0.022532 3.019159 97.000000 31 360.438264
-0.343909 -0.316993 2.973857 96.000000 28 360.438267
-0.451562 -0.415199 2.972663 87.000000 27 360.438269
-0.451051 -0.431330 2.041133 22.000000 25 360.438272
-0.707273 -0.683751 2.377122 36.000000 23 360.438274
-0.871679 -0.842969 2.288600 49.000000 21 360.438277
-1.011903 -0.978567 2.140079 36.000000 19 360.438279
-0.978506 -0.946268 1.705787 38.000000 17 360.438282
-0.140809 -0.118124 3.009369 97.000000 30 360.438290
-0.245566 -0.216019 3.002545 97.000000 29 360.438292
-0.530539 -0.500212 2.842938 74.000000 26 360.438295
-0.412019 -0.396943 1.610034 54.000000 24 360.438297
-0.778836 -0.750826 2.299679 75.000000 22 360.438300
-1.033735 -0.996890 2.419204 34.000000 20 360.438303
-0.991217 -0.955885 1.897523 38.000000 18 360.438305
-0.959881 -0.925663 1.523909 39.000000 16 360.438308
-0.952867 -0.923725 1.383943 39.000000 15 360.438265
-0.927363 -0.898998 1.123461 39.000000 13 360.438268
-0.914416 -0.886138 0.919451 40.000000 11 360.438271
-0.904564 -0.876587 0.745636 40.000000 9 360.438273
-0.889629 -0.861813 0.588751 40.000000 7 360.438276
-0.875586 -0.847913 0.447978 34.000000 5 360.438278
-0.861023 -0.833810 0.319031 12.000000 3 360.438281
-0.847861 -0.820778 0.198683 12.000000 1 360.438283
-0.939722 -0.908124 1.244668 42.000000 14 360.438291
-0.917446 -0.886594 1.012536 40.000000 12 360.438294
-0.906700 -0.875903 0.826141 44.000000 10 360.438296
-0.904980 -0.874238 0.669136 47.000000 8 360.438299
-0.890430 -0.859882 0.519725 39.000000 6 360.438301
-0.870865 -0.840695 0.382660 25.000000 4 360.438304
-0.862276 -0.832112 0.259136 9.000000 2 360.438306
-0.873542 -0.842690 0.142637 25.000000 0 360.438309
-0.033030 -0.022416 3.019159 97.000000 31 360.438320
-0.345014 -0.315791 2.973857 96.000000 28 360.438322
-0.453008 -0.413620 2.972663 87.000000 27 360.438325
-0.453637 -0.430781 2.045905 22.000000 25 360.438327
-0.711065 -0.682631 2.381725 36.000000 23 360.438330
-0.883256 -0.848218 2.310544 46.000000 21 360.438332
-1.017342 -0.976978 2.144213 36.000000 19 360.438335
-0.984116 -0.945067 1.709624 38.000000 17 360.438338
-0.141220 -0.117632 3.009369 97.000000 30 360.438345
-0.246319 -0.215161 3.002545 97.000000 29 360.438348
-0.532282 -0.498357 2.842938 75.000000 26 360.438350
-0.413402 -0.395502 1.610034 54.000000 24 360.438353
-0.781453 -0.748103 2.299679 75.000000 22 360.438356
-1.039092 -0.995079 2.423470 33.000000 20 360.438358
-0.996725 -0.954504 1.901513 38.000000 18 360.438361
-0.963107 -0.922307 1.523909 38.000000 16 360.438363
-0.956085 -0.920394 1.383943 39.000000 15 360.438321
-0.930495 -0.895755 1.123461 39.000000 13 360.438323
-0.917503 -0.882940 0.919451 40.000000 11 360.438326
-0.907618 -0.873424 0.745636 40.000000 9 360.438329
-0.892632 -0.858702 0.588751 39.000000 7 360.438331
-0.881998 -0.848176 0.449387 34.000000 5 360.438334
-0.863928 -0.830800 0.319031 12.000000 3 360.438336
-0.854311 -0.821265 0.199129 12.000000 1 360.438339
-0.942886 -0.904838 1.244668 40.000000 14 360.438347
-0.923452 -0.886185 1.015479 40.000000 12 360.438349
-0.912863 -0.875718 0.828674 44.000000 10 360.438352
-0.908026 -0.871074 0.669136 49.000000 8 360.438354
-0.893426 -0.856768 0.519725 39.000000 6 360.438357
-0.873794 -0.837650 0.382660 25.000000 4 360.438359
-0.865175 -0.829097 0.259136 9.000000 2 360.438362
-0.880086 -0.843091 0.142839 26.000000 0 360.438365
-0.033108 -0.022301 3.019159 97.000000 31 360.438375
-0.346114 -0.314585 2.973857 96.000000 28 360.438378
-0.454449 -0.412036 2.972663 87.000000 27 360.438380
-0.456225 -0.430220 2.050677 22.000000 25 360.438383
-0.714858 -0.681492 2.386327 37.000000 23 360.438385
-0.905283 -0.863317 2.358819 39.000000 21 360.438388
-1.020746 -0.973421 2.144213 36.000000 19 360.438391
-0.987409 -0.941626 1.709624 38.000000 17 360.438393
-0.141630 -0.117138 3.009369 96.000000 30 360.438401
-0.247472 -0.214649 3.007517 97.000000 29 360.438403
-0.534018 -0.496496 2.842938 74.000000 26 360.438406
-0.416032 -0.395245 1.614726 54.000000 24 360.438409
-0.784059 -0.745371 2.299679 75.000000 22 360.438411
-1.044449 -0.993243 2.427736 34.000000 20 360.438414
-1.002234 -0.953096 1.905502 38.000000 18 360.438416
-0.968777 -0.921276 1.527584 38.000000 16 360.438419
-0.961870 -0.919515 1.387447 39.000000 15 360.438376
-0.936430 -0.895192 1.126599 39.000000 13 360.438379
-0.923603 -0.882621 0.922193 40.000000 11 360.438382
-0.913864 -0.873311 0.747954 40.000000 9 360.438384
-0.898976 -0.858784 0.590624 39.000000 7 360.438387
-0.884953 -0.845092 0.449387 34.000000 5 360.438389
-0.866823 -0.827779 0.319031 12.000000 3 360.438392
-0.857173 -0.818278 0.199129 12.000000 1 360.438394
-0.948743 -0.904118 1.247992 40.000000 14 360.438402
-0.926540 -0.882956 1.015479 40.000000 12 360.438405
-0.915915 -0.872526 0.828674 44.000000 10 360.438407
-0.914347 -0.871029 0.671234 47.000000 8 360.438410
-0.899831 -0.856901 0.521368 39.000000 6 360.438412
-0.880234 -0.837946 0.383832 25.000000 4 360.438415
-0.868064 -0.826072 0.259136 9.000000 2 360.438417
-0.883023 -0.840014 0.142839 26.000000 0 360.438420
-0.033186 -0.022185 3.019159 97.000000 31 360.438431
-0.347210 -0.313375 2.973857 96.000000 28 360.438433
-0.455885 -0.410447 2.972663 88.000000 27 360.438436
-0.458814 -0.429645 2.055448 22.000000 25 360.438438
-0.718651 -0.680336 2.390929 37.000000 23 360.438441
-1.026181 -0.971787 2.148345 36.000000 19 360.438446
-0.993017 -0.940378 1.713461 38.000000 17 360.438449
-0.142038 -0.116643 3.009369 97.000000 30 360.438456
-0.248220 -0.213783 3.007517 97.000000 29 360.438459
-0.535748 -0.494629 2.842938 75.000000 26 360.438461
-0.417409 -0.393791 1.614726 54.000000 24 360.438464
-0.786786 -0.742492 2.299679 77.000000 22 360.438467
-1.049979 -0.991199 2.432002 34.000000 20 360.438469
-1.007913 -0.951485 1.909492 38.000000 18 360.438472
-0.974612 -0.920046 1.531259 38.000000 16 360.438474
-0.965074 -0.916152 1.387447 39.000000 15 360.438432
-0.939549 -0.891918 1.126599 39.000000 13 360.438435
-0.926678 -0.879392 0.922193 40.000000 11 360.438437
-0.916907 -0.870116 0.747954 40.000000 9 360.438440
-0.901968 -0.855640 0.590624 39.000000 7 360.438442
-0.891379 -0.845299 0.450796 33.000000 5 360.438445
-0.873416 -0.827976 0.319964 12.000000 3 360.438447
-0.860166 -0.815130 0.199129 12.000000 1 360.438450
-0.952050 -0.900634 1.247992 40.000000 14 360.438458
-0.932706 -0.882332 1.018422 42.000000 12 360.438460
-0.922239 -0.872125 0.831206 44.000000 10 360.438463
-0.917534 -0.867672 0.671234 47.000000 8 360.438465
-0.902966 -0.853598 0.521368 39.000000 6 360.438468
-0.883299 -0.834714 0.383832 25.000000 4 360.438470
-0.874685 -0.826285 0.259826 8.000000 2 360.438473
-0.889582 -0.840357 0.143040 26.000000 0 360.438476
-0.033267 -0.022063 3.019159 97.000000 31 360.438486
-0.348935 -0.312618 2.978796 96.000000 28 360.438489
-0.457386 -0.408774 2.972663 89.000000 27 360.438491
-0.460386 -0.427961 2.055448 22.000000 25 360.438494
-0.722563 -0.679035 2.395532 37.000000 23 360.438496
-1.073776 -1.009422 2.766964 27.000000 21 360.438499
-1.031786 -0.969947 2.152478 37.000000 19 360.438502
-0.996457 -0.936732 1.713461 38.000000 17 360.438504
-0.142444 -0.116146 3.009369 97.000000 30 360.438512
-0.248965 -0.212916 3.007517 97.000000 29 360.438514
-0.537471 -0.492756 2.842938 75.000000 26 360.438517
-0.420040 -0.393511 1.619419 52.000000 24 360.438520
-0.789373 -0.739741 2.299679 77.000000 22 360.438522
-1.053432 -0.987528 2.432002 33.000000 20 360.438525
-1.013427 -0.950022 1.913481 38.000000 18 360.438527
-0.977658 -0.916809 1.531259 38.000000 16 360.438530
-0.968425 -0.912608 1.387447 39.000000 15 360.438487
-0.945645 -0.891138 1.129737 39.000000 13 360.438490
-0.932939 -0.878857 0.924934 40.000000 11 360.438493
-0.920090 -0.866749 0.747954 40.000000 9 360.438495
-0.908324 -0.855665 0.592497 40.000000 7 360.438498
-0.894324 -0.842183 0.450796 33.000000 5 360.438500
-0.876301 -0.824922 0.319964 13.000000 3 360.438503
-0.866633 -0.815536 0.199576 12.000000 1 360.438505
-0.957910 -0.899862 1.251317 40.000000 14 360.438513
-0.935780 -0.879071 1.018422 40.000000 12 360.438516
-0.925126 -0.869062 0.831206 44.000000 10 360.438518
-0.920406 -0.864625 0.671234 45.000000 8 360.438521
-0.909234 -0.853831 0.523011 39.000000 6 360.438523
-0.886062 -0.831780 0.383832 25.000000 4 360.438526
-0.877421 -0.823380 0.259826 8.000000 2 360.438529
-0.892510 -0.837247 0.143040 26.000000 0 360.438531
-0.033378 -0.021973 3.024158 97.000000 31 360.438542
-0.349970 -0.311459 2.978796 96.000000 28 360.438544
-0.458739 -0.407255 2.972663 88.000000 27 360.438547
-0.462900 -0.427445 2.060220 21.000000 25 360.438549
-0.727667 -0.679302 2.404737 36.000000 23 360.438552
-1.078868 -1.007491 2.771353 27.000000 21 360.438555
-1.037054 -0.968440 2.156611 36.000000 19 360.438557
-1.001901 -0.935611 1.717298 38.000000 17 360.438560
-0.142849 -0.115648 3.009369 97.000000 30 360.438567
-0.249706 -0.212045 3.007517 97.000000 29 360.438570
-0.539188 -0.490877 2.842938 74.000000 26 360.438573
-0.421411 -0.392042 1.619419 54.000000 24 360.438575
-0.791821 -0.737119 2.299679 77.000000 22 360.438578
-1.058610 -0.985806 2.436268 33.000000 20 360.438580
-1.016572 -0.946656 1.913481 38.000000 18 360.438583
-0.983333 -0.915701 1.534934 38.000000 16 360.438585
-0.974050 -0.911829 1.390952 39.000000 15 360.438543
-0.948595 -0.887997 1.129737 39.000000 13 360.438546
-0.935848 -0.875758 0.924934 40.000000 11 360.438548
-0.926194 -0.866720 0.750272 40.000000 9 360.438551
-0.911305 -0.852489 0.592497 40.000000 7 360.438553
-0.900762 -0.842332 0.452206 34.000000 5 360.438556
-0.879032 -0.822012 0.319964 13.000000 3 360.438558
-0.869333 -0.812657 0.199576 12.000000 1 360.438561
-0.960889 -0.896681 1.251317 40.000000 14 360.438569
-0.941645 -0.878720 1.021366 42.000000 12 360.438571
-0.928154 -0.865827 0.831206 44.000000 10 360.438574
-0.926737 -0.864502 0.673332 45.000000 8 360.438576
-0.912209 -0.850652 0.523011 39.000000 6 360.438579
-0.888960 -0.828682 0.383832 26.000000 4 360.438581
-0.880289 -0.820312 0.259826 9.000000 2 360.438584
-0.899082 -0.837532 0.143242 26.000000 0 360.438587
-0.033455 -0.021857 3.024158 97.000000 31 360.438597
-0.351055 -0.310236 2.978796 97.000000 28 360.438600
-0.460158 -0.405651 2.972663 88.000000 27 360.438602
-0.465490 -0.426835 2.064992 21.000000 25 360.438605
-0.731467 -0.678086 2.409340 37.000000 23 360.438607
-1.085892 -1.006977 2.780131 27.000000 21 360.438610
-1.042491 -0.966728 2.160744 37.000000 19 360.438612
-1.005161 -0.932108 1.717298 38.000000 17 360.438615
-0.143252 -0.115149 3.009369 97.000000 30 360.438623
-0.250445 -0.211172 3.007517 97.000000 29 360.438625
-0.540898 -0.488992 2.842938 74.000000 26 360.438628
-0.424045 -0.391740 1.624112 52.000000 24 360.438630
-0.794390 -0.734351 2.299679 77.000000 22 360.438633
-1.063959 -0.983876 2.440534 33.000000 20 360.438635
-1.022083 -0.945148 1.917471 38.000000 18 360.438638
-0.989013 -0.914565 1.538610 38.000000 16 360.438641
-0.977227 -0.908424 1.390952 39.000000 15 360.438598
-0.954540 -0.887331 1.132874 39.000000 13 360.438601
-0.938899 -0.872486 0.924934 40.000000 11 360.438603
-0.929214 -0.863482 0.750272 40.000000 9 360.438606
-0.914275 -0.849303 0.592497 40.000000 7 360.438609
-0.903697 -0.839183 0.452206 34.000000 5 360.438611
-0.885495 -0.822281 0.320897 13.000000 3 360.438614
-0.875814 -0.813006 0.200022 12.000000 1 360.438616
-0.966752 -0.895859 1.254642 40.000000 14 360.438624
-0.944707 -0.875428 1.021366 42.000000 12 360.438627
-0.934333 -0.865512 0.833738 44.000000 10 360.438629
-0.929749 -0.861262 0.673332 45.000000 8 360.438632
-0.915173 -0.847463 0.523011 39.000000 6 360.438634
-0.895414 -0.828876 0.385005 26.000000 4 360.438637
-0.883148 -0.817235 0.259826 9.000000 2 360.438639
-0.902000 -0.834388 0.143242 26.000000 0 360.438642
-0.033531 -0.021740 3.024158 97.000000 31 360.438653
-0.352136 -0.309008 2.978796 96.000000 28 360.438655
-0.461571 -0.404042 2.972663 89.000000 27 360.438658
-0.466977 -0.425208 2.064992 21.000000 25 360.438660
-0.735267 -0.676851 2.413942 37.000000 23 360.438663
-1.091163 -1.004803 2.784519 27.000000 21 360.438665
-1.045860 -0.963083 2.160744 36.000000 19 360.438668
-1.010767 -0.930765 1.721135 37.000000 17 360.438670
-0.143653 -0.114648 3.009369 97.000000 30 360.438678
-0.251181 -0.210297 3.007517 97.000000 29 360.438681
-0.542602 -0.487101 2.842938 75.000000 26 360.438683
-0.425410 -0.390257 1.624112 48.000000 24 360.438686
-0.797076 -0.731434 2.299679 75.000000 22 360.438688
-1.069479 -0.981733 2.444800 33.000000 20 360.438691
-1.027760 -0.943434 1.921460 38.000000 18 360.438694
-0.992358 -0.910934 1.538610 38.000000 16 360.438696
-0.983012 -0.907426 1.394457 39.000000 15 360.438654
-0.957632 -0.883994 1.132874 39.000000 13 360.438656
-0.941939 -0.869203 0.924934 40.000000 11 360.438659
-0.932222 -0.860233 0.750272 40.000000 9 360.438661
-0.920642 -0.849250 0.594370 40.000000 7 360.438664
-0.906621 -0.836023 0.452206 34.000000 5 360.438667
-0.888503 -0.819030 0.320897 13.000000 3 360.438669
-0.878788 -0.809791 0.200022 11.000000 1 360.438672
-0.970029 -0.892310 1.254642 40.000000 14 360.438679
-0.950884 -0.874696 1.024309 40.000000 12 360.438682
-0.937499 -0.862082 0.833738 44.000000 10 360.438685
-0.932900 -0.857849 0.673332 45.000000 8 360.438687
-0.918273 -0.844103 0.523011 39.000000 6 360.438690
-0.898446 -0.825589 0.385005 26.000000 4 360.438692
-0.889784 -0.817342 0.260516 9.000000 2 360.438695
-0.904907 -0.831235 0.143242 26.000000 0 360.438697
-0.033649 -0.021637 3.029158 96.000000 31 360.438708
-0.353266 -0.307716 2.978796 96.000000 28 360.438711
-0.463049 -0.402348 2.972663 89.000000 27 360.438713
-0.469641 -0.424495 2.069763 21.000000 25 360.438716
-0.739185 -0.675470 2.418545 36.000000 23 360.438718
-1.096607 -1.002414 2.788908 27.000000 21 360.438721
-1.051459 -0.961142 2.164877 36.000000 19 360.438723
-1.014172 -0.927054 1.721135 37.000000 17 360.438726
-0.144052 -0.114146 3.009369 97.000000 30 360.438734
-0.251913 -0.209419 3.007517 97.000000 29 360.438736
-0.544299 -0.485204 2.842938 74.000000 26 360.438739
-0.428045 -0.389932 1.628805 48.000000 24 360.438741
-0.799624 -0.728648 2.299679 75.000000 22 360.438744
-1.074827 -0.979751 2.449066 33.000000 20 360.438747
-1.033275 -0.941871 1.925450 38.000000 18 360.438749
-0.997879 -0.909922 1.542285 39.000000 16 360.438752
-0.986331 -0.903817 1.394457 39.000000 15 360.438709
-0.963735 -0.883108 1.136012 39.000000 13 360.438712
-0.945119 -0.865745 0.924934 40.000000 11 360.438714
-0.938636 -0.859803 0.752590 40.000000 9 360.438717
-0.923601 -0.846031 0.594370 40.000000 7 360.438720
-0.909534 -0.832854 0.452206 34.000000 5 360.438722
-0.894980 -0.819240 0.321829 13.000000 3 360.438725
-0.881609 -0.806718 0.200022 11.000000 1 360.438727
-0.975895 -0.891437 1.257967 40.000000 14 360.438735
-0.953931 -0.871371 1.024309 42.000000 12 360.438738
-0.943536 -0.861876 0.836271 44.000000 10 360.438740
-0.935739 -0.854750 0.673332 49.000000 8 360.438743
-0.924554 -0.844237 0.524653 39.000000 6 360.438745
-0.901179 -0.822605 0.385005 26.000000 4 360.438748
-0.892489 -0.814387 0.260516 9.000000 2 360.438750
-0.907803 -0.828071 0.143242 26.000000 0 360.438753
-0.033721 -0.021525 3.029158 95.000000 31 360.438764
-0.354285 -0.306542 2.978796 96.000000 28 360.438766
-0.464381 -0.400810 2.972663 90.000000 27 360.438769
-0.472157 -0.423933 2.074535 21.000000 25 360.438771
-0.742867 -0.674328 2.423147 36.000000 23 360.438774
-1.101698 -1.000382 2.793297 27.000000 21 360.438776
-1.056724 -0.959541 2.169010 36.000000 19 360.438779
-1.019614 -0.925841 1.724972 38.000000 17 360.438781
-0.144450 -0.113643 3.009369 97.000000 30 360.438789
-0.252643 -0.208538 3.007517 97.000000 29 360.438792
-0.545989 -0.483301 2.842938 74.000000 26 360.438794
-0.429404 -0.388436 1.628805 48.000000 24 360.438797
-0.802036 -0.725992 2.299679 74.000000 22 360.438799
-1.080003 -0.977932 2.453331 33.000000 20 360.438802
-1.038626 -0.940462 1.929439 38.000000 18 360.438805
-1.003562 -0.908709 1.545960 39.000000 16 360.438807
-0.991961 -0.902942 1.397961 38.000000 15 360.438765
-0.966659 -0.879907 1.136012 39.000000 13 360.438767
-0.951077 -0.865420 0.927676 40.000000 11 360.438770
-0.941482 -0.856686 0.752590 42.000000 9 360.438773
-0.929978 -0.845922 0.596243 40.000000 7 360.438775
-0.915985 -0.832901 0.453615 34.000000 5 360.438778
-0.897692 -0.816268 0.321829 13.000000 3 360.438780
-0.884280 -0.803790 0.200022 13.000000 1 360.438783
-0.978846 -0.888196 1.257967 40.000000 14 360.438791
-0.959809 -0.870919 1.027252 40.000000 12 360.438793
-0.946539 -0.858577 0.836271 44.000000 10 360.438796
-0.942079 -0.854528 0.675431 47.000000 8 360.438798
-0.927495 -0.841005 0.524653 39.000000 6 360.438801
-0.904045 -0.819454 0.385005 26.000000 4 360.438803
-0.898997 -0.814592 0.261205 9.000000 2 360.438806
-0.910688 -0.824897 0.143242 27.000000 0 360.438808
-0.033796 -0.021407 3.029158 97.000000 31 360.438819
-0.355352 -0.305304 2.978796 95.000000 28 360.438822
-0.465777 -0.399187 2.972663 90.000000 27 360.438824
-0.474749 -0.423276 2.079307 21.000000 25 360.438827
-0.746668 -0.673039 2.427750 36.000000 23 360.438829
-1.106963 -0.998135 2.797685 27.000000 21 360.438832
-1.062157 -0.957731 2.173143 36.000000 19 360.438834
-1.025220 -0.924423 1.728809 37.000000 17 360.438837
-0.144846 -0.113138 3.009369 97.000000 30 360.438845
-0.253369 -0.207655 3.007517 97.000000 29 360.438847
-0.547673 -0.481392 2.842938 74.000000 26 360.438850
-0.432041 -0.388088 1.633497 50.000000 24 360.438852
-0.804692 -0.723047 2.299679 72.000000 22 360.438855
-1.085520 -0.975710 2.457597 33.000000 20 360.438858
-1.042067 -0.936649 1.929439 38.000000 18 360.438860
-1.006886 -0.905024 1.545960 38.000000 16 360.438863
-0.997752 -0.901865 1.401466 38.000000 15 360.438820
-0.972612 -0.879138 1.139150 39.000000 13 360.438823
-0.954092 -0.862095 0.927676 40.000000 11 360.438825
-0.947753 -0.856364 0.754908 42.000000 9 360.438828
-0.936365 -0.845778 0.598116 40.000000 7 360.438831
-0.918886 -0.829699 0.453615 34.000000 5 360.438833
-0.904324 -0.816264 0.322762 13.000000 3 360.438836
-0.890917 -0.803880 0.200468 13.000000 1 360.438838
-0.984869 -0.887102 1.261292 40.000000 14 360.438846
-0.962995 -0.867396 1.027252 40.000000 12 360.438849
-0.952883 -0.857987 0.838803 45.000000 10 360.438851
-0.945204 -0.851069 0.675431 47.000000 8 360.438854
-0.934082 -0.840759 0.526296 39.000000 6 360.438856
-0.910656 -0.819386 0.386177 27.000000 4 360.438859
-0.905658 -0.814603 0.261895 9.000000 2 360.438861
-0.913562 -0.821713 0.143242 27.000000 0 360.438864
-0.033835 -0.021264 3.024158 97.000000 31 360.438875
-0.356469 -0.303999 2.978796 95.000000 28 360.438877
-0.467237 -0.397477 2.972663 89.000000 27 360.438880
-0.477416 -0.422523 2.084079 20.000000 25 360.438882
-0.750586 -0.671600 2.432352 36.000000 23 360.438885
-1.112399 -0.995669 2.802074 26.000000 21 360.438887
-1.067757 -0.955709 2.177276 36.000000 19 360.438890
-1.030990 -0.922797 1.732646 38.000000 17 360.438893
-0.145259 -0.112606 3.009369 97.000000 30 360.438900
-0.253714 -0.206389 3.002545 96.000000 29 360.438903
-0.550382 -0.480208 2.847778 74.000000 26 360.438905
-0.434748 -0.387650 1.638190 50.000000 24 360.438908
-0.805586 -0.718784 2.295178 68.000000 22 360.438911
-1.090865 -0.973652 2.461863 33.000000 20 360.438913
-1.047578 -0.935013 1.933429 38.000000 18 360.438916
-1.012568 -0.903762 1.549635 39.000000 16 360.438918
-1.001051 -0.898202 1.401466 39.000000 15 360.438876
-0.978725 -0.878167 1.142288 39.000000 13 360.438878
-0.960358 -0.861384 0.930417 40.000000 11 360.438881
-0.954184 -0.855843 0.757226 42.000000 9 360.438884
-0.939459 -0.842340 0.598116 40.000000 7 360.438886
-0.925494 -0.829527 0.455024 34.000000 5 360.438889
-0.910826 -0.816381 0.323695 14.000000 3 360.438891
-0.893718 -0.800765 0.200468 13.000000 1 360.438894
-0.990743 -0.886148 1.264617 40.000000 14 360.438902
-0.969029 -0.866724 1.030195 40.000000 12 360.438904
-0.955872 -0.854655 0.838803 45.000000 10 360.438907
-0.951553 -0.850790 0.677529 47.000000 8 360.438909
-0.937011 -0.837494 0.526296 39.000000 6 360.438912
-0.913510 -0.816202 0.386177 27.000000 4 360.438914
-0.912190 -0.814736 0.262585 9.000000 2 360.438917
-0.916568 -0.818359 0.143242 27.000000 0 360.438919
-0.033909 -0.021145 3.024158 97.000000 31 360.438930
-0.357528 -0.302753 2.978796 97.000000 28 360.438933
-0.468621 -0.395843 2.972663 83.000000 27 360.438935
-0.480010 -0.421839 2.088850 20.000000 25 360.438938
-0.754386 -0.670274 2.436955 36.000000 23 360.438940
-1.117658 -0.993371 2.806463 27.000000 21 360.438943
-1.073190 -0.953845 2.181409 36.000000 19 360.438945
-1.036602 -0.921323 1.736482 38.000000 17 360.438948
-0.145651 -0.112098 3.009369 96.000000 30 360.438956
-0.254432 -0.205502 3.002545 97.000000 29 360.438958
-0.552055 -0.478284 2.847778 72.000000 26 360.438961
-0.437391 -0.387274 1.642883 46.000000 24 360.438963
-0.809720 -0.717412 2.299679 63.000000 22 360.438966
-1.096209 -0.971568 2.466129 33.000000 20 360.438969
-1.053091 -0.933350 1.937418 38.000000 18 360.438971
-1.018254 -0.902470 1.553310 39.000000 16 360.438974
-1.006843 -0.897074 1.404970 39.000000 15 360.438931
-0.981785 -0.874745 1.142288 38.000000 13 360.438934
-0.966482 -0.860808 0.933159 40.000000 11 360.438937
-0.957165 -0.852507 0.757226 42.000000 9 360.438939
-0.945856 -0.842138 0.599989 40.000000 7 360.438942
-0.928384 -0.826291 0.455024 34.000000 5 360.438944
-0.913670 -0.813196 0.323695 14.000000 3 360.438947
-0.900228 -0.800951 0.200914 13.000000 1 360.438949
-0.996622 -0.885164 1.267941 40.000000 14 360.438957
-0.972049 -0.863336 1.030195 40.000000 12 360.438960
-0.962074 -0.854176 0.841336 45.000000 10 360.438962
-0.954517 -0.847463 0.677529 45.000000 8 360.438965
-0.939928 -0.834218 0.526296 39.000000 6 360.438967
-0.916354 -0.813009 0.386177 27.000000 4 360.438970
-0.918733 -0.814833 0.263275 9.000000 2 360.438972
-0.919419 -0.815155 0.143242 27.000000 0 360.438975
-0.033983 -0.021027 3.024158 97.000000 31 360.438986
-0.358583 -0.301503 2.978796 96.000000 28 360.438988
-0.470000 -0.394205 2.972663 83.000000 27 360.438991
-0.482605 -0.421143 2.093622 20.000000 25 360.438993
-0.758186 -0.668929 2.441557 36.000000 23 360.438996
-1.122915 -0.991049 2.810851 26.000000 21 360.438998
-1.078623 -0.951955 2.185542 36.000000 19 360.439001
-1.042215 -0.919820 1.740319 38.000000 17 360.439004
-0.146042 -0.111589 3.009369 97.000000 30 360.439011
-0.255148 -0.204613 3.002545 97.000000 29 360.439014
-0.553721 -0.476354 2.847778 74.000000 26 360.439016
-0.438740 -0.385745 1.642883 46.000000 24 360.439019
-0.817124 -0.718896 2.313181 60.000000 22 360.439022
-1.101552 -0.969458 2.470395 33.000000 20 360.439024
-1.056343 -0.929668 1.937418 38.000000 18 360.439027
-1.023943 -0.901150 1.556985 39.000000 16 360.439029
-1.009968 -0.893555 1.404970 39.000000 15 360.438987
-0.987748 -0.873892 1.145425 39.000000 13 360.438989
-0.969481 -0.857429 0.933159 40.000000 11 360.438992
-0.963454 -0.852096 0.759544 42.000000 9 360.438995
-0.948790 -0.838832 0.599989 40.000000 7 360.438997
-0.934857 -0.826223 0.456433 34.000000 5 360.439000
-0.920184 -0.813255 0.324627 14.000000 3 360.439002
-0.903019 -0.797804 0.200914 13.000000 1 360.439005
-0.999706 -0.881680 1.267941 40.000000 14 360.439013
-0.978088 -0.862611 1.033138 40.000000 12 360.439015
-0.965050 -0.850812 0.841336 45.000000 10 360.439018
-0.960874 -0.847127 0.679627 47.000000 8 360.439020
-0.946378 -0.834054 0.527939 39.000000 6 360.439023
-0.922833 -0.813018 0.387349 28.000000 4 360.439025
-0.921572 -0.811621 0.263275 9.000000 2 360.439028
-0.922259 -0.811940 0.143242 27.000000 0 360.439031
-0.034056 -0.020908 3.024158 97.000000 31 360.439041
-0.359036 -0.299752 2.973857 96.000000 28 360.439044
-0.471373 -0.392562 2.972663 89.000000 27 360.439046
-0.485201 -0.420434 2.098394 19.000000 25 360.439049
-0.763455 -0.668853 2.450763 36.000000 23 360.439051
-1.129972 -0.990281 2.819628 26.000000 21 360.439054
-1.084056 -0.950039 2.189675 36.000000 19 360.439057
-1.045419 -0.916176 1.740319 38.000000 17 360.439059
-0.146431 -0.111079 3.009369 97.000000 30 360.439067
-0.255861 -0.203721 3.002545 96.000000 29 360.439069
-0.555380 -0.474419 2.847778 75.000000 26 360.439072
-0.441384 -0.385346 1.647576 44.000000 24 360.439075
-0.827829 -0.723203 2.335685 57.000000 22 360.439077
-1.106893 -0.967324 2.474661 33.000000 20 360.439080
-1.061851 -0.927958 1.941408 38.000000 18 360.439082
-1.029635 -0.899801 1.560661 38.000000 16 360.439085
-1.015760 -0.892377 1.408475 39.000000 15 360.439042
-0.990792 -0.870439 1.145425 39.000000 13 360.439045
-0.975609 -0.856799 0.935900 40.000000 11 360.439048
-0.966422 -0.848727 0.759544 42.000000 9 360.439050
-0.951712 -0.835515 0.599989 40.000000 7 360.439053
-0.937735 -0.822954 0.456433 34.000000 5 360.439055
-0.926709 -0.813278 0.325560 14.000000 3 360.439058
-0.905798 -0.794647 0.200914 13.000000 1 360.439060
-1.005587 -0.880645 1.271266 40.000000 14 360.439068
-0.981093 -0.859192 1.033138 42.000000 12 360.439071
-0.971257 -0.850278 0.843868 45.000000 10 360.439073
-0.963825 -0.843768 0.679627 47.000000 8 360.439076
-0.949283 -0.830745 0.527939 39.000000 6 360.439078
-0.925666 -0.809792 0.387349 28.000000 4 360.439081
-0.924399 -0.808399 0.263275 9.000000 2 360.439083
-0.928849 -0.812004 0.143444 27.000000 0 360.439086
-0.034129 -0.020789 3.024158 97.000000 31 360.439097
-0.360080 -0.298497 2.973857 96.000000 28 360.439099
-0.472741 -0.390914 2.972663 87.000000 27 360.439102
-0.487798 -0.419711 2.103165 19.000000 25 360.439104
-0.767260 -0.667466 2.455365 35.000000 23 360.439107
-1.135229 -0.987904 2.824017 26.000000 21 360.439109
-1.089488 -0.948097 2.193808 36.000000 19 360.439112
-1.051029 -0.914626 1.744156 37.000000 17 360.439115
-0.146817 -0.110567 3.009369 97.000000 30 360.439122
-0.256570 -0.202826 3.002545 96.000000 29 360.439125
-0.557033 -0.472477 2.847778 74.000000 26 360.439127
-0.442726 -0.383803 1.647576 44.000000 24 360.439130
-0.851734 -0.738860 2.394196 51.000000 22 360.439133
-1.112232 -0.965163 2.478927 33.000000 20 360.439135
-1.067360 -0.926222 1.945397 38.000000 18 360.439138
-1.035330 -0.898424 1.564336 38.000000 16 360.439140
-1.018869 -0.888826 1.408475 39.000000 15 360.439098
-0.996758 -0.869534 1.148563 39.000000 13 360.439101
-0.978594 -0.853388 0.935900 40.000000 11 360.439103
-0.972718 -0.848260 0.761862 42.000000 9 360.439106
-0.958117 -0.835234 0.601862 40.000000 7 360.439108
-0.944219 -0.822828 0.457842 35.000000 5 360.439111
-0.933246 -0.813266 0.326492 15.000000 3 360.439113
-0.908566 -0.791480 0.200914 13.000000 1 360.439116
-1.008655 -0.877130 1.271266 40.000000 14 360.439124
-0.987136 -0.858414 1.036081 40.000000 12 360.439126
-0.974220 -0.846883 0.843868 45.000000 10 360.439129
-0.970190 -0.843376 0.681725 45.000000 8 360.439131
-0.952177 -0.827427 0.527939 39.000000 6 360.439134
-0.928487 -0.806556 0.387349 28.000000 4 360.439136
-0.927215 -0.805167 0.263275 9.000000 2 360.439139
-0.931677 -0.808757 0.143444 27.000000 0 360.439142
-0.034201 -0.020670 3.024158 97.000000 31 360.439152
-0.361120 -0.297239 2.973857 97.000000 28 360.439155
-0.474103 -0.389262 2.972663 87.000000 27 360.439157
-0.490396 -0.418976 2.107937 20.000000 25 360.439160
-0.771063 -0.666061 2.459967 32.000000 23 360.439162
-1.140483 -0.985501 2.828406 26.000000 21 360.439165
-1.094920 -0.946128 2.197941 36.000000 19 360.439168
-1.056641 -0.913048 1.747993 37.000000 17 360.439170
-0.147202 -0.110054 3.009369 96.000000 30 360.439178
-0.257277 -0.201930 3.002545 96.000000 29 360.439180
-0.558679 -0.470530 2.847778 74.000000 26 360.439183
-0.445371 -0.383381 1.652268 42.000000 24 360.439186
-1.117570 -0.962977 2.483193 33.000000 20 360.439191
-1.070587 -0.922490 1.945397 38.000000 18 360.439193
-1.038460 -0.894804 1.564336 38.000000 16 360.439196
-1.024661 -0.887599 1.411979 39.000000 15 360.439153
-0.999787 -0.866050 1.148563 39.000000 13 360.439156
-0.984728 -0.852704 0.938642 40.000000 11 360.439159
-0.975673 -0.844860 0.761862 44.000000 9 360.439161
-0.961027 -0.831884 0.601862 40.000000 7 360.439164
-0.947085 -0.819527 0.457842 35.000000 5 360.439166
-0.939794 -0.813217 0.327425 15.000000 3 360.439169
-0.915090 -0.791562 0.201360 13.000000 1 360.439171
-1.014537 -0.876044 1.274591 40.000000 14 360.439179
-0.993186 -0.857605 1.039025 40.000000 12 360.439182
-0.980433 -0.846294 0.846401 45.000000 10 360.439184
-0.973128 -0.839985 0.681725 45.000000 8 360.439187
-0.958635 -0.827183 0.529581 39.000000 6 360.439189
-0.934977 -0.806485 0.388522 28.000000 4 360.439192
-0.930020 -0.801926 0.263275 9.000000 2 360.439195
-0.938279 -0.808762 0.143645 27.000000 0 360.439197
-0.034273 -0.020550 3.024158 97.000000 31 360.439208
-0.362155 -0.295976 2.973857 96.000000 28 360.439210
-0.475459 -0.387604 2.972663 87.000000 27 360.439213
-0.492994 -0.418228 2.112709 20.000000 25 360.439215
-0.773383 -0.663365 2.459967 32.000000 23 360.439218
-1.145734 -0.983074 2.832794 26.000000 21 360.439221
-1.100352 -0.944132 2.202074 36.000000 19 360.439223
-1.062255 -0.911442 1.751830 37.000000 17 360.439226
-0.147586 -0.109539 3.009369 97.000000 30 360.439233
-0.257980 -0.201030 3.002545 96.000000 29 360.439236
-0.560318 -0.468577 2.847778 72.000000 26 360.439239
-0.446707 -0.381824 1.652268 40.000000 24 360.439241
-1.098497 -0.939556 3.051318 37.000000 22 360.439244
-1.122907 -0.960766 2.487459 33.000000 20 360.439246
-1.076091 -0.920707 1.949387 37.000000 18 360.439249
-1.044153 -0.893378 1.568011 38.000000 16 360.439251
-1.027753 -0.884017 1.411979 38.000000 15 360.439209
-1.005756 -0.865093 1.151701 40.000000 13 360.439212
-0.987699 -0.849262 0.938642 40.000000 11 360.439214
-0.981975 -0.844337 0.764180 44.000000 9 360.439217
-0.967441 -0.831546 0.603735 40.000000 7 360.439219
-0.953579 -0.819342 0.459252 35.000000 5 360.439222
-0.946352 -0.813133 0.328358 14.000000 3 360.439224
-0.917847 -0.788363 0.201360 13.000000 1 360.439227
-1.020424 -0.874928 1.277916 40.000000 14 360.439235
-0.996174 -0.854133 1.039025 40.000000 12 360.439237
-0.983381 -0.842867 0.846401 44.000000 10 360.439240
-0.979500 -0.839536 0.683823 47.000000 8 360.439242
-0.961517 -0.823832 0.529581 39.000000 6 360.439245
-0.937787 -0.803216 0.388522 28.000000 4 360.439247
-0.932814 -0.798675 0.263275 9.000000 2 360.439250
-0.944892 -0.808730 0.143847 27.000000 0 360.439253
-0.034348 -0.020425 3.024158 97.000000 31 360.439263
-0.363238 -0.294647 2.973857 96.000000 28 360.439266
-0.476876 -0.385859 2.972663 87.000000 27 360.439268
-0.494524 -0.416418 2.112709 20.000000 25 360.439271
-0.795148 -0.676990 2.519800 34.000000 23 360.439273
-1.152977 -0.981975 2.841572 24.000000 21 360.439276
-1.105947 -0.941917 2.206207 36.000000 19 360.439278
-1.065589 -0.907542 1.751830 37.000000 17 360.439281
-0.147986 -0.108998 3.009369 97.000000 30 360.439289
-0.258715 -0.200083 3.002545 96.000000 29 360.439291
-0.562031 -0.466520 2.847778 72.000000 26 360.439294
-0.449419 -0.381300 1.656961 39.000000 24 360.439296
-1.113554 -0.945389 3.082824 39.000000 22 360.439299
-1.128409 -0.958332 2.491725 32.000000 20 360.439301
-1.081755 -0.918708 1.953376 37.000000 18 360.439304
-1.050004 -0.891739 1.571686 38.000000 16 360.439307
-1.033698 -0.882560 1.415484 39.000000 15 360.439264
-1.011880 -0.863929 1.154839 39.000000 13 360.439267
-0.993985 -0.848351 0.941383 40.000000 11 360.439269
-0.985064 -0.840733 0.764180 42.000000 9 360.439272
-0.970482 -0.827995 0.603735 40.000000 7 360.439275
-0.956575 -0.815842 0.459252 35.000000 5 360.439277
-0.953064 -0.812847 0.329290 14.000000 3 360.439280
-0.924520 -0.788224 0.201807 13.000000 1 360.439282
-1.023624 -0.871182 1.277916 40.000000 14 360.439290
-1.002376 -0.853095 1.041968 40.000000 12 360.439293
-0.989748 -0.842050 0.848933 45.000000 10 360.439295
-0.982570 -0.835940 0.683823 45.000000 8 360.439298
-0.968127 -0.823362 0.531224 39.000000 6 360.439300
-0.944427 -0.802922 0.389694 29.000000 4 360.439303
-0.939508 -0.798457 0.263965 9.000000 2 360.439305
-0.947850 -0.805262 0.143847 27.000000 0 360.439308
-0.034419 -0.020305 3.024158 96.000000 31 360.439319
-0.364264 -0.293377 2.973857 97.000000 28 360.439321
-0.478220 -0.384192 2.972663 87.000000 27 360.439324
-0.502850 -0.420436 2.141339 19.000000 25 360.439326
-0.843757 -0.713310 2.662478 31.000000 23 360.439329
-1.158227 -0.979492 2.845960 24.000000 21 360.439331
-1.111377 -0.939868 2.210340 36.000000 19 360.439334
-1.071198 -0.905887 1.755667 37.000000 17 360.439336
-0.148131 -0.108311 3.004378 97.000000 30 360.439344
-0.259412 -0.199179 3.002545 96.000000 29 360.439347
-0.563656 -0.464555 2.847778 74.000000 26 360.439349
-0.452067 -0.380841 1.661654 40.000000 24 360.439352
-1.115182 -0.940093 3.078323 39.000000 22 360.439354
-1.133741 -0.956069 2.495991 33.000000 20 360.439357
-1.084955 -0.914926 1.953376 37.000000 18 360.439360
-1.055702 -0.890254 1.575361 38.000000 16 360.439362
-1.039493 -0.881252 1.418988 38.000000 15 360.439320
-1.014890 -0.860391 1.154839 39.000000 13 360.439322
-1.000130 -0.847579 0.944124 40.000000 11 360.439325
-0.991372 -0.840153 0.766498 44.000000 9 360.439327
-0.973366 -0.824602 0.603735 40.000000 7 360.439330
-0.959417 -0.812498 0.459252 34.000000 5 360.439333
-0.959644 -0.812690 0.330223 15.000000 3 360.439335
-0.927266 -0.784992 0.201807 14.000000 1 360.439338
-1.029511 -0.870014 1.281241 40.000000 14 360.439345
-1.008435 -0.852200 1.044911 40.000000 12 360.439348
-0.992681 -0.838590 0.848933 45.000000 10 360.439351
-0.988949 -0.835434 0.685921 43.000000 8 360.439353
-0.970995 -0.819977 0.531224 39.000000 6 360.439356
-0.947224 -0.799620 0.389694 29.000000 4 360.439358
-0.942290 -0.795173 0.263965 9.000000 2 360.439361
-0.954474 -0.805169 0.144048 27.000000 0 360.439363
-0.034490 -0.020184 3.024158 97.000000 31 360.439374
-0.365286 -0.292104 2.973857 96.000000 28 360.439377
-0.479558 -0.382521 2.972663 87.000000 27 360.439379
-0.505464 -0.419632 2.146111 20.000000 25 360.439382
-0.947995 -0.795771 2.975450 33.000000 23 360.439384
-1.165309 -0.978524 2.854738 26.000000 21 360.439387
-1.116806 -0.937793 2.214473 36.000000 19 360.439389
-1.076809 -0.904204 1.759504 37.000000 17 360.439392
-0.148489 -0.107819 3.004378 97.000000 30 360.439400
-0.260071 -0.198318 3.002545 96.000000 29 360.439402
-0.565194 -0.462683 2.847778 74.000000 26 360.439405
-0.454651 -0.380447 1.666347 40.000000 24 360.439407
-1.116787 -0.934796 3.073822 39.000000 22 360.439410
-1.139071 -0.953780 2.500257 32.000000 20 360.439413
-1.090453 -0.913068 1.957366 37.000000 18 360.439415
-1.058648 -0.886748 1.575361 38.000000 16 360.439418
-1.042563 -0.877618 1.418988 38.000000 15 360.439375
-1.020865 -0.859350 1.157977 39.000000 13 360.439378
-1.003083 -0.844083 0.944124 40.000000 11 360.439380
-0.994299 -0.836688 0.766498 44.000000 9 360.439383
-0.979643 -0.824355 0.605608 40.000000 7 360.439386
-0.962106 -0.809312 0.459252 34.000000 5 360.439388
-0.962475 -0.809335 0.330223 15.000000 3 360.439391
-0.933813 -0.784955 0.202253 14.000000 1 360.439393
-1.032541 -0.866415 1.281241 40.000000 14 360.439401
-1.011403 -0.848675 1.044911 40.000000 12 360.439404
-0.998759 -0.838065 0.851465 45.000000 10 360.439406
-0.991714 -0.832150 0.685921 47.000000 8 360.439409
-0.977327 -0.819788 0.532867 39.000000 6 360.439411
-0.953595 -0.799598 0.390866 29.000000 4 360.439414
-0.944921 -0.792044 0.263965 9.000000 2 360.439416
-0.957138 -0.802000 0.144048 28.000000 0 360.439419
-0.034556 -0.020070 3.024158 97.000000 31 360.439430
-0.366253 -0.290891 2.973857 96.000000 28 360.439432
-0.481622 -0.381560 2.977559 85.000000 27 360.439435
-0.526444 -0.434104 2.227230 23.000000 25 360.439437
-0.983640 -0.820147 3.076706 39.000000 23 360.439440
-1.170387 -0.976189 2.859126 26.000000 21 360.439442
-1.122071 -0.935887 2.218606 36.000000 19 360.439445
-1.082263 -0.902682 1.763341 37.000000 17 360.439447
-0.148865 -0.107300 3.004378 97.000000 30 360.439455
-0.261188 -0.197730 3.007517 97.000000 29 360.439458
-0.566805 -0.460708 2.847778 72.000000 26 360.439460
-0.457304 -0.379961 1.671039 39.000000 24 360.439463
-1.121555 -0.932480 3.078323 39.000000 22 360.439465
-1.144232 -0.951665 2.504523 32.000000 20 360.439468
-1.095792 -0.911374 1.961355 37.000000 18 360.439471
-1.064344 -0.885215 1.579036 38.000000 16 360.439473
-1.048203 -0.876444 1.422493 38.000000 15 360.439431
-1.026695 -0.858457 1.161114 39.000000 13 360.439433
-1.009085 -0.843433 0.946866 40.000000 11 360.439436
-1.000467 -0.836227 0.768816 44.000000 9 360.439439
-0.982514 -0.820930 0.605608 40.000000 7 360.439441
-0.968608 -0.809024 0.460661 35.000000 5 360.439444
-0.968924 -0.809288 0.331156 15.000000 3 360.439446
-0.940233 -0.785046 0.202699 14.000000 1 360.439449
-1.038277 -0.865377 1.284566 39.000000 14 360.439457
-1.017317 -0.847904 1.047854 42.000000 12 360.439459
-1.001678 -0.834574 0.851465 45.000000 10 360.439462
-0.998100 -0.831589 0.688019 49.000000 8 360.439464
-0.980183 -0.816371 0.532867 39.000000 6 360.439467
-0.956381 -0.796264 0.390866 29.000000 4 360.439469
-0.951487 -0.791909 0.264655 9.000000 2 360.439472
-0.959932 -0.798654 0.144048 28.000000 0 360.439474
-0.034626 -0.019949 3.024158 97.000000 31 360.439485
-0.367266 -0.289611 2.973857 96.000000 28 360.439488
-0.482951 -0.379877 2.977559 85.000000 27 360.439490
-0.569564 -0.466319 2.399012 32.000000 25 360.439493
-0.991012 -0.820446 3.090513 40.000000 23 360.439495
-1.177478 -0.975153 2.867904 25.000000 21 360.439498
-1.127498 -0.933759 2.222739 36.000000 19 360.439500
-1.087877 -0.900943 1.767178 37.000000 17 360.439503
-0.149238 -0.106780 3.004378 97.000000 30 360.439511
-0.261877 -0.196817 3.007517 96.000000 29 360.439513
-0.568410 -0.458726 2.847778 72.000000 26 360.439516
-0.458627 -0.378362 1.671039 39.000000 24 360.439518
-1.124803 -0.928559 3.078323 39.000000 22 360.439521
-1.149558 -0.949325 2.508789 32.000000 20 360.439524
-1.101291 -0.909463 1.965345 37.000000 18 360.439526
-1.070041 -0.883653 1.582712 39.000000 16 360.439529
-1.054000 -0.875058 1.425998 38.000000 15 360.439486
-1.029686 -0.854868 1.161114 39.000000 13 360.439489
-1.012023 -0.839906 0.946866 40.000000 11 360.439491
-1.003380 -0.832730 0.768816 45.000000 9 360.439494
-0.988942 -0.820455 0.607481 40.000000 7 360.439497
-0.971426 -0.805638 0.460661 35.000000 5 360.439499
-0.971743 -0.805901 0.331156 15.000000 3 360.439502
-0.942968 -0.781759 0.202699 14.000000 1 360.439504
-1.044169 -0.864129 1.287891 39.000000 14 360.439512
-1.020271 -0.844348 1.047854 40.000000 12 360.439515
-1.007907 -0.833820 0.853998 45.000000 10 360.439517
-1.000996 -0.828100 0.688019 47.000000 8 360.439520
-0.983027 -0.812945 0.532867 39.000000 6 360.439522
-0.962901 -0.796018 0.392039 29.000000 4 360.439525
-0.954245 -0.788583 0.264655 10.000000 2 360.439527
-0.966566 -0.798480 0.144250 28.000000 0 360.439530
-0.034696 -0.019828 3.024158 97.000000 31 360.439541
-0.368887 -0.288805 2.978796 96.000000 28 360.439543
-0.484274 -0.378188 2.977559 89.000000 27 360.439546
