# .PCD v.7 - Point Cloud Data file format
VERSION .7
FIELDS x y z intensity ring timestamp
SIZE 4 4 4 4 2 8
TYPE F F F F U D
COUNT 1 1 1 1 1 1
WIDTH 927
HEIGHT 1
VIEWPOINT 0 0 0 1 0 0 0
POINTS 927
DATA ascii
-3.599207 0.192396 4.845763 9.000000 18 361.751075
-3.280748 0.166762 3.307939 6.000000 15 361.751035
-4.396307 0.223471 3.630545 6.000000 13 361.751038
-4.098840 0.209068 2.775424 8.000000 11 361.751040
-2.987946 0.152406 1.651984 75.000000 9 361.751043
-2.695399 0.137955 1.178756 25.000000 7 361.751045
-2.688085 0.138051 0.880601 33.000000 5 361.751048
-0.672086 0.034514 0.219241 42.000000 3 361.751050
-0.616498 0.031767 0.148261 108.000000 1 361.751053
-4.172806 0.218680 3.801476 89.000000 14 361.751061
-4.317582 0.226270 3.231679 9.000000 12 361.751063
-2.946616 0.154936 1.818852 83.000000 10 361.751066
-2.974275 0.156393 1.464298 86.000000 8 361.751068
-2.688623 0.141843 1.025672 71.000000 6 361.751071
-3.446367 0.182423 0.923098 3.000000 4 361.751073
-0.627916 0.033345 0.179807 82.000000 2 361.751076
-0.618361 0.032945 0.118655 127.000000 0 361.751079
-0.039290 0.009007 3.064157 29.000000 31 361.751089
-0.515034 0.041047 3.285031 9.000000 28 361.751092
-0.698713 0.056549 3.393653 7.000000 27 361.751094
-1.158103 0.070930 3.754181 80.000000 25 361.751097
-1.801484 0.100383 4.310183 92.000000 23 361.751099
-2.959265 0.164400 4.425601 55.000000 19 361.751105
-4.185575 0.232534 5.093810 38.000000 17 361.751107
-0.185779 0.023580 3.069268 4.000000 30 361.751115
-0.354009 0.036539 3.271002 7.000000 29 361.751117
-0.954605 0.065225 3.718835 29.000000 26 361.751120
-1.532518 0.088073 4.228597 82.000000 24 361.751123
-3.645589 0.208270 7.610662 45.000000 22 361.751125
-2.832025 0.161297 4.710011 21.000000 20 361.751128
-3.676750 0.209414 4.949490 8.000000 18 361.751130
-3.265902 0.177439 3.293921 33.000000 15 361.751090
-4.418822 0.240083 3.649372 6.000000 13 361.751093
-4.148189 0.226105 2.808321 8.000000 11 361.751096
-2.982972 0.162594 1.649666 75.000000 9 361.751098
-2.694901 0.147363 1.178756 25.000000 7 361.751101
-2.687587 0.147434 0.880601 33.000000 5 361.751103
-0.667057 0.036591 0.218308 51.000000 3 361.751106
-0.621356 0.034193 0.148708 109.000000 1 361.751108
-4.168289 0.233036 3.798151 81.000000 14 361.751116
-4.470123 0.249914 3.343519 12.000000 12 361.751119
-2.946057 0.165221 1.818852 84.000000 10 361.751121
-2.969180 0.166520 1.462200 86.000000 8 361.751124
-2.678682 0.150697 1.022387 65.000000 6 361.751126
-3.503944 0.197739 0.937166 2.000000 4 361.751129
-0.632740 0.035816 0.180497 96.000000 2 361.751132
-0.618243 0.035104 0.118655 128.000000 0 361.751134
-0.039217 0.009130 3.059157 29.000000 31 361.751145
-0.515662 0.042909 3.289970 10.000000 28 361.751147
-0.698511 0.058987 3.393653 7.000000 27 361.751150
-1.159339 0.075069 3.758953 80.000000 25 361.751152
-1.803073 0.106786 4.314785 89.000000 23 361.751155
-3.941696 0.232784 7.300452 14.000000 21 361.751158
-2.939009 0.173567 4.396670 43.000000 19 361.751160
-4.187939 0.247332 5.097647 34.000000 17 361.751163
-0.186269 0.024306 3.079252 4.000000 30 361.751170
-0.353879 0.037775 3.271002 7.000000 29 361.751173
-0.954372 0.068557 3.718835 35.000000 26 361.751176
-1.533924 0.093527 4.233290 82.000000 24 361.751178
-3.647014 0.221126 7.615163 64.000000 22 361.751181
-4.375186 0.264519 7.239710 18.000000 20 361.751183
-3.724132 0.225158 5.013321 8.000000 18 361.751186
-3.265262 0.188838 3.293921 37.000000 15 361.751146
-4.507343 0.260676 3.721540 7.000000 13 361.751149
-4.197467 0.243489 2.841219 8.000000 11 361.751151
-2.973541 0.172492 1.645030 75.000000 9 361.751154
-2.712883 0.157846 1.186248 28.000000 7 361.751156
-2.696635 0.157373 0.883420 32.000000 5 361.751159
-0.666925 0.038919 0.218308 53.000000 3 361.751161
-0.621233 0.036361 0.148708 106.000000 1 361.751164
-4.163722 0.247363 3.794826 69.000000 14 361.751172
-4.440979 0.263838 3.322917 8.000000 12 361.751174
-2.941159 0.175247 1.816320 83.000000 10 361.751177
-2.964050 0.176614 1.460102 86.000000 8 361.751179
-2.682853 0.160328 1.024030 66.000000 6 361.751182
-3.566307 0.213749 0.952406 4.000000 4 361.751184
-0.632612 0.038025 0.180497 102.000000 2 361.751187
-0.618116 0.037262 0.118655 129.000000 0 361.751190
-0.039183 0.009274 3.059157 29.000000 31 361.751201
-0.517049 0.044935 3.299848 9.000000 28 361.751204
-0.699304 0.061637 3.398548 7.000000 27 361.751206
-1.159056 0.079317 3.758953 80.000000 25 361.751209
-1.802669 0.113394 4.314785 85.000000 23 361.751211
-3.924079 0.246179 7.269731 39.000000 21 361.751214
-2.884991 0.180990 4.318144 34.000000 19 361.751216
-4.190203 0.262881 5.101483 34.000000 17 361.751219
-0.186179 0.024989 3.079252 5.000000 30 361.751227
-0.353208 0.039012 3.266030 7.000000 29 361.751229
-0.952860 0.071959 3.713995 39.000000 26 361.751232
-1.533571 0.099148 4.233290 82.000000 24 361.751234
-3.652699 0.234911 7.628666 79.000000 22 361.751237
-4.353365 0.279218 7.205583 23.000000 20 361.751239
-3.756367 0.240928 5.057206 6.000000 18 361.751242
-3.106949 0.199276 3.453370 3.000000 16 361.751245
-3.275227 0.201461 3.304434 65.000000 15 361.751202
-4.552984 0.280063 3.759194 7.000000 13 361.751205
-4.250802 0.262219 2.876858 8.000000 11 361.751207
-2.968467 0.183117 1.642712 75.000000 9 361.751210
-2.724768 0.169038 0.891875 30.000000 5 361.751215
-0.666778 0.041363 0.218308 66.000000 3 361.751218
-0.626066 0.038947 0.149154 105.000000 1 361.751220
-4.159060 0.262387 3.791501 40.000000 14 361.751228
-4.464186 0.281640 3.340576 8.000000 12 361.751231
-2.940497 0.186026 1.816320 82.000000 10 361.751233
-2.958853 0.187190 1.458004 85.000000 8 361.751236
-2.682248 0.170160 1.024030 59.000000 6 361.751238
-3.633411 0.231139 0.968819 2.000000 4 361.751241
-0.632468 0.040343 0.180497 88.000000 2 361.751243
-0.617975 0.039527 0.118655 129.000000 0 361.751246
-0.039151 0.009410 3.059157 29.000000 31 361.751257
-0.517663 0.046810 3.304788 8.000000 28 361.751259
-0.700099 0.064171 3.403444 7.000000 27 361.751262
-1.158772 0.083363 3.758953 78.000000 25 361.751264
-1.804212 0.119815 4.319387 83.000000 23 361.751267
-3.889728 0.257658 7.208290 25.000000 21 361.751269
-2.839417 0.188083 4.252017 35.000000 19 361.751272
-4.195658 0.277929 5.109157 37.000000 17 361.751274
-0.186090 0.025639 3.079252 4.000000 30 361.751282
-0.353070 0.040244 3.266030 7.000000 29 361.751285
-0.952603 0.075285 3.713995 53.000000 26 361.751287
-1.534937 0.104618 4.237983 82.000000 24 361.751290
-3.651856 0.247660 7.628666 78.000000 22 361.751292
-2.746881 0.185806 4.573501 10.000000 20 361.751295
-3.085940 0.208747 3.431319 6.000000 16 361.751300
-3.278063 0.213124 3.307939 80.000000 15 361.751258
-4.614133 0.299995 3.809399 7.000000 13 361.751260
-4.304104 0.280592 2.912497 8.000000 11 361.751263
-2.963389 0.193189 1.640394 75.000000 9 361.751265
-3.132654 0.204773 1.356694 34.000000 7 361.751268
-2.762458 0.181058 0.903148 28.000000 5 361.751271
-0.666629 0.043691 0.218308 73.000000 3 361.751273
-0.625926 0.041133 0.149154 106.000000 1 361.751276
-4.154393 0.276655 3.788177 33.000000 14 361.751283
-4.507540 0.300175 3.372951 7.000000 12 361.751286
-2.944131 0.196576 1.818852 81.000000 10 361.751289
-2.953654 0.197214 1.455906 85.000000 8 361.751291
-2.681638 0.179522 1.024030 54.000000 6 361.751294
-0.727605 0.048835 0.266601 17.000000 4 361.751296
-0.632323 0.042551 0.180497 80.000000 2 361.751299
-0.617834 0.041684 0.118655 129.000000 0 361.751301
-0.039076 0.009532 3.054157 28.000000 31 361.751312
-0.518270 0.048690 3.309727 7.000000 28 361.751315
-0.699871 0.066615 3.403444 7.000000 27 361.751317
-1.159964 0.087520 3.763725 78.000000 25 361.751320
-1.803783 0.126112 4.319387 78.000000 23 361.751322
-3.857736 0.269067 7.151237 19.000000 21 361.751325
-2.819092 0.196623 4.223086 36.000000 19 361.751327
-4.204257 0.293243 5.120668 50.000000 17 361.751330
-0.186286 0.026330 3.084243 4.000000 30 361.751338
-0.352927 0.041477 3.266030 7.000000 29 361.751340
-0.952334 0.078610 3.713995 65.000000 26 361.751343
-1.534563 0.109976 4.237983 83.000000 24 361.751345
-3.650970 0.260406 7.628666 80.000000 22 361.751348
-2.756622 0.196133 4.590565 24.000000 20 361.751351
-3.091956 0.219999 3.438669 9.000000 16 361.751356
-3.280856 0.224809 3.311443 70.000000 15 361.751313
-4.702384 0.322220 3.881567 8.000000 13 361.751316
-4.357329 0.299340 2.948136 8.000000 11 361.751318
-2.958277 0.203229 1.638076 75.000000 9 361.751321
-3.210544 0.221122 1.388536 59.000000 7 361.751324
-2.876671 0.198631 0.936969 26.000000 5 361.751326
-0.666473 0.046017 0.218308 75.000000 3 361.751329
-0.625779 0.043317 0.149154 105.000000 1 361.751331
-4.153402 0.291155 3.788177 33.000000 14 361.751339
-4.643556 0.325518 3.473018 6.000000 12 361.751342
-2.943427 0.206852 1.818852 79.000000 10 361.751344
-2.948420 0.207205 1.453808 86.000000 8 361.751347
-2.680994 0.188881 1.024030 55.000000 6 361.751349
-0.737127 0.052060 0.268945 17.000000 4 361.751352
-0.627231 0.044408 0.179807 77.000000 2 361.751354
-0.617684 0.043840 0.118655 128.000000 0 361.751357
-0.039043 0.009669 3.054157 29.000000 31 361.751368
-0.518097 0.050499 3.309727 7.000000 28 361.751370
-0.700647 0.069158 3.408339 7.000000 27 361.751373
-1.159651 0.091568 3.763725 78.000000 25 361.751375
-1.803331 0.132408 4.319387 78.000000 23 361.751378
-3.715801 0.272204 6.892306 22.000000 21 361.751380
-2.815582 0.206256 4.218953 36.000000 19 361.751383
-4.203207 0.307916 5.120668 62.000000 17 361.751385
-0.186193 0.026980 3.084243 5.000000 30 361.751393
-0.352780 0.042708 3.266030 7.000000 29 361.751396
-0.952054 0.081934 3.713995 72.000000 26 361.751398
-1.535890 0.115461 4.242676 83.000000 24 361.751401
-3.650038 0.273148 7.628666 80.000000 22 361.751403
-2.748118 0.205172 4.577767 17.000000 20 361.751406
-3.097931 0.231296 3.446020 11.000000 16 361.751411
-3.280052 0.236260 3.311443 39.000000 15 361.751369
-4.775004 0.343947 3.941185 8.000000 13 361.751371
-4.406305 0.318162 2.981034 7.000000 11 361.751374
-2.953130 0.213235 1.635758 75.000000 9 361.751377
-3.209753 0.232328 1.388536 57.000000 7 361.751379
-3.110412 0.225683 1.006020 31.000000 5 361.751382
-0.671207 0.048699 0.219241 74.000000 3 361.751384
-0.625624 0.045501 0.149154 105.000000 1 361.751387
-4.148636 0.305377 3.784852 40.000000 14 361.751395
-4.638361 0.341429 3.470075 6.000000 12 361.751397
-2.946986 0.217442 1.821385 75.000000 10 361.751400
-2.943152 0.217162 1.451710 85.000000 8 361.751402
-2.680319 0.198239 1.024030 50.000000 6 361.751405
-0.727246 0.053914 0.266601 16.000000 4 361.751407
-0.627072 0.046597 0.179807 76.000000 2 361.751410
-0.617528 0.045996 0.118655 129.000000 0 361.751412
-0.039050 0.009820 3.059157 29.000000 31 361.751423
-0.518691 0.052385 3.314666 8.000000 28 361.751426
-0.700401 0.071603 3.408339 7.000000 27 361.751428
-1.159325 0.095615 3.763725 80.000000 25 361.751431
-1.802858 0.138702 4.319387 78.000000 23 361.751433
-3.714829 0.285173 6.892306 24.000000 21 361.751436
-2.814845 0.216083 4.218953 27.000000 19 361.751438
-4.192517 0.321850 5.109157 72.000000 17 361.751441
-0.186670 0.027719 3.094226 5.000000 30 361.751449
-0.352629 0.043939 3.266030 7.000000 29 361.751451
-0.953015 0.085369 3.718835 81.000000 26 361.751454
-1.535478 0.120822 4.242676 83.000000 24 361.751456
-3.649063 0.285888 7.628666 81.000000 22 361.751459
-2.845192 0.222412 3.852377 13.000000 18 361.751464
-3.124143 0.244222 3.475421 14.000000 16 361.751467
-3.279207 0.247708 3.311443 35.000000 15 361.751424
-4.847528 0.366184 4.000803 8.000000 13 361.751427
-4.467710 0.338276 3.022156 6.000000 11 361.751429
-2.952368 0.223542 1.635758 75.000000 9 361.751432
-3.218168 0.244232 1.392282 60.000000 7 361.751435
-3.248326 0.247091 1.046886 46.000000 5 361.751437
-0.671033 0.051042 0.219241 52.000000 3 361.751440
-0.625461 0.047685 0.149154 105.000000 1 361.751442
-4.147545 0.319857 3.784852 66.000000 14 361.751450
-4.826552 0.372225 3.608403 14.000000 12 361.751453
-2.950508 0.228060 1.823917 70.000000 10 361.751455
-2.937851 0.227084 1.449612 85.000000 8 361.751458
-2.674902 0.207229 1.022387 36.000000 6 361.751460
-0.727054 0.056452 0.266601 15.000000 4 361.751463
-0.626906 0.048786 0.179807 77.000000 2 361.751465
-0.617363 0.048151 0.118655 127.000000 0 361.751468
-0.039016 0.009956 3.059157 29.000000 31 361.751479
-0.518505 0.054196 3.314666 7.000000 28 361.751481
-0.700147 0.074048 3.408339 7.000000 27 361.751484
-1.158984 0.099662 3.763725 80.000000 25 361.751486
-1.802363 0.144994 4.319387 70.000000 23 361.751489
-4.019485 0.322678 7.454055 17.000000 21 361.751491
-2.811268 0.225683 4.214820 10.000000 19 361.751494
-4.175391 0.335200 5.089972 74.000000 17 361.751497
-0.186858 0.028415 3.099218 5.000000 30 361.751504
-0.352473 0.045170 3.266030 7.000000 29 361.751507
-0.952711 0.088695 3.718835 82.000000 26 361.751509
-1.535047 0.126181 4.242676 83.000000 24 361.751512
-3.650213 0.298801 7.633167 79.000000 22 361.751515
-2.928574 0.239216 4.876382 4.000000 20 361.751517
-2.832383 0.231361 3.836419 33.000000 18 361.751520
-3.150303 0.257334 3.504823 26.000000 16 361.751522
-3.278322 0.259153 3.311443 14.000000 15 361.751480
-4.919955 0.388932 4.060421 7.000000 13 361.751482
-4.487343 0.355521 3.035863 6.000000 11 361.751485
-2.947154 0.233496 1.633440 77.000000 9 361.751488
-3.217295 0.255464 1.392282 59.000000 7 361.751490
-3.366998 0.267943 1.082116 68.000000 5 361.751493
-0.670851 0.053384 0.219241 36.000000 3 361.751495
-0.625291 0.049868 0.149154 106.000000 1 361.751498
-4.142681 0.334032 3.781527 83.000000 14 361.751506
-4.917889 0.396543 3.676096 13.000000 12 361.751508
-2.949694 0.238358 1.823917 70.000000 10 361.751511
-2.932517 0.236972 1.447514 83.000000 8 361.751513
-2.674163 0.216565 1.022387 35.000000 6 361.751516
-0.726852 0.058989 0.266601 15.000000 4 361.751518
-0.626732 0.050974 0.179807 75.000000 2 361.751521
-0.622171 0.050712 0.118857 127.000000 0 361.751523
-0.038981 0.010092 3.059157 29.000000 31 361.751534
-0.519085 0.056089 3.319605 7.000000 28 361.751537
-0.698872 0.076380 3.403444 8.000000 27 361.751539
-1.158629 0.103707 3.763725 80.000000 25 361.751542
-1.801846 0.151285 4.319387 57.000000 23 361.751544
-4.063694 0.340508 7.537439 19.000000 21 361.751547
-2.802051 0.234789 4.202421 4.000000 19 361.751549
-4.167805 0.349238 5.082299 68.000000 17 361.751552
-0.187901 0.029252 3.119184 5.000000 30 361.751560
-0.352843 0.046471 3.271002 7.000000 29 361.751562
-0.952396 0.092020 3.718835 84.000000 26 361.751565
-1.536316 0.131686 4.247368 81.000000 24 361.751567
-3.649148 0.311541 7.633167 77.000000 22 361.751570
-2.927722 0.249437 4.876382 4.000000 20 361.751573
-2.831558 0.241246 3.836419 37.000000 18 361.751575
-3.152763 0.268617 3.508498 31.000000 16 361.751578
-3.280952 0.270889 3.314948 4.000000 15 361.751535
-4.992281 0.412190 4.120039 8.000000 13 361.751538
-4.577754 0.378768 3.096175 8.000000 11 361.751541
-2.941905 0.243417 1.631122 77.000000 9 361.751543
-3.216384 0.266693 1.392282 57.000000 7 361.751546
-3.375605 0.280489 1.084935 71.000000 5 361.751548
-0.675556 0.056132 0.220174 36.000000 3 361.751551
-0.625113 0.052050 0.149154 108.000000 1 361.751553
-4.141490 0.348491 3.781527 86.000000 14 361.751561
-4.997030 0.420485 3.734960 12.000000 12 361.751564
-2.953140 0.249015 1.826450 69.000000 10 361.751566
-2.931672 0.247207 1.447514 81.000000 8 361.751569
-2.668685 0.225500 1.020744 32.000000 6 361.751571
-0.731485 0.061936 0.267773 16.000000 4 361.751574
-0.626550 0.053161 0.179807 77.000000 2 361.751576
-0.621990 0.052883 0.118857 127.000000 0 361.751579
-0.038986 0.010243 3.064157 29.000000 31 361.751590
-0.519658 0.057988 3.324545 7.000000 28 361.751592
-0.698601 0.078819 3.403444 8.000000 27 361.751595
-1.159747 0.107889 3.768497 79.000000 25 361.751597
-1.805199 0.157914 4.328592 43.000000 23 361.751600
-4.095894 0.357608 7.598881 24.000000 21 361.751602
-2.804018 0.244814 4.206554 4.000000 19 361.751605
-4.137817 0.361274 5.047766 49.000000 17 361.751608
-0.187512 0.029861 3.114193 5.000000 30 361.751615
-0.352678 0.047702 3.271002 7.000000 29 361.751618
-0.952069 0.095344 3.718835 89.000000 26 361.751620
-1.535847 0.137047 4.247368 84.000000 24 361.751623
-3.648038 0.324277 7.633167 75.000000 22 361.751626
-2.983985 0.264726 4.970233 4.000000 20 361.751628
-2.821692 0.250330 3.824451 39.000000 18 361.751631
-3.141676 0.278721 3.497473 39.000000 16 361.751633
-3.283539 0.282646 3.318453 3.000000 15 361.751591
-5.080018 0.437292 4.192207 9.000000 13 361.751593
-4.684719 0.404088 3.167454 10.000000 11 361.751596
-2.936624 0.253304 1.628804 76.000000 9 361.751599
-3.215434 0.277919 1.392282 57.000000 7 361.751601
-3.393723 0.293926 1.090571 84.000000 5 361.751604
-0.675356 0.058490 0.220174 33.000000 3 361.751606
-0.624927 0.054232 0.149154 108.000000 1 361.751609
-4.140248 0.362945 3.781527 85.000000 14 361.751617
-5.055930 0.443221 3.779107 12.000000 12 361.751619
-2.956547 0.259699 1.828982 76.000000 10 361.751622
-2.926270 0.257042 1.445416 79.000000 8 361.751624
-2.667881 0.234814 1.020744 32.000000 6 361.751627
-0.731264 0.064489 0.267773 16.000000 4 361.751629
-0.626361 0.055348 0.179807 78.000000 2 361.751632
-0.621802 0.055054 0.118857 127.000000 0 361.751635
-0.038950 0.010379 3.064157 29.000000 31 361.751645
-0.519452 0.059801 3.324545 6.000000 28 361.751648
-0.698322 0.081257 3.403444 8.000000 27 361.751650
-1.159363 0.111937 3.768497 78.000000 25 361.751653
-1.798800 0.163683 4.314785 35.000000 23 361.751655
-4.108936 0.373204 7.625213 47.000000 21 361.751658
-2.769516 0.251545 4.156959 11.000000 19 361.751661
-4.136531 0.375716 5.047766 49.000000 17 361.751663
-0.186550 0.030370 3.099218 5.000000 30 361.751671
-0.353038 0.049008 3.275973 8.000000 29 361.751673
-0.951730 0.098667 3.718835 91.000000 26 361.751676
-1.537078 0.142567 4.252061 83.000000 24 361.751679
-3.646884 0.337009 7.633167 75.000000 22 361.751681
-2.823802 0.260455 3.828440 39.000000 18 361.751686
-3.140684 0.289686 3.497473 66.000000 16 361.751689
-3.286085 0.294424 3.321957 3.000000 15 361.751646
-5.132743 0.459886 4.236136 9.000000 13 361.751649
-4.754079 0.426794 3.214058 10.000000 11 361.751652
-2.935722 0.263553 1.628804 76.000000 9 361.751654
-3.214444 0.289141 1.392282 56.000000 7 361.751657
-3.397454 0.306201 1.091981 86.000000 5 361.751659
-0.670255 0.060406 0.219241 30.000000 3 361.751662
-0.619774 0.055965 0.148708 107.000000 1 361.751664
-4.138956 0.377395 3.781527 86.000000 14 361.751672
-5.082530 0.463436 3.799709 12.000000 12 361.751675
-2.955623 0.270018 1.828982 82.000000 10 361.751677
-2.925355 0.267255 1.445416 74.000000 8 361.751680
-2.667045 0.244126 1.020744 35.000000 6 361.751682
-0.735875 0.067485 0.268945 13.000000 4 361.751685
-0.626164 0.057534 0.179807 77.000000 2 361.751687
-0.621606 0.057224 0.118857 127.000000 0 361.751690
-0.038914 0.010515 3.064157 29.000000 31 361.751701
-0.518469 0.061522 3.319605 6.000000 28 361.751703
-0.698034 0.083694 3.403444 7.000000 27 361.751706
-1.158965 0.115983 3.768497 80.000000 25 361.751708
-1.819613 0.171983 4.365413 27.000000 23 361.751711
-4.109993 0.387770 7.629601 87.000000 21 361.751713
-2.785431 0.262797 4.181756 25.000000 19 361.751716
-4.176686 0.394067 5.097647 66.000000 17 361.751719
-0.185873 0.030923 3.089235 5.000000 30 361.751726
-0.353922 0.050392 3.285916 7.000000 29 361.751729
-0.951380 0.101988 3.718835 93.000000 26 361.751731
-1.536571 0.147932 4.252061 83.000000 24 361.751734
-3.645685 0.349737 7.633167 76.000000 22 361.751737
-4.412544 0.422535 7.320763 23.000000 20 361.751739
-2.888881 0.276631 3.916209 37.000000 18 361.751742
-3.132904 0.300001 3.490122 78.000000 16 361.751744
-3.292139 0.306554 3.328966 5.000000 15 361.751702
-5.154362 0.479965 4.254963 9.000000 13 361.751705
-4.839991 0.451543 3.271629 10.000000 11 361.751707
-2.930373 0.273388 1.626486 75.000000 9 361.751710
-3.213415 0.300360 1.392282 56.000000 7 361.751712
-3.396364 0.318058 1.091981 85.000000 5 361.751715
-0.670040 0.062745 0.219241 30.000000 3 361.751717
-0.619575 0.058128 0.148708 99.000000 1 361.751720
-4.141331 0.392193 3.784852 88.000000 14 361.751728
-5.137217 0.486509 3.840913 12.000000 12 361.751730
-2.958954 0.280741 1.831514 89.000000 10 361.751733
-2.924404 0.277465 1.445416 66.000000 8 361.751735
-2.666177 0.253434 1.020744 40.000000 6 361.751738
-0.735635 0.070054 0.268945 11.000000 4 361.751740
-0.625959 0.059719 0.179807 78.000000 2 361.751743
-0.621402 0.059394 0.118857 124.000000 0 361.751746
-0.038877 0.010651 3.064157 23.000000 31 361.751756
-0.518251 0.063331 3.319605 6.000000 28 361.751759
-0.698748 0.086256 3.408339 7.000000 27 361.751761
-1.158553 0.120028 3.768497 81.000000 25 361.751764
-1.801502 0.176618 4.323990 13.000000 23 361.751766
-4.113384 0.402581 7.638379 89.000000 21 361.751769
-2.804101 0.274437 4.210687 26.000000 19 361.751772
-4.188048 0.409893 5.112994 61.000000 17 361.751774
-0.185193 0.031471 3.079252 5.000000 30 361.751782
-0.354272 0.051706 3.290887 7.000000 29 361.751784
-0.949768 0.105170 3.713995 94.000000 26 361.751787
-1.537762 0.153466 4.256754 83.000000 24 361.751790
-3.644442 0.362461 7.633167 75.000000 22 361.751792
-4.408446 0.437677 7.316497 52.000000 20 361.751795
-2.917890 0.289691 3.956104 34.000000 18 361.751797
-3.135211 0.311270 3.493797 74.000000 16 361.751800
-3.294599 0.318387 3.332471 10.000000 15 361.751757
-5.222403 0.504695 4.311443 28.000000 13 361.751760
-4.921624 0.476494 3.326459 10.000000 11 361.751763
-2.924992 0.283188 1.624168 75.000000 9 361.751765
-3.216962 0.312022 1.394155 55.000000 7 361.751768
-3.395233 0.329912 1.091981 86.000000 5 361.751770
-0.664928 0.064608 0.218308 30.000000 3 361.751773
-0.619369 0.060291 0.148708 100.000000 1 361.751775
-4.139937 0.406646 3.784852 88.000000 14 361.751783
-5.135488 0.504439 3.840913 12.000000 12 361.751786
-2.957956 0.291067 1.831514 93.000000 10 361.751788
-2.923418 0.287671 1.445416 61.000000 8 361.751791
-2.665276 0.262739 1.020744 43.000000 6 361.751793
-0.625747 0.061904 0.179807 81.000000 2 361.751799
-0.616220 0.061070 0.118655 124.000000 0 361.751801
-0.038798 0.010771 3.059157 23.000000 31 361.751812
-0.517256 0.065042 3.314666 5.000000 28 361.751814
-0.698443 0.088694 3.408339 7.000000 27 361.751817
-1.159612 0.124230 3.773268 81.000000 25 361.751819
-1.808650 0.183695 4.342400 6.000000 23 361.751822
-4.114337 0.417178 7.642767 77.000000 21 361.751825
-2.833922 0.287347 4.256150 17.000000 19 361.751827
-4.205729 0.426450 5.136016 49.000000 17 361.751830
-0.185082 0.032117 3.079252 5.000000 30 361.751837
-0.354618 0.053022 3.295859 7.000000 29 361.751840
-0.949395 0.108485 3.713995 94.000000 26 361.751843
-1.537217 0.158833 4.256754 83.000000 24 361.751845
-3.643155 0.375180 7.633167 74.000000 22 361.751848
-4.388731 0.451196 7.286635 35.000000 20 361.751850
-2.994813 0.307889 4.059831 26.000000 18 361.751853
-3.130733 0.321865 3.490122 44.000000 16 361.751855
-3.297016 0.330241 3.335975 11.000000 15 361.751813
-5.193495 0.520206 4.289479 54.000000 13 361.751816
-5.011462 0.502856 3.386771 10.000000 11 361.751818
-2.919577 0.292954 1.621850 75.000000 9 361.751821
-3.215853 0.323250 1.394155 55.000000 7 361.751823
-3.394061 0.341761 1.091981 87.000000 5 361.751826
-0.664698 0.066929 0.218308 32.000000 3 361.751828
-0.619154 0.062452 0.148708 105.000000 1 361.751831
-4.138492 0.421095 3.784852 84.000000 14 361.751839
-5.101525 0.519088 3.817368 17.000000 12 361.751841
-2.956923 0.301391 1.831514 93.000000 10 361.751844
-2.926911 0.298334 1.447514 61.000000 8 361.751846
-2.669041 0.272521 1.022387 43.000000 6 361.751849
-3.520317 0.360061 0.944200 10.000000 4 361.751851
-0.625527 0.064088 0.179807 85.000000 2 361.751854
-0.616003 0.063220 0.118655 126.000000 0 361.751857
-0.038761 0.010906 3.059157 29.000000 31 361.751867
-0.515485 0.066647 3.304788 5.000000 28 361.751870
-0.699139 0.091264 3.413234 7.000000 27 361.751872
-1.159171 0.128277 3.773268 80.000000 25 361.751875
-4.117621 0.432037 7.651544 72.000000 21 361.751880
-2.855291 0.299586 4.289213 16.000000 19 361.751882
-4.226534 0.443470 5.162875 41.000000 17 361.751885
-0.184969 0.032763 3.079252 5.000000 30 361.751893
-0.355485 0.054423 3.305801 7.000000 29 361.751895
-0.949011 0.111798 3.713995 94.000000 26 361.751898
-1.536653 0.164198 4.256754 83.000000 24 361.751900
-3.641823 0.387895 7.633167 71.000000 22 361.751903
-4.350821 0.462652 7.226912 29.000000 20 361.751905
-2.960752 0.314835 4.015947 21.000000 18 361.751908
-3.122849 0.332075 3.482772 10.000000 16 361.751911
-3.299390 0.342115 3.339480 11.000000 15 361.751868
-5.168414 0.535922 4.270652 78.000000 13 361.751871
-5.105335 0.530282 3.449825 10.000000 11 361.751873
-2.914130 0.302686 1.619532 77.000000 9 361.751876
-3.219316 0.334953 1.396028 56.000000 7 361.751879
-3.392848 0.353607 1.091981 84.000000 5 361.751881
-0.659575 0.068740 0.217376 34.000000 3 361.751884
-0.618933 0.064613 0.148708 106.000000 1 361.751886
-4.133283 0.435147 3.781527 79.000000 14 361.751894
-5.007227 0.527159 3.749676 22.000000 12 361.751897
-2.951565 0.311258 1.828982 93.000000 10 361.751899
-2.925852 0.308549 1.447514 61.000000 8 361.751902
-2.663377 0.281340 1.020744 54.000000 6 361.751904
-3.504538 0.370813 0.940683 15.000000 4 361.751907
-0.625299 0.066271 0.179807 82.000000 2 361.751909
-0.615778 0.065370 0.118655 127.000000 0 361.751912
-0.038722 0.011041 3.059157 29.000000 31 361.751923
-0.516789 0.068652 3.314666 5.000000 28 361.751925
-0.698816 0.093704 3.413234 8.000000 27 361.751928
-1.158717 0.132323 3.773268 79.000000 25 361.751930
-4.118469 0.446666 7.655933 70.000000 21 361.751935
-2.893395 0.313799 4.347075 24.000000 19 361.751938
-4.298266 0.466172 5.251124 37.000000 17 361.751940
-0.185138 0.033462 3.084243 6.000000 30 361.751948
-0.355821 0.055747 3.310773 7.000000 29 361.751951
-0.949863 0.115262 3.718835 94.000000 26 361.751953
-1.536071 0.169561 4.256754 83.000000 24 361.751956
-3.627459 0.399175 7.606163 46.000000 22 361.751958
-4.276592 0.469861 7.107466 28.000000 20 361.751961
-2.866761 0.314964 3.892272 22.000000 18 361.751964
-3.301721 0.354010 3.342984 10.000000 15 361.751924
-5.170383 0.554375 4.273790 73.000000 13 361.751926
-5.207391 0.559262 3.518361 10.000000 11 361.751929
-2.908651 0.312383 1.617213 77.000000 9 361.751931
-3.218127 0.346188 1.396028 56.000000 7 361.751934
-3.391593 0.365448 1.091981 78.000000 5 361.751937
-0.659331 0.071042 0.217376 36.000000 3 361.751939
-0.618703 0.066773 0.148708 106.000000 1 361.751942
-4.131739 0.449572 3.781527 77.000000 14 361.751949
-4.872754 0.530206 3.652551 15.000000 12 361.751952
-2.946174 0.321092 1.826450 93.000000 10 361.751955
-2.924757 0.318761 1.447514 63.000000 8 361.751957
-2.676462 0.292172 1.025672 64.000000 6 361.751960
-3.498390 0.382516 0.939511 16.000000 4 361.751962
-0.625064 0.068453 0.179807 78.000000 2 361.751965
-0.615546 0.067519 0.118655 128.000000 0 361.751967
-0.038684 0.011177 3.059157 29.000000 31 361.751978
-0.520395 0.070983 3.339362 6.000000 28 361.751981
-0.698484 0.096143 3.413234 7.000000 27 361.751983
-1.158248 0.136367 3.773268 81.000000 25 361.751986
-4.116885 0.461040 7.655933 70.000000 21 361.751991
-2.934230 0.328595 4.409069 38.000000 19 361.751993
-4.379449 0.490450 5.350885 38.000000 17 361.751996
-0.185020 0.034108 3.084243 6.000000 30 361.752004
-0.359313 0.057588 3.345573 7.000000 29 361.752006
-0.949455 0.118577 3.718835 94.000000 26 361.752009
-1.537184 0.175117 4.261447 83.000000 24 361.752011
-3.623880 0.411590 7.601662 19.000000 22 361.752014
-4.168678 0.472737 6.932562 29.000000 20 361.752017
-2.787781 0.316139 3.788546 28.000000 18 361.752019
-3.300466 0.365533 3.342984 10.000000 15 361.751979
-5.160677 0.571562 4.267514 73.000000 13 361.751982
-5.288526 0.586657 3.573190 10.000000 11 361.751984
-2.903139 0.322046 1.614895 78.000000 9 361.751987
-3.221506 0.357932 1.397901 56.000000 7 361.751990
-3.385528 0.376754 1.090571 75.000000 5 361.751992
-0.659079 0.073343 0.217376 35.000000 3 361.751995
-0.618466 0.068932 0.148708 106.000000 1 361.751997
-4.133855 0.464409 3.784852 66.000000 14 361.752005
-4.806605 0.539991 3.605460 16.000000 12 361.752008
-2.940751 0.330892 1.823917 91.000000 10 361.752010
-2.928137 0.329476 1.449612 65.000000 8 361.752013
-2.689504 0.303100 1.030600 78.000000 6 361.752015
-3.487374 0.393635 0.937166 37.000000 4 361.752018
-0.624821 0.070635 0.179807 78.000000 2 361.752020
-0.615307 0.069668 0.118655 128.000000 0 361.752023
-0.038644 0.011311 3.059157 29.000000 31 361.752034
-0.523222 0.073233 3.359119 7.000000 28 361.752036
-0.698145 0.098580 3.413234 7.000000 27 361.752039
-1.157765 0.140409 3.773268 80.000000 25 361.752041
-4.581121 0.530033 10.924009 13.000000 23 361.752044
-4.117631 0.475682 7.660322 70.000000 21 361.752046
-2.941451 0.339804 4.421467 89.000000 19 361.752049
-4.438220 0.512724 5.423787 37.000000 17 361.752051
-0.184616 0.034698 3.079252 6.000000 30 361.752059
-0.359110 0.058842 3.345573 7.000000 29 361.752062
-0.949035 0.121890 3.718835 94.000000 26 361.752064
-1.536564 0.180481 4.261447 83.000000 24 361.752067
-4.205858 0.491829 6.996552 8.000000 20 361.752072
-2.792648 0.326568 3.796524 21.000000 18 361.752075
-3.288540 0.375837 3.332471 7.000000 15 361.752035
-5.154783 0.589131 4.264377 81.000000 13 361.752037
-5.386149 0.616526 3.638986 10.000000 11 361.752040
-2.897596 0.331674 1.612577 78.000000 9 361.752043
-3.220237 0.369175 1.397901 56.000000 7 361.752045
-3.384192 0.388569 1.090571 74.000000 5 361.752048
-0.658819 0.075643 0.217376 35.000000 3 361.752050
-0.618222 0.071091 0.148708 104.000000 1 361.752053
-4.132209 0.478836 3.784852 52.000000 14 361.752061
-4.985372 0.577704 3.737903 19.000000 12 361.752063
-2.935296 0.340659 1.821385 93.000000 10 361.752066
-2.926969 0.339695 1.449612 64.000000 8 361.752068
-2.796320 0.325027 1.068382 68.000000 6 361.752071
-3.490807 0.406367 0.938339 67.000000 4 361.752073
-0.624571 0.072815 0.179807 82.000000 2 361.752076
-0.615060 0.071815 0.118655 125.000000 0 361.752078
-0.038645 0.011463 3.064157 28.000000 31 361.752089
-0.526039 0.075502 3.378876 7.000000 28 361.752092
-0.698804 0.101163 3.418129 7.000000 27 361.752094
-1.157268 0.144449 3.773268 79.000000 25 361.752097
-4.585063 0.546715 10.937817 14.000000 23 361.752099
-4.115945 0.490053 7.660322 68.000000 21 361.752102
-2.862007 0.340754 4.305745 103.000000 19 361.752104
-4.366368 0.519875 5.339374 26.000000 17 361.752107
-0.184493 0.035343 3.079252 6.000000 30 361.752115
-0.364166 0.060987 3.395287 7.000000 29 361.752117
-0.948604 0.125202 3.718835 93.000000 26 361.752120
-1.535924 0.185844 4.261447 81.000000 24 361.752122
-3.280125 0.386479 3.325462 5.000000 15 361.752090
-5.148829 0.606665 4.261239 80.000000 13 361.752093
-5.462863 0.644634 3.691074 11.000000 11 361.752095
-2.896421 0.341786 1.612577 75.000000 9 361.752098
-3.218929 0.380413 1.397901 56.000000 7 361.752101
-3.382815 0.400380 1.090571 72.000000 5 361.752103
-0.658551 0.077942 0.217376 35.000000 3 361.752106
-0.613025 0.072662 0.148261 104.000000 1 361.752108
-4.134221 0.493700 3.788177 46.000000 14 361.752116
-4.983325 0.595102 3.737903 19.000000 12 361.752119
-2.929808 0.350391 1.818852 90.000000 10 361.752121
-2.930271 0.350449 1.451710 65.000000 8 361.752124
-2.931148 0.351072 1.116020 86.000000 6 361.752126
-3.489367 0.418550 0.938339 75.000000 4 361.752129
-0.624313 0.074995 0.179807 82.000000 2 361.752131
-0.614805 0.073962 0.118655 124.000000 0 361.752134
-0.038605 0.011598 3.064157 28.000000 31 361.752145
-0.531153 0.078134 3.413451 5.000000 28 361.752147
-0.698446 0.103602 3.418129 7.000000 27 361.752150
-1.158238 0.148678 3.778040 79.000000 25 361.752152
-4.581187 0.562478 10.933214 16.000000 23 361.752155
-4.116588 0.504709 7.664711 68.000000 21 361.752157
-2.832869 0.347318 4.264416 101.000000 19 361.752160
-3.336714 0.409095 4.100040 10.000000 17 361.752163
-0.184085 0.035929 3.074260 6.000000 30 361.752170
-0.368160 0.062987 3.435058 7.000000 29 361.752173
-0.948161 0.128513 3.718835 93.000000 26 361.752175
-1.536978 0.191417 4.266139 81.000000 24 361.752178
-3.615048 0.448979 7.592659 5.000000 22 361.752181
-2.972753 0.368685 4.039884 7.000000 18 361.752186
-3.136763 0.389029 3.504823 45.000000 16 361.752188
-3.264595 0.396208 3.311443 5.000000 15 361.752146
-5.142816 0.624165 4.258101 80.000000 13 361.752148
-5.360960 0.651590 3.625278 8.000000 11 361.752151
-2.890812 0.351360 1.610259 74.000000 9 361.752154
-3.222184 0.392207 1.399774 54.000000 7 361.752156
-3.381397 0.412186 1.090571 72.000000 5 361.752159
-0.658275 0.080240 0.217376 34.000000 3 361.752161
-0.612767 0.074802 0.148261 104.000000 1 361.752164
-4.136178 0.508584 3.791501 46.000000 14 361.752172
-4.945111 0.608054 3.711414 24.000000 12 361.752174
-2.924289 0.360088 1.816320 90.000000 10 361.752177
-2.929030 0.360675 1.451710 65.000000 8 361.752179
-3.075200 0.379219 1.166943 86.000000 6 361.752182
-3.492709 0.431323 0.939511 75.000000 4 361.752184
-0.624047 0.077174 0.179807 86.000000 2 361.752187
-0.614544 0.076107 0.118655 121.000000 0 361.752189
-0.038564 0.011732 3.064157 28.000000 31 361.752200
-0.530877 0.079987 3.413451 4.000000 28 361.752203
-0.699087 0.106193 3.423024 7.000000 27 361.752205
-1.157712 0.152720 3.778040 81.000000 25 361.752208
-4.583073 0.578956 10.942419 16.000000 23 361.752210
-4.114800 0.519075 7.664711 74.000000 21 361.752213
-2.837223 0.357909 4.272681 46.000000 19 361.752215
-3.351169 0.422747 4.119226 27.000000 17 361.752218
-0.183959 0.036572 3.074260 6.000000 30 361.752226
-0.372670 0.065107 3.479801 8.000000 29 361.752228
-0.948953 0.131995 3.723674 93.000000 26 361.752231
-1.536301 0.196781 4.266139 81.000000 24 361.752233
-3.611299 0.461319 7.588159 5.000000 22 361.752236
-2.992376 0.381729 4.067811 7.000000 18 361.752241
-3.138749 0.400405 3.508498 56.000000 16 361.752244
-3.259653 0.407159 3.307939 4.000000 15 361.752201
-5.132880 0.641148 4.251825 81.000000 13 361.752204
-5.267373 0.658882 3.564966 6.000000 11 361.752207
-2.885172 0.360899 1.607941 75.000000 9 361.752209
-3.220795 0.403452 1.399774 54.000000 7 361.752212
-3.379938 0.423987 1.090571 72.000000 5 361.752214
-0.657991 0.082538 0.217376 34.000000 3 361.752217
-0.612502 0.076940 0.148261 104.000000 1 361.752219
-4.134378 0.523019 3.791501 49.000000 14 361.752227
-4.958999 0.627341 3.723187 33.000000 12 361.752230
-2.918737 0.369752 1.813787 89.000000 10 361.752232
-2.927753 0.370897 1.451710 64.000000 8 361.752235
-3.162870 0.401244 1.198154 81.000000 6 361.752237
-3.491182 0.443513 0.939511 74.000000 4 361.752240
-0.623774 0.079352 0.179807 88.000000 2 361.752242
-0.609318 0.077621 0.118454 121.000000 0 361.752245
-0.038523 0.011867 3.064157 28.000000 31 361.752256
-0.527523 0.081364 3.393694 5.000000 28 361.752258
-0.698712 0.108632 3.423024 7.000000 27 361.752261
-1.158652 0.156961 3.782812 82.000000 25 361.752263
-4.581024 0.594950 10.942419 14.000000 23 361.752266
-4.112964 0.533435 7.664711 79.000000 21 361.752268
-2.835957 0.367810 4.272681 44.000000 19 361.752271
-3.336956 0.432792 4.103878 43.000000 17 361.752274
-0.183546 0.037154 3.069268 6.000000 30 361.752281
-0.376644 0.067166 3.519572 8.000000 29 361.752284
-0.948486 0.135307 3.723674 93.000000 26 361.752286
-1.535605 0.202143 4.266139 81.000000 24 361.752289
-3.618304 0.475056 7.606163 7.000000 22 361.752292
-3.041827 0.398834 4.135632 11.000000 18 361.752297
-3.140694 0.411800 3.512173 53.000000 16 361.752299
-3.265286 0.419444 3.314948 6.000000 15 361.752257
-5.130611 0.659062 4.251825 81.000000 13 361.752259
-4.883492 0.628184 3.312751 8.000000 11 361.752262
-2.879501 0.370403 1.605623 75.000000 9 361.752265
-3.219367 0.414692 1.399774 56.000000 7 361.752267
-3.378437 0.435782 1.090571 72.000000 5 361.752270
-0.657699 0.084834 0.217376 35.000000 3 361.752272
-0.612230 0.079078 0.148261 104.000000 1 361.752275
-4.132527 0.537447 3.791501 63.000000 14 361.752283
-4.964795 0.645690 3.729073 35.000000 12 361.752285
-2.917428 0.379938 1.813787 88.000000 10 361.752288
-2.930942 0.381701 1.453808 65.000000 8 361.752290
-3.166134 0.412892 1.199797 81.000000 6 361.752293
-3.489612 0.455696 0.939511 73.000000 4 361.752295
-0.623493 0.081528 0.179807 89.000000 2 361.752298
-0.609044 0.079747 0.118454 117.000000 0 361.752301
-0.038481 0.012001 3.064157 28.000000 31 361.752311
-0.525701 0.082961 3.383816 6.000000 28 361.752314
-0.698329 0.111070 3.423024 8.000000 27 361.752316
-1.158097 0.161005 3.782812 82.000000 25 361.752319
-4.113451 0.548105 7.669099 67.000000 21 361.752324
-2.829077 0.376964 4.264416 48.000000 19 361.752327
-3.306824 0.440627 4.069345 38.000000 17 361.752329
-0.183132 0.037735 3.064277 7.000000 30 361.752337
-0.381133 0.069349 3.564315 8.000000 29 361.752339
-0.948008 0.138617 3.723674 94.000000 26 361.752342
-1.536600 0.207733 4.270832 81.000000 24 361.752345
-3.627414 0.489138 7.628666 9.000000 22 361.752347
-3.043404 0.409851 4.139621 11.000000 18 361.752352
-3.135878 0.422308 3.508498 51.000000 16 361.752355
-3.281480 0.433173 3.332471 15.000000 15 361.752312
-5.116701 0.675438 4.242412 81.000000 13 361.752315
-4.914433 0.649610 3.334683 6.000000 11 361.752318
-2.873798 0.379871 1.603305 75.000000 9 361.752320
-3.222496 0.426536 1.401647 57.000000 7 361.752323
-3.372140 0.446942 1.089162 72.000000 5 361.752325
-0.657398 0.087129 0.217376 35.000000 3 361.752328
-0.611950 0.081214 0.148261 106.000000 1 361.752330
-4.130626 0.551869 3.791501 73.000000 14 361.752338
-4.942479 0.660340 3.714358 38.000000 12 361.752341
-2.911811 0.389548 1.811255 88.000000 10 361.752343
-2.929591 0.391929 1.453808 65.000000 8 361.752346
-3.192757 0.427704 1.209653 82.000000 6 361.752348
-3.488000 0.467875 0.939511 73.000000 4 361.752351
-0.623205 0.083704 0.179807 88.000000 2 361.752353
-0.608762 0.081872 0.118454 116.000000 0 361.752356
-0.038439 0.012135 3.064157 28.000000 31 361.752367
-0.523875 0.084547 3.373937 9.000000 28 361.752369
-0.698942 0.113671 3.427920 8.000000 27 361.752372
-1.157528 0.165046 3.782812 82.000000 25 361.752374
-4.111513 0.562461 7.669099 67.000000 21 361.752379
-2.824956 0.386456 4.260283 44.000000 19 361.752382
-0.182999 0.038374 3.064277 6.000000 30 361.752392
-0.385087 0.071466 3.604086 9.000000 29 361.752395
-0.947518 0.141925 3.723674 94.000000 26 361.752397
-1.535865 0.213096 4.270832 83.000000 24 361.752400
-3.627842 0.502096 7.633167 9.000000 22 361.752403
-3.062853 0.423361 4.167548 12.000000 18 361.752408
-3.134384 0.433251 3.508498 51.000000 16 361.752410
-3.301152 0.447499 3.353498 25.000000 15 361.752368
-5.106597 0.692249 4.236136 77.000000 13 361.752371
-5.011578 0.680259 3.400478 5.000000 11 361.752373
-2.868065 0.389304 1.600987 75.000000 9 361.752376
-3.220987 0.437782 1.401647 57.000000 7 361.752378
-3.370559 0.458710 1.089162 65.000000 5 361.752381
-0.657090 0.089423 0.217376 34.000000 3 361.752383
-0.611663 0.083350 0.148261 106.000000 1 361.752386
-4.124975 0.565777 3.788177 74.000000 14 361.752394
-4.924126 0.675392 3.702585 23.000000 12 361.752396
-2.906162 0.399123 1.808723 85.000000 10 361.752399
-2.932702 0.402771 1.455906 64.000000 8 361.752401
-3.261421 0.448496 1.234293 78.000000 6 361.752404
-3.486346 0.480047 0.939511 73.000000 4 361.752406
-0.622909 0.085879 0.179807 87.000000 2 361.752409
-0.603523 0.083314 0.118252 115.000000 0 361.752412
-0.038396 0.012270 3.064157 29.000000 31 361.752422
-0.524343 0.086502 3.378876 9.000000 28 361.752425
-0.698541 0.116111 3.427920 8.000000 27 361.752427
-1.158422 0.169302 3.787584 82.000000 25 361.752430
-10.047647 1.412084 23.962963 11.000000 23 361.752432
-4.114270 0.577475 7.677876 76.000000 21 361.752435
-2.820803 0.395923 4.256150 42.000000 19 361.752438
-3.043335 0.427161 3.754715 34.000000 17 361.752440
-0.182582 0.038950 3.059285 6.000000 30 361.752448
-0.391129 0.074013 3.663743 9.000000 29 361.752450
-0.947017 0.145232 3.723674 94.000000 26 361.752453
-1.536821 0.218699 4.275525 83.000000 24 361.752456
-3.617443 0.513532 7.615163 7.000000 22 361.752458
-3.106118 0.440397 4.227390 25.000000 18 361.752463
-3.132853 0.444190 3.508498 56.000000 16 361.752466
-3.292505 0.458037 3.346489 31.000000 15 361.752423
-5.057881 0.703633 4.198483 68.000000 13 361.752426
-2.862301 0.398702 1.598669 75.000000 9 361.752431
-3.224031 0.449663 1.403520 58.000000 7 361.752434
-3.368938 0.470473 1.089162 65.000000 5 361.752436
-0.651909 0.091037 0.216443 35.000000 3 361.752439
-0.611368 0.085484 0.148261 104.000000 1 361.752441
-4.119277 0.579652 3.784852 74.000000 14 361.752449
-4.873708 0.685817 3.667267 4.000000 12 361.752452
-2.900482 0.408664 1.806190 85.000000 10 361.752454
-2.931278 0.413005 1.455906 64.000000 8 361.752457
-3.264511 0.460538 1.235936 78.000000 6 361.752459
-3.489461 0.492894 0.940683 75.000000 4 361.752462
-0.622605 0.088053 0.179807 90.000000 2 361.752465
-0.603229 0.085420 0.118252 112.000000 0 361.752467
-0.038353 0.012403 3.064157 29.000000 31 361.752478
-0.524038 0.088332 3.378876 8.000000 28 361.752480
-0.699135 0.118719 3.432815 8.000000 27 361.752483
-1.157824 0.173345 3.787584 82.000000 25 361.752485
-10.040724 1.446869 23.958359 13.000000 23 361.752488
-4.102744 0.590468 7.660322 60.000000 21 361.752491
-2.819404 0.405767 4.256150 39.000000 19 361.752493
-3.010094 0.433214 3.716346 24.000000 17 361.752496
-0.182162 0.039524 3.054294 6.000000 30 361.752503
-0.392964 0.075786 3.683629 9.000000 29 361.752506
-0.946505 0.148536 3.723674 94.000000 26 361.752509
-1.536048 0.224062 4.275525 83.000000 24 361.752511
-3.164215 0.459907 4.307180 32.000000 18 361.752519
-3.131283 0.455123 3.508498 57.000000 16 361.752521
-3.290886 0.469527 3.346489 32.000000 15 361.752479
-5.640036 0.805704 3.819922 28.000000 11 361.752484
-2.856506 0.408064 1.596351 75.000000 9 361.752487
-3.222441 0.460914 1.403520 61.000000 7 361.752489
-3.367275 0.482230 1.089162 69.000000 5 361.752492
-0.651587 0.093312 0.216443 33.000000 3 361.752494
-0.611066 0.087618 0.148261 103.000000 1 361.752497
-4.113533 0.593494 3.781527 77.000000 14 361.752505
-4.871284 0.702825 3.667267 4.000000 12 361.752507
-2.890504 0.417553 1.801125 79.000000 10 361.752510
-2.934310 0.423884 1.458004 64.000000 8 361.752512
-3.262884 0.471930 1.235936 78.000000 6 361.752515
-3.482910 0.504375 0.939511 77.000000 4 361.752517
-0.622294 0.090226 0.179807 91.000000 2 361.752520
-0.602927 0.087525 0.118252 112.000000 0 361.752523
-0.038308 0.012544 3.064157 29.000000 31 361.752533
-0.524476 0.090385 3.383816 8.000000 28 361.752536
-0.698695 0.121281 3.432815 8.000000 27 361.752538
-1.157181 0.177587 3.787584 83.000000 25 361.752541
-10.016026 1.480803 23.912334 13.000000 23 361.752543
-4.093441 0.604451 7.647156 29.000000 21 361.752546
-2.817898 0.416098 4.256150 36.000000 19 361.752548
-3.030686 0.447522 3.743205 5.000000 17 361.752551
-0.181733 0.040127 3.049302 6.000000 30 361.752559
-0.395302 0.077746 3.708486 9.000000 29 361.752561
-0.945954 0.152005 3.723674 94.000000 26 361.752564
-1.536923 0.229946 4.280218 83.000000 24 361.752566
-5.155840 0.769607 10.837760 11.000000 22 361.752569
-3.234052 0.482168 4.402928 19.000000 18 361.752574
-3.129594 0.466596 3.508498 60.000000 16 361.752577
-3.285614 0.481069 3.342984 36.000000 15 361.752534
-4.625168 0.677207 3.850189 74.000000 13 361.752537
-5.649457 0.828190 3.828147 19.000000 11 361.752539
-2.854991 0.418531 1.596351 74.000000 9 361.752542
-3.239078 0.475415 1.411012 66.000000 7 361.752545
-3.365485 0.494568 1.089162 69.000000 5 361.752547
-0.651241 0.095700 0.216443 33.000000 3 361.752550
-0.610741 0.089857 0.148261 104.000000 1 361.752552
-4.107635 0.608020 3.778202 76.000000 14 361.752560
-4.984630 0.737839 3.752618 6.000000 12 361.752563
-2.884690 0.427512 1.798593 81.000000 10 361.752565
-2.932737 0.434635 1.458004 63.000000 8 361.752568
-3.261132 0.483886 1.235936 80.000000 6 361.752570
-0.621960 0.092506 0.179807 90.000000 2 361.752575
-0.602602 0.089734 0.118252 110.000000 0 361.752578
-0.038264 0.012678 3.064157 29.000000 31 361.752589
-0.524922 0.092350 3.388755 9.000000 28 361.752591
-0.698267 0.123719 3.432815 8.000000 27 361.752594
-1.156554 0.181625 3.787584 82.000000 25 361.752596
-9.999207 1.514002 23.884718 13.000000 23 361.752599
-4.105520 0.620886 7.673488 8.000000 21 361.752601
-2.819210 0.426352 4.260283 33.000000 19 361.752604
-0.181310 0.040696 3.044310 6.000000 30 361.752614
-0.395552 0.079231 3.713457 8.000000 29 361.752617
-0.945417 0.155306 3.723674 94.000000 26 361.752619
-1.536111 0.235309 4.280218 83.000000 24 361.752622
-5.157428 0.788258 10.846762 17.000000 22 361.752624
-3.238308 0.494364 4.410907 18.000000 18 361.752630
-3.127946 0.477518 3.508498 60.000000 16 361.752632
-3.283915 0.492535 3.342984 36.000000 15 361.752590
-4.584278 0.687574 3.818812 79.000000 13 361.752592
-5.663071 0.850389 3.839113 12.000000 11 361.752595
-2.849131 0.427837 1.594033 74.000000 9 361.752597
-3.264905 0.490854 1.422250 69.000000 7 361.752600
-3.368481 0.507027 1.090571 71.000000 5 361.752603
-0.646046 0.097241 0.215511 35.000000 3 361.752605
-0.610424 0.091988 0.148261 93.000000 1 361.752608
-4.101796 0.621795 3.774877 71.000000 14 361.752615
-5.097918 0.772803 3.837970 38.000000 12 361.752618
-2.874655 0.436285 1.793528 81.000000 10 361.752621
-2.931202 0.444870 1.458004 63.000000 8 361.752623
-3.259423 0.495267 1.235936 78.000000 6 361.752626
-0.621633 0.094676 0.179807 87.000000 2 361.752631
-0.597346 0.091084 0.118051 110.000000 0 361.752633
-0.038219 0.012811 3.064157 23.000000 31 361.752644
-0.525362 0.094320 3.393694 9.000000 28 361.752647
-0.697831 0.126156 3.432815 8.000000 27 361.752649
-1.157388 0.185898 3.792356 82.000000 25 361.752652
-9.991931 1.548597 23.880117 13.000000 23 361.752654
-2.820486 0.436621 4.264416 33.000000 19 361.752659
-0.181167 0.041329 3.044310 6.000000 30 361.752670
-0.394750 0.080503 3.708486 8.000000 29 361.752672
-0.944870 0.158605 3.723674 94.000000 26 361.752675
-1.535280 0.240670 4.280218 83.000000 24 361.752677
-5.152494 0.805919 10.842261 17.000000 22 361.752680
-3.233584 0.505199 4.406918 15.000000 18 361.752685
-3.132959 0.489480 3.515848 69.000000 16 361.752688
-3.278651 0.503453 3.339480 36.000000 15 361.752645
-4.574154 0.702390 3.812536 84.000000 13 361.752648
-5.713796 0.878411 3.874752 7.000000 11 361.752650
-2.843242 0.437106 1.591715 74.000000 9 361.752653
-3.313573 0.510005 1.442854 80.000000 7 361.752656
-3.366691 0.518782 1.090571 71.000000 5 361.752658
-0.645702 0.099496 0.215511 37.000000 3 361.752661
-0.610099 0.094119 0.148261 94.000000 1 361.752663
-4.099600 0.636109 3.774877 66.000000 14 361.752671
-5.047259 0.783156 3.802652 8.000000 12 361.752674
-2.873115 0.446317 1.793528 81.000000 10 361.752676
-2.929631 0.455099 1.458004 63.000000 8 361.752679
-3.257675 0.506641 1.235936 77.000000 6 361.752681
-3.069108 0.477863 0.839864 4.000000 4 361.752684
-0.621298 0.096846 0.179807 87.000000 2 361.752686
-0.597025 0.093169 0.118051 111.000000 0 361.752689
-0.038174 0.012944 3.064157 23.000000 31 361.752700
-0.525793 0.096294 3.398634 9.000000 28 361.752702
-0.697387 0.128591 3.432815 8.000000 27 361.752705
-1.156732 0.189937 3.792356 81.000000 25 361.752707
-9.978745 1.582243 23.861706 13.000000 23 361.752710
-2.821724 0.446904 4.268548 34.000000 19 361.752715
-0.181022 0.041961 3.044310 6.000000 30 361.752725
-0.394467 0.081881 3.708486 8.000000 29 361.752728
-0.944310 0.161902 3.723674 93.000000 26 361.752730
-1.534431 0.246027 4.280218 84.000000 24 361.752733
-5.151800 0.824244 10.846762 17.000000 22 361.752735
-3.237754 0.517435 4.414897 15.000000 18 361.752741
-3.131232 0.500413 3.515848 74.000000 16 361.752743
-3.276874 0.514895 3.339480 35.000000 15 361.752701
-4.571674 0.718353 3.812536 85.000000 13 361.752703
-2.837322 0.446340 1.589397 73.000000 9 361.752709
-3.398783 0.535272 1.478441 94.000000 7 361.752711
-3.364860 0.530531 1.090571 74.000000 5 361.752714
-0.645351 0.101749 0.215511 37.000000 3 361.752716
-0.609767 0.096248 0.148261 104.000000 1 361.752719
-4.101043 0.651001 3.778202 60.000000 14 361.752727
-2.875797 0.457020 1.796060 83.000000 10 361.752732
-2.932507 0.466035 1.460102 61.000000 8 361.752734
-3.255886 0.518009 1.235936 77.000000 6 361.752737
