# .PCD v.7 - Point Cloud Data file format
VERSION .7
FIELDS x y z intensity ring timestamp
SIZE 4 4 4 4 2 8
TYPE F F F F U D
COUNT 1 1 1 1 1 1
WIDTH 925
HEIGHT 1
VIEWPOINT 0 0 0 1 0 0 0
POINTS 925
DATA ascii
-0.719685 2.265981 0.542860 24.000000 3 361.570585
-0.733675 2.311429 0.310236 12.000000 1 361.570588
-0.957614 3.026086 2.907092 11.000000 14 361.570596
-0.980042 3.096965 2.448798 12.000000 12 361.570598
-1.001549 3.166852 2.036641 12.000000 10 361.570601
-0.588809 1.861789 0.990138 80.000000 8 361.570603
-0.596499 1.887248 0.777627 79.000000 6 361.570606
-0.708645 2.243429 0.658155 21.000000 4 361.570608
-0.727475 2.304441 0.428831 17.000000 2 361.570611
-0.739469 2.343861 0.192819 9.000000 0 361.570614
-0.006135 0.061142 5.494065 102.000000 31 361.570624
-0.146715 0.511585 3.383816 24.000000 28 361.570627
-0.183506 0.642731 3.237006 26.000000 27 361.570629
-0.349496 1.139234 3.854388 86.000000 25 361.570632
-0.495511 1.584014 3.969595 9.000000 23 361.570634
-0.577635 1.845442 3.609588 15.000000 21 361.570637
-0.530610 1.695208 2.681496 16.000000 19 361.570639
-0.601971 1.923209 2.488523 15.000000 17 361.570642
-0.051426 0.218061 3.703203 16.000000 30 361.570650
-0.098294 0.375817 3.574258 21.000000 29 361.570652
-0.228072 0.762450 3.099416 28.000000 26 361.570655
-0.421414 1.355427 3.914181 81.000000 24 361.570657
-0.553590 1.779499 3.915478 6.000000 22 361.570660
-0.512873 1.647617 2.892723 14.000000 20 361.570662
-0.538267 1.729206 2.472011 16.000000 18 361.570665
-0.685511 2.202250 2.578681 13.000000 16 361.570668
-0.696342 2.215228 2.361711 3.000000 15 361.570625
-0.963996 3.066717 2.673523 11.000000 13 361.570628
-0.981918 3.125640 2.232614 11.000000 11 361.570630
-1.006879 3.205103 1.844380 12.000000 9 361.570633
-0.586257 1.867313 0.879071 71.000000 7 361.570636
-1.038468 3.309698 1.108891 12.000000 5 361.570638
-0.709905 2.263916 0.541928 25.000000 3 361.570641
-0.723709 2.309350 0.309789 12.000000 1 361.570643
-0.943176 3.018882 2.897117 11.000000 14 361.570651
-0.966273 3.092820 2.442912 13.000000 12 361.570654
-0.987365 3.162271 2.031576 12.000000 10 361.570656
-0.580629 1.859602 0.988040 81.000000 8 361.570659
-0.588171 1.884914 0.775984 79.000000 6 361.570661
-0.697523 2.236731 0.655810 25.000000 4 361.570664
-0.716077 2.297636 0.427451 16.000000 2 361.570666
-0.729797 2.341659 0.192617 9.000000 0 361.570669
-0.005911 0.061164 5.494065 102.000000 31 361.570680
-0.145049 0.512867 3.388755 24.000000 28 361.570682
-0.181149 0.643400 3.237006 25.000000 27 361.570685
-0.345318 1.140507 3.854388 86.000000 25 361.570687
-0.489125 1.583953 3.964993 9.000000 23 361.570690
-0.569453 1.842969 3.600810 14.000000 21 361.570692
-0.523562 1.694452 2.677363 16.000000 19 361.570695
-0.594918 1.925402 2.488523 15.000000 17 361.570697
-0.050626 0.218248 3.703203 15.000000 30 361.570705
-0.096916 0.376175 3.574258 21.000000 29 361.570708
-0.226343 0.766900 3.113934 29.000000 26 361.570710
-0.416444 1.356963 3.914181 84.000000 24 361.570713
-0.547375 1.781421 3.915478 8.000000 22 361.570715
-0.505586 1.644411 2.884191 14.000000 20 361.570718
-0.530456 1.725312 2.464032 16.000000 18 361.570721
-0.700734 2.279160 2.663210 11.000000 16 361.570723
-0.682933 2.200735 2.344189 11.000000 15 361.570681
-0.950442 3.062793 2.667248 10.000000 13 361.570683
-0.967979 3.121230 2.227131 11.000000 11 361.570686
-0.992501 3.200310 1.839744 12.000000 9 361.570688
-0.576664 1.860593 0.875325 69.000000 7 361.570691
-1.023492 3.304317 1.106072 12.000000 5 361.570694
-0.700545 2.261688 0.540995 25.000000 3 361.570696
-0.712698 2.302348 0.308897 12.000000 1 361.570699
-0.951896 3.084588 2.434083 12.000000 12 361.570709
-0.973780 3.157459 2.026511 12.000000 10 361.570712
-0.572796 1.857281 0.985942 78.000000 8 361.570714
-0.580197 1.882442 0.774342 79.000000 6 361.570717
-0.688281 2.234507 0.654638 28.000000 4 361.570719
-0.706595 2.295389 0.426761 16.000000 2 361.570722
-0.718271 2.334768 0.192214 10.000000 0 361.570724
-0.005697 0.061184 5.494065 102.000000 31 361.570735
-0.143258 0.513370 3.388755 27.000000 28 361.570738
-0.179174 0.645009 3.241901 24.000000 27 361.570740
-0.341335 1.141705 3.854388 88.000000 25 361.570743
-0.483593 1.585650 3.964993 9.000000 23 361.570745
-0.561618 1.840362 3.592033 14.000000 21 361.570748
-0.516823 1.693578 2.673230 16.000000 19 361.570750
-0.588193 1.927467 2.488523 15.000000 17 361.570753
-0.049927 0.218706 3.708194 16.000000 30 361.570761
-0.095603 0.376511 3.574258 23.000000 29 361.570763
-0.225071 0.772516 3.133291 30.000000 26 361.570766
-0.411704 1.358408 3.914181 84.000000 24 361.570768
-0.539256 1.777069 3.901976 9.000000 22 361.570771
-0.499085 1.643670 2.879925 14.000000 20 361.570774
-0.523555 1.724270 2.460042 16.000000 18 361.570776
-0.674202 2.199696 2.340684 15.000000 15 361.570736
-0.939745 3.066092 2.667248 10.000000 13 361.570739
-0.953404 3.112596 2.218906 11.000000 11 361.570741
-0.978728 3.195283 1.835108 12.000000 9 361.570744
-0.568809 1.858161 0.873452 71.000000 7 361.570747
-1.009145 3.298695 1.103254 13.000000 5 361.570749
-0.692646 2.264120 0.540995 20.000000 3 361.570752
-0.703201 2.300059 0.308451 12.000000 1 361.570754
-0.938766 3.080158 2.428196 12.000000 12 361.570765
-0.960240 3.152590 2.021446 12.000000 10 361.570767
-0.563665 1.850585 0.981746 76.000000 8 361.570770
-0.570872 1.875420 0.771056 81.000000 6 361.570772
-0.679062 2.232246 0.653465 28.000000 4 361.570775
-0.695697 2.288365 0.425382 15.000000 2 361.570777
-0.707212 2.327700 0.191811 10.000000 0 361.570780
-0.005484 0.061204 5.494065 102.000000 31 361.570791
-0.141671 0.514617 3.393694 27.000000 28 361.570793
-0.176922 0.645631 3.241901 24.000000 27 361.570796
-0.337348 1.142890 3.854388 88.000000 25 361.570798
-0.478055 1.587329 3.964993 9.000000 23 361.570801
-0.555190 1.842312 3.592033 13.000000 21 361.570803
-0.510096 1.692677 2.669097 16.000000 19 361.570806
-0.580536 1.926439 2.484687 15.000000 17 361.570808
-0.049101 0.218596 3.703203 15.000000 30 361.570816
-0.094288 0.376843 3.574258 22.000000 29 361.570819
-0.224457 0.780551 3.162326 32.000000 26 361.570821
-0.406960 1.359837 3.914181 81.000000 24 361.570824
-0.531800 1.774768 3.892974 9.000000 22 361.570826
-0.491847 1.640406 2.871393 14.000000 20 361.570829
-0.515802 1.720313 2.452063 16.000000 18 361.570832
-0.782169 2.608731 3.030726 11.000000 16 361.570834
-0.668586 2.208862 2.347693 17.000000 15 361.570792
-0.924526 3.054450 2.654696 11.000000 13 361.570794
-0.940112 3.107900 2.213423 11.000000 11 361.570797
-0.965003 3.190199 1.830472 13.000000 9 361.570800
-0.560978 1.855698 0.871579 71.000000 7 361.570802
-0.994849 3.293013 1.100436 12.000000 5 361.570805
-0.683318 2.261821 0.540062 19.000000 3 361.570807
-0.693729 2.297732 0.308005 12.000000 1 361.570810
-0.669360 2.224014 2.149026 6.000000 14 361.570818
-0.925679 3.075676 2.422310 13.000000 12 361.570820
-0.946746 3.147666 2.016382 12.000000 10 361.570823
-0.555895 1.848195 0.979648 76.000000 8 361.570825
-0.561603 1.868356 0.767771 83.000000 6 361.570828
-0.671266 2.234602 0.653465 28.000000 4 361.570830
-0.686281 2.286036 0.424692 15.000000 2 361.570833
-0.696211 2.320584 0.191408 10.000000 0 361.570835
-0.005270 0.061223 5.494065 102.000000 31 361.570846
-0.139874 0.515108 3.393694 27.000000 28 361.570849
-0.174932 0.647227 3.246796 26.000000 27 361.570851
-0.333356 1.144060 3.854388 86.000000 25 361.570854
-0.472512 1.588988 3.964993 9.000000 23 361.570856
-0.539874 1.814387 3.534980 12.000000 21 361.570859
-0.503382 1.691751 2.664964 16.000000 19 361.570861
-0.573808 1.928454 2.484687 15.000000 17 361.570864
-0.048399 0.219049 3.708194 15.000000 30 361.570872
-0.093099 0.377688 3.579229 22.000000 29 361.570874
-0.225162 0.793430 3.210718 34.000000 26 361.570877
-0.401722 1.359594 3.909489 81.000000 24 361.570879
-0.524366 1.772437 3.883972 8.000000 22 361.570882
-0.485377 1.639612 2.867127 15.000000 20 361.570885
-0.508938 1.719213 2.448074 16.000000 18 361.570887
-0.774020 2.614696 3.034402 11.000000 16 361.570890
-0.660872 2.211183 2.347693 17.000000 15 361.570847
-0.909399 3.042740 2.642145 10.000000 13 361.570850
-0.928061 3.107156 2.210682 11.000000 11 361.570852
-0.951326 3.185058 1.825836 13.000000 9 361.570855
-0.553171 1.853203 0.869706 71.000000 7 361.570858
-0.981977 3.291868 1.099026 12.000000 5 361.570860
-0.675418 2.264193 0.540062 16.000000 3 361.570863
-0.682859 2.290595 0.307112 12.000000 1 361.570865
-0.658402 2.215598 2.139052 13.000000 14 361.570873
-0.912634 3.071139 2.416424 13.000000 12 361.570876
-0.932071 3.138553 2.008784 12.000000 10 361.570878
-0.546856 1.841423 0.975452 74.000000 8 361.570881
-0.663462 2.236932 0.653465 23.000000 4 361.570886
-0.675483 2.278922 0.423312 15.000000 2 361.570888
-0.686688 2.318210 0.191206 10.000000 0 361.570891
-0.005056 0.061241 5.494065 102.000000 31 361.570902
-0.138075 0.515593 3.393694 27.000000 28 361.570904
-0.172672 0.647834 3.246796 26.000000 27 361.570907
-0.329361 1.145217 3.854388 86.000000 25 361.570909
-0.466962 1.590627 3.964993 9.000000 23 361.570912
-0.525435 1.788677 3.482316 10.000000 21 361.570914
-0.495887 1.688098 2.656698 16.000000 19 361.570917
-0.566170 1.927369 2.480850 15.000000 17 361.570920
-0.047634 0.219217 3.708194 15.000000 30 361.570927
-0.091780 0.378011 3.579229 22.000000 29 361.570930
-0.230524 0.823283 3.326859 36.000000 26 361.570932
-0.396974 1.360988 3.909489 81.000000 24 361.570935
-0.516955 1.770076 3.874970 8.000000 22 361.570938
-0.478188 1.636290 2.858595 15.000000 20 361.570940
-0.502089 1.718086 2.444084 16.000000 18 361.570943
-0.760134 2.601111 3.016026 11.000000 16 361.570945
-0.653149 2.213476 2.347693 11.000000 15 361.570903
-0.872331 2.956286 2.566839 7.000000 13 361.570905
-0.913661 3.098345 2.202457 11.000000 11 361.570908
-0.937696 3.179861 1.821200 13.000000 9 361.570911
-0.544078 1.846229 0.865960 73.000000 7 361.570913
-0.967769 3.286072 1.096208 13.000000 5 361.570916
-0.666123 2.261825 0.539130 16.000000 3 361.570918
-0.673453 2.288187 0.306666 13.000000 1 361.570921
-0.653818 2.228633 2.149026 17.000000 14 361.570929
-0.898495 3.062670 2.407594 13.000000 12 361.570931
-0.918684 3.133513 2.003720 12.000000 10 361.570934
-0.539148 1.838966 0.973354 76.000000 8 361.570936
-0.945561 3.227283 1.258934 10.000000 6 361.570939
-0.655649 2.239234 0.653465 22.000000 4 361.570941
-0.666133 2.276513 0.422622 15.000000 2 361.570944
-0.675787 2.311003 0.190803 10.000000 0 361.570946
-0.004842 0.061258 5.494065 102.000000 31 361.570957
-0.136274 0.516072 3.393694 27.000000 28 361.570960
-0.170668 0.649418 3.251692 26.000000 27 361.570962
-0.325361 1.146360 3.854388 88.000000 25 361.570965
-0.461407 1.592248 3.964993 8.000000 23 361.570967
-0.506511 1.746781 3.398932 9.000000 21 361.570970
-0.489208 1.687115 2.652565 17.000000 19 361.570972
-0.559439 1.929333 2.480850 15.000000 17 361.570975
-0.046868 0.219382 3.708194 15.000000 30 361.570983
-0.090583 0.378848 3.584200 22.000000 29 361.570985
-0.238023 0.861669 3.476874 37.000000 26 361.570988
-0.392221 1.362366 3.909489 82.000000 24 361.570990
-0.509566 1.767685 3.865969 8.000000 22 361.570993
-0.471751 1.635443 2.854329 15.000000 20 361.570996
-0.495253 1.716932 2.440095 16.000000 18 361.570998
-0.751989 2.607006 3.019701 11.000000 16 361.571001
-0.650405 2.232862 2.365216 8.000000 15 361.570958
-0.904009 3.105530 2.205199 11.000000 11 361.570964
-0.924114 3.174607 1.816564 13.000000 9 361.570966
-0.537630 1.848117 0.865960 74.000000 7 361.570969
-0.953615 3.280217 1.093390 13.000000 5 361.570971
-0.658224 2.264136 0.539130 16.000000 3 361.570974
-0.664072 2.285742 0.306220 13.000000 1 361.570976
-0.644996 2.227314 2.145701 18.000000 14 361.570984
-0.883301 3.050258 2.395821 12.000000 12 361.570987
-0.904145 3.124277 1.996122 12.000000 10 361.570989
-0.530202 1.832117 0.969158 76.000000 8 361.570992
-0.935602 3.235100 1.260576 10.000000 6 361.570994
-0.647829 2.241509 0.653465 21.000000 4 361.570997
-0.656808 2.274067 0.421932 15.000000 2 361.570999
-0.666331 2.308547 0.190602 10.000000 0 361.571002
-0.004628 0.061274 5.494065 102.000000 31 361.571013
-0.134472 0.516545 3.393694 27.000000 28 361.571015
-0.168654 0.650995 3.256587 26.000000 27 361.571018
-0.320955 1.146050 3.849616 88.000000 25 361.571020
-0.455846 1.593849 3.964993 8.000000 23 361.571023
-0.474704 1.658710 3.227774 9.000000 21 361.571025
-0.481767 1.683402 2.644300 17.000000 19 361.571028
-0.551818 1.928192 2.477013 15.000000 17 361.571031
-0.046102 0.219544 3.708194 15.000000 30 361.571038
-0.089260 0.379162 3.584200 23.000000 29 361.571041
-0.245918 0.902545 3.636568 41.000000 26 361.571043
-0.387463 1.363726 3.909489 82.000000 24 361.571046
-0.502797 1.767358 3.861468 8.000000 22 361.571049
-0.464611 1.632064 2.845798 15.000000 20 361.571051
-0.488432 1.715752 2.436105 16.000000 18 361.571054
-0.743812 2.612876 3.023376 11.000000 16 361.571056
-0.834757 2.903465 3.048602 7.000000 15 361.571014
-0.644075 2.240232 1.961248 6.000000 13 361.571016
-0.886235 3.084553 2.188750 11.000000 11 361.571019
-0.910580 3.169298 1.811928 13.000000 9 361.571022
-0.938189 3.269692 1.089162 13.000000 5 361.571027
-0.648961 2.261698 0.538197 17.000000 3 361.571029
-0.653344 2.278472 0.305327 13.000000 1 361.571032
-0.638243 2.233143 2.149026 16.000000 14 361.571040
-0.890866 3.119123 1.991057 12.000000 10 361.571045
-0.523804 1.833957 0.969158 76.000000 8 361.571047
-0.921711 3.229264 1.257291 10.000000 6 361.571050
-0.638667 2.239083 0.652293 21.000000 4 361.571052
-0.647509 2.271583 0.421243 15.000000 2 361.571055
-0.656900 2.306055 0.190400 10.000000 0 361.571058
-0.004415 0.061290 5.494065 102.000000 31 361.571068
-0.132668 0.517011 3.393694 27.000000 28 361.571071
-0.166381 0.651580 3.256587 26.000000 27 361.571073
-0.316953 1.147164 3.849616 88.000000 25 361.571076
-0.449749 1.593550 3.960390 9.000000 23 361.571078
-0.453284 1.605023 3.122446 9.000000 21 361.571081
-0.475123 1.682365 2.640166 17.000000 19 361.571084
-0.545085 1.930107 2.477013 15.000000 17 361.571086
-0.045393 0.219988 3.713186 15.000000 30 361.571094
-0.088055 0.379992 3.589172 23.000000 29 361.571096
-0.249290 0.927693 3.733352 76.000000 26 361.571099
-0.382700 1.365071 3.909489 82.000000 24 361.571102
-0.496036 1.767006 3.856967 8.000000 22 361.571104
-0.458206 1.631165 2.841532 14.000000 20 361.571107
-0.481624 1.714544 2.432116 17.000000 18 361.571109
-0.735604 2.618720 3.027051 11.000000 16 361.571112
-0.827538 2.916654 3.059116 8.000000 15 361.571069
-0.634126 2.234977 1.954972 13.000000 13 361.571072
-0.875462 3.087628 2.188750 11.000000 11 361.571075
-0.895886 3.159670 1.804974 13.000000 9 361.571077
-0.905126 3.194382 1.429742 11.000000 7 361.571080
-0.924156 3.263715 1.086344 13.000000 5 361.571082
-0.639724 2.259223 0.537265 18.000000 3 361.571085
-0.644031 2.275946 0.304881 13.000000 1 361.571087
-0.629430 2.231763 2.145701 11.000000 14 361.571095
-0.878803 3.118064 1.988525 12.000000 10 361.571100
-0.516167 1.831406 0.967060 76.000000 8 361.571103
-0.910433 3.232462 1.257291 10.000000 6 361.571105
-0.630848 2.241298 0.652293 21.000000 4 361.571108
-0.638235 2.269063 0.420553 15.000000 2 361.571110
-0.647494 2.303524 0.190199 10.000000 0 361.571113
-0.004201 0.061305 5.494065 102.000000 31 361.571124
-0.130863 0.517471 3.393694 27.000000 28 361.571126
-0.164353 0.653145 3.261482 26.000000 27 361.571129
-0.312946 1.148263 3.849616 88.000000 25 361.571131
-0.444184 1.595110 3.960390 9.000000 23 361.571134
-0.440605 1.581209 3.074171 10.000000 21 361.571136
-0.467737 1.678592 2.631901 17.000000 19 361.571139
-0.538344 1.931998 2.477013 16.000000 17 361.571142
-0.044625 0.220145 3.713186 14.000000 30 361.571149
-0.086728 0.380297 3.589172 23.000000 29 361.571152
-0.248625 0.938285 3.772066 85.000000 26 361.571154
-0.377933 1.366398 3.909489 79.000000 24 361.571157
-0.489284 1.766628 3.852466 9.000000 22 361.571160
-0.451116 1.627727 2.833000 14.000000 20 361.571162
-0.474027 1.710406 2.424137 17.000000 18 361.571165
-0.726458 2.621272 3.027051 11.000000 16 361.571167
-0.820236 2.929827 3.069630 9.000000 15 361.571125
-0.630518 2.252172 1.967523 17.000000 13 361.571128
-0.861299 3.078585 2.180526 10.000000 11 361.571130
-0.882464 3.154246 1.800338 13.000000 9 361.571133
-0.891474 3.188593 1.425996 12.000000 7 361.571135
-0.910176 3.257681 1.083525 12.000000 5 361.571138
-0.630512 2.256711 0.536332 18.000000 3 361.571140
-0.633404 2.268587 0.303989 14.000000 1 361.571143
-0.630262 2.264953 1.795417 6.000000 12 361.571153
-0.865603 3.112805 1.983460 12.000000 10 361.571156
-0.517067 1.859432 0.979648 71.000000 8 361.571158
-0.894087 3.217420 1.250720 10.000000 6 361.571161
-0.621719 2.238803 0.651121 20.000000 4 361.571163
-0.628986 2.266505 0.419863 16.000000 2 361.571166
-0.638114 2.300956 0.189997 10.000000 0 361.571169
-0.003987 0.061320 5.494065 102.000000 31 361.571179
-0.129056 0.517924 3.393694 27.000000 28 361.571182
-0.162073 0.653714 3.261482 26.000000 27 361.571184
-0.308936 1.149349 3.849616 88.000000 25 361.571187
-0.438613 1.596651 3.960390 9.000000 23 361.571189
-0.433178 1.575807 3.061005 11.000000 21 361.571192
-0.460383 1.674788 2.623635 17.000000 19 361.571195
-0.530747 1.930774 2.473176 16.000000 17 361.571197
-0.043856 0.220299 3.713186 16.000000 30 361.571205
-0.085400 0.380597 3.589172 23.000000 29 361.571207
-0.245666 0.940364 3.776905 88.000000 26 361.571210
-0.373161 1.367709 3.909489 77.000000 24 361.571213
-0.483114 1.768325 3.852466 9.000000 22 361.571215
-0.444744 1.626776 2.828734 15.000000 20 361.571218
-0.467259 1.709143 2.420147 17.000000 18 361.571220
-0.718198 2.627062 3.030726 11.000000 16 361.571223
-0.810004 2.932673 3.069630 9.000000 15 361.571180
-0.622653 2.254359 1.967523 17.000000 13 361.571183
-0.869091 3.148766 1.795702 13.000000 9 361.571188
-0.885269 3.209562 1.433488 13.000000 7 361.571191
-0.896250 3.251588 1.080707 12.000000 5 361.571193
-0.621326 2.254163 0.535399 17.000000 3 361.571196
-0.622836 2.261182 0.303096 13.000000 1 361.571198
-0.619142 2.255446 1.786587 14.000000 12 361.571209
-0.853592 3.111650 1.980928 13.000000 10 361.571211
-0.859962 3.134882 1.590181 13.000000 8 361.571214
-0.880353 3.211412 1.247435 11.000000 6 361.571216
-0.611332 2.231584 0.648776 19.000000 4 361.571219
-0.619763 2.263910 0.419173 16.000000 2 361.571222
-0.628760 2.298351 0.189796 10.000000 0 361.571224
-0.003772 0.061333 5.494065 102.000000 31 361.571235
-0.127432 0.519126 3.398634 27.000000 28 361.571237
-0.160031 0.655265 3.266377 27.000000 27 361.571240
-0.304922 1.150420 3.849616 88.000000 25 361.571242
-0.432526 1.596287 3.955788 9.000000 23 361.571245
-0.427675 1.577310 3.061005 11.000000 21 361.571248
-0.453798 1.673669 2.619502 17.000000 19 361.571250
-0.524004 1.932615 2.473176 16.000000 17 361.571253
-0.043141 0.220735 3.718178 13.000000 30 361.571260
-0.084071 0.380893 3.589172 23.000000 29 361.571263
-0.242382 0.941216 3.776905 88.000000 26 361.571266
-0.368384 1.369003 3.909489 75.000000 24 361.571268
-0.476939 1.770000 3.852466 10.000000 22 361.571271
-0.438384 1.625801 2.824468 15.000000 20 361.571273
-0.459721 1.704944 2.412169 18.000000 18 361.571276
-0.709023 2.629553 3.030726 11.000000 16 361.571278
-0.796950 2.925159 3.059116 9.000000 15 361.571236
-0.612733 2.249007 1.961248 13.000000 13 361.571239
-0.855767 3.143231 1.791065 13.000000 9 361.571244
-0.872843 3.208159 1.431615 14.000000 7 361.571246
-0.882377 3.245438 1.077889 13.000000 5 361.571249
-0.612165 2.251578 0.534467 17.000000 3 361.571251
-0.613634 2.258537 0.302650 13.000000 1 361.571254
-0.806097 2.977168 2.827296 12.000000 14 361.571262
-0.614434 2.269298 1.795417 18.000000 12 361.571264
-0.838221 3.097965 1.970798 13.000000 10 361.571267
-0.856126 3.164151 1.602770 14.000000 8 361.571269
-0.866673 3.205348 1.244149 11.000000 6 361.571272
-0.602271 2.229012 0.647604 20.000000 4 361.571274
-0.610566 2.261279 0.418483 16.000000 2 361.571277
-0.618131 2.290884 0.189393 10.000000 0 361.571280
-0.003558 0.061346 5.494065 101.000000 31 361.571290
-0.125619 0.519568 3.398634 27.000000 28 361.571293
-0.157980 0.656810 3.271272 27.000000 27 361.571295
-0.300905 1.151477 3.849616 88.000000 25 361.571298
-0.426952 1.597787 3.955788 9.000000 23 361.571300
-0.420310 1.571850 3.047839 12.000000 21 361.571303
-0.446499 1.669806 2.611236 17.000000 19 361.571305
-0.516427 1.931335 2.469339 16.000000 17 361.571308
-0.042370 0.220885 3.718178 13.000000 30 361.571316
-0.082741 0.381184 3.589172 22.000000 29 361.571318
-0.239095 0.942057 3.776905 89.000000 26 361.571321
-0.363603 1.370281 3.909489 64.000000 24 361.571323
-0.471316 1.773759 3.856967 10.000000 22 361.571326
-0.432036 1.624801 2.820202 15.000000 20 361.571328
-0.452217 1.700713 2.404190 19.000000 18 361.571331
-0.700711 2.635288 3.034402 11.000000 16 361.571334
-0.785809 2.924479 3.055612 10.000000 15 361.571291
-0.611950 2.277449 1.983212 10.000000 13 361.571294
-0.609976 2.271682 1.626750 10.000000 11 361.571296
-0.842492 3.137641 1.786429 13.000000 9 361.571299
-0.858035 3.197754 1.425996 14.000000 7 361.571302
-0.868558 3.239231 1.075070 13.000000 5 361.571304
-0.603030 2.248957 0.533534 17.000000 3 361.571307
-0.604457 2.255854 0.302204 14.000000 1 361.571309
-0.791847 2.965531 2.813996 11.000000 14 361.571317
-0.603381 2.259713 1.786587 21.000000 12 361.571320
-0.824067 3.088375 1.963201 12.000000 10 361.571322
-0.845076 3.167120 1.602770 14.000000 8 361.571325
-0.851829 3.194665 1.239221 11.000000 6 361.571327
-0.591984 2.221707 0.645259 21.000000 4 361.571330
-0.601395 2.258611 0.417794 16.000000 2 361.571332
-0.608846 2.288200 0.189191 10.000000 0 361.571335
-0.003344 0.061358 5.494065 101.000000 31 361.571346
-0.123984 0.520759 3.403573 27.000000 28 361.571348
-0.155686 0.657358 3.271272 26.000000 27 361.571351
-0.296884 1.152521 3.849616 86.000000 25 361.571353
-0.421372 1.599267 3.955788 9.000000 23 361.571356
-0.414210 1.570991 3.043450 12.000000 21 361.571358
-0.439951 1.668633 2.607103 17.000000 19 361.571361
-0.509682 1.933126 2.469339 16.000000 17 361.571363
-0.041651 0.221316 3.723169 13.000000 30 361.571371
-0.081410 0.381471 3.589172 22.000000 29 361.571374
-0.235806 0.942886 3.776905 90.000000 26 361.571376
-0.359255 1.373211 3.914181 54.000000 24 361.571379
-0.465674 1.777500 3.861468 12.000000 22 361.571381
-0.425039 1.621253 2.811670 15.000000 20 361.571384
-0.444750 1.696450 2.396210 21.000000 18 361.571387
-0.691508 2.637718 3.034402 11.000000 16 361.571389
-0.773769 2.920310 3.048602 9.000000 15 361.571347
-0.600972 2.269755 1.624008 15.000000 11 361.571352
-0.830401 3.136281 1.784111 13.000000 9 361.571354
-0.844496 3.191766 1.422250 14.000000 7 361.571357
-0.854793 3.232968 1.072252 13.000000 5 361.571360
-0.593920 2.246299 0.532601 17.000000 3 361.571362
-0.595307 2.253136 0.301758 12.000000 1 361.571365
-0.780539 2.964666 2.810671 11.000000 14 361.571372
-0.601664 2.285259 1.804246 18.000000 12 361.571375
-0.784762 2.982829 1.897358 8.000000 10 361.571378
-0.831706 3.161272 1.598574 14.000000 8 361.571380
-0.838271 3.188484 1.235936 11.000000 6 361.571383
-0.581755 2.214358 0.642915 22.000000 4 361.571385
-0.592249 2.255906 0.417104 16.000000 2 361.571388
-0.598319 2.280647 0.188788 10.000000 0 361.571390
-0.003130 0.061369 5.494065 98.000000 31 361.571401
-0.122342 0.521946 3.408512 28.000000 28 361.571404
-0.153621 0.658889 3.276168 26.000000 27 361.571406
-0.292491 1.152102 3.844844 88.000000 25 361.571409
-0.415787 1.600728 3.955788 9.000000 23 361.571411
-0.407518 1.567790 3.034673 12.000000 21 361.571414
-0.432707 1.664711 2.598837 17.000000 19 361.571416
-0.502931 1.934893 2.469339 16.000000 17 361.571419
-0.040878 0.221460 3.723169 13.000000 30 361.571427
-0.080078 0.381753 3.589172 22.000000 29 361.571429
-0.232513 0.943703 3.776905 89.000000 26 361.571432
-0.354459 1.374457 3.914181 39.000000 24 361.571434
-0.460556 1.783332 3.870470 14.000000 22 361.571437
-0.418724 1.620202 2.807404 15.000000 20 361.571440
-0.438071 1.695074 2.392221 21.000000 18 361.571442
-0.682297 2.640116 3.034402 11.000000 16 361.571445
-0.762669 2.919543 3.045098 9.000000 15 361.571402
-0.782977 2.997294 2.579390 12.000000 13 361.571405
-0.595158 2.279931 1.629491 18.000000 11 361.571407
-0.817210 3.130587 1.779475 13.000000 9 361.571410
-0.831009 3.185723 1.418504 14.000000 7 361.571413
-0.842293 3.231289 1.070843 13.000000 5 361.571415
-0.584836 2.243605 0.531669 18.000000 3 361.571418
-0.586183 2.250381 0.301311 12.000000 1 361.571420
-0.769248 2.963758 2.807346 11.000000 14 361.571428
-0.594698 2.291257 1.807189 13.000000 12 361.571431
-0.721309 2.781065 1.773269 7.000000 10 361.571433
-0.814969 3.142190 1.588083 14.000000 8 361.571436
-0.825951 3.186820 1.234293 11.000000 6 361.571438
-0.571585 2.206965 0.640570 25.000000 4 361.571441
-0.583131 2.253166 0.416414 16.000000 2 361.571443
-0.589104 2.277884 0.188586 10.000000 0 361.571446
-0.002916 0.061380 5.494065 98.000000 31 361.571457
-0.120693 0.523127 3.413451 27.000000 28 361.571459
-0.151548 0.660414 3.281063 26.000000 27 361.571462
-0.288468 1.153116 3.844844 88.000000 25 361.571464
-0.409712 1.600277 3.951185 9.000000 23 361.571467
-0.401448 1.566882 3.030284 12.000000 21 361.571469
-0.426195 1.663486 2.594704 17.000000 19 361.571472
-0.496174 1.936637 2.469339 16.000000 17 361.571474
-0.040205 0.222172 3.733152 11.000000 30 361.571482
-0.078852 0.382553 3.594143 23.000000 29 361.571485
-0.229217 0.944509 3.776905 89.000000 26 361.571487
-0.350084 1.377358 3.918875 31.000000 24 361.571490
-0.455402 1.789150 3.879471 17.000000 22 361.571492
-0.412422 1.619126 2.803138 15.000000 20 361.571495
-0.431407 1.693672 2.388232 22.000000 18 361.571498
-0.673077 2.642481 3.034402 10.000000 16 361.571500
-0.750694 2.915280 3.038089 9.000000 15 361.571458
-0.769597 2.988700 2.569976 11.000000 13 361.571460
-0.584070 2.269846 1.621267 20.000000 11 361.571463
-0.800757 3.111968 1.767885 12.000000 9 361.571466
-0.817575 3.179624 1.414758 14.000000 7 361.571468
-0.828621 3.224917 1.068024 13.000000 5 361.571471
-0.575778 2.240875 0.530736 18.000000 3 361.571473
-0.577086 2.247590 0.300865 13.000000 1 361.571476
-0.756121 2.955572 2.797372 12.000000 14 361.571484
-0.584530 2.286513 1.471910 12.000000 10 361.571489
-0.803996 3.145016 1.588083 14.000000 8 361.571491
-0.812484 3.180532 1.231008 11.000000 6 361.571494
-0.561473 2.199527 0.638225 24.000000 4 361.571496
-0.574038 2.250389 0.415724 16.000000 2 361.571499
-0.579915 2.275086 0.188385 11.000000 0 361.571501
-0.002702 0.061390 5.494065 102.000000 31 361.571512
-0.119038 0.524303 3.418391 23.000000 28 361.571515
-0.149465 0.661932 3.285958 26.000000 27 361.571517
-0.284441 1.154116 3.844844 88.000000 25 361.571520
-0.404123 1.601698 3.951185 9.000000 23 361.571522
-0.394804 1.563628 3.021507 13.000000 21 361.571525
-0.419697 1.662235 2.590571 17.000000 19 361.571527
-0.489411 1.938357 2.469339 16.000000 17 361.571530
-0.039331 0.221740 3.723169 11.000000 30 361.571538
-0.077516 0.382826 3.594143 23.000000 29 361.571540
-0.225627 0.944080 3.772066 90.000000 26 361.571543
-0.345274 1.378572 3.918875 18.000000 24 361.571545
-0.450214 1.794953 3.888473 18.000000 22 361.571548
-0.406133 1.618027 2.798872 15.000000 20 361.571551
-0.424759 1.692244 2.384242 22.000000 18 361.571553
-0.664674 2.648103 3.038077 10.000000 16 361.571556
-0.738759 2.910969 3.031080 9.000000 15 361.571513
-0.758203 2.987594 2.566839 11.000000 13 361.571516
-0.579226 2.284030 1.629491 18.000000 11 361.571518
-0.746329 2.942973 1.675164 7.000000 9 361.571521
-0.804193 3.173470 1.411012 14.000000 7 361.571524
-0.816181 3.223139 1.066615 14.000000 5 361.571526
-0.565541 2.233347 0.528871 18.000000 3 361.571529
-0.568015 2.244763 0.300419 13.000000 1 361.571531
-0.743974 2.950951 2.790722 12.000000 14 361.571539
-0.754572 2.993001 2.331072 13.000000 12 361.571542
-0.576545 2.288540 1.471910 19.000000 10 361.571544
-0.790795 3.139001 1.583887 14.000000 8 361.571547
-0.800224 3.178770 1.229365 12.000000 6 361.571549
-0.551420 2.192046 0.635881 22.000000 4 361.571552
-0.563765 2.242773 0.414345 16.000000 2 361.571554
-0.570753 2.272251 0.188183 11.000000 0 361.571557
-0.002487 0.061399 5.494065 102.000000 31 361.571568
-0.117207 0.524715 3.418391 23.000000 28 361.571570
-0.147374 0.663444 3.290853 26.000000 27 361.571573
-0.280411 1.155102 3.844844 88.000000 25 361.571575
-0.399001 1.604995 3.955788 9.000000 23 361.571578
-0.388765 1.562672 3.017118 13.000000 21 361.571580
-0.412534 1.658228 2.582305 17.000000 19 361.571583
-0.482642 1.940054 2.469339 16.000000 17 361.571586
-0.038412 0.221019 3.708194 10.000000 30 361.571593
-0.076282 0.383618 3.599115 23.000000 29 361.571596
-0.222330 0.944862 3.772066 90.000000 26 361.571598
-0.340873 1.381444 3.923567 12.000000 24 361.571601
-0.445513 1.802856 3.901976 22.000000 22 361.571604
-0.399231 1.614371 2.790340 15.000000 20 361.571606
-0.418126 1.690791 2.380253 22.000000 18 361.571609
-0.655427 2.650407 3.038077 10.000000 16 361.571611
-0.726863 2.906611 3.024071 10.000000 15 361.571569
-0.743992 2.975116 2.554287 11.000000 13 361.571571
-0.572264 2.290095 1.632232 15.000000 11 361.571574
-0.629724 2.520054 1.445680 7.000000 9 361.571577
-0.790864 3.167263 1.407266 14.000000 7 361.571579
-0.802602 3.216660 1.063797 14.000000 5 361.571582
-0.556553 2.230542 0.527938 18.000000 3 361.571584
-0.558971 2.241900 0.299973 14.000000 1 361.571587
-0.731868 2.946282 2.784072 12.000000 14 361.571595
-0.748018 3.011307 2.342844 13.000000 12 361.571597
-0.568554 2.290538 1.471910 20.000000 10 361.571600
-0.776553 3.128528 1.577593 13.000000 8 361.571602
-0.787986 3.176960 1.227723 12.000000 6 361.571605
-0.542596 2.189240 0.634708 22.000000 4 361.571607
-0.554742 2.239921 0.413655 16.000000 2 361.571610
-0.561617 2.269380 0.187982 11.000000 0 361.571612
-0.002273 0.061407 5.494065 102.000000 31 361.571623
-0.115541 0.525880 3.423330 27.000000 28 361.571626
-0.145057 0.663954 3.290853 24.000000 27 361.571628
-0.276377 1.156074 3.844844 88.000000 25 361.571631
-0.393396 1.606378 3.955788 9.000000 23 361.571633
-0.382737 1.561692 3.012729 13.000000 21 361.571636
-0.406073 1.656925 2.578172 17.000000 19 361.571638
-0.475867 1.941727 2.469339 16.000000 17 361.571641
-0.037876 0.222581 3.733152 10.000000 30 361.571649
-0.074943 0.383882 3.599115 24.000000 29 361.571651
-0.219031 0.945632 3.772066 90.000000 26 361.571654
-0.336049 1.382626 3.923567 10.000000 24 361.571656
-0.440247 1.808632 3.910977 26.000000 22 361.571659
-0.392976 1.613221 2.786074 15.000000 20 361.571662
-0.412221 1.692240 2.380253 21.000000 18 361.571664
-0.646171 2.652679 3.038077 10.000000 16 361.571667
-0.715860 2.905668 3.020566 10.000000 15 361.571624
-0.733602 2.977695 2.554287 11.000000 13 361.571627
-0.572210 2.324355 1.339050 15.000000 9 361.571632
-0.775374 3.151998 1.399774 14.000000 7 361.571635
-0.789079 3.210124 1.060978 13.000000 5 361.571637
-0.547591 2.227700 0.527006 20.000000 3 361.571640
-0.549954 2.239001 0.299527 13.000000 1 361.571642
-0.719804 2.941564 2.777423 12.000000 14 361.571650
-0.737502 3.013900 2.342844 13.000000 12 361.571653
-0.565674 2.313448 1.484572 16.000000 10 361.571655
-0.774650 3.170516 1.224437 12.000000 6 361.571660
-0.533798 2.186399 0.633536 23.000000 4 361.571663
-0.545746 2.237032 0.412965 16.000000 2 361.571665
-0.551326 2.261619 0.187579 10.000000 0 361.571668
-0.002058 0.061415 5.494065 102.000000 31 361.571679
-0.113705 0.526280 3.423330 28.000000 28 361.571681
-0.142952 0.665452 3.295749 24.000000 27 361.571684
-0.271998 1.155578 3.840073 88.000000 25 361.571686
-0.387787 1.607741 3.955788 9.000000 23 361.571689
-0.376722 1.560690 3.008341 13.000000 21 361.571691
-0.398966 1.652861 2.569906 18.000000 19 361.571694
-0.469086 1.943376 2.469339 16.000000 17 361.571697
-0.073702 0.384666 3.604086 24.000000 29 361.571707
-0.215728 0.946391 3.772066 89.000000 26 361.571709
-0.331221 1.383790 3.923567 9.000000 24 361.571712
-0.434946 1.814393 3.919979 26.000000 22 361.571715
-0.386734 1.612047 2.781808 16.000000 20 361.571717
-0.406312 1.693669 2.380253 21.000000 18 361.571720
-0.636907 2.654918 3.038077 10.000000 16 361.571722
-0.704031 2.901217 3.013557 10.000000 15 361.571680
-0.721367 2.972672 2.548012 12.000000 13 361.571682
-0.562005 2.317727 1.334414 19.000000 9 361.571688
-0.765459 3.159191 1.401647 14.000000 7 361.571690
-0.776740 3.208197 1.059569 13.000000 5 361.571693
-0.537499 2.220050 0.525141 20.000000 3 361.571695
-0.540964 2.236066 0.299080 13.000000 1 361.571698
-0.707782 2.936798 2.770773 12.000000 14 361.571706
-0.723189 3.000738 2.331072 13.000000 12 361.571708
-0.565555 2.348469 1.204140 7.000000 8 361.571713
-0.763578 3.173201 1.224437 13.000000 6 361.571716
-0.525026 2.183522 0.632364 24.000000 4 361.571718
-0.536777 2.234109 0.412275 16.000000 2 361.571721
-0.542262 2.258672 0.187377 10.000000 0 361.571724
-0.001844 0.061421 5.494065 102.000000 31 361.571734
-0.111867 0.526674 3.423330 28.000000 28 361.571737
-0.140628 0.665947 3.295749 26.000000 27 361.571739
-0.267962 1.156520 3.840073 88.000000 25 361.571742
-0.382172 1.609085 3.955788 9.000000 23 361.571744
-0.370717 1.559664 3.003952 14.000000 21 361.571747
-0.392544 1.651506 2.565773 18.000000 19 361.571750
-0.461558 1.941882 2.465502 16.000000 17 361.571752
-0.052394 0.324663 5.510165 32.000000 30 361.571760
-0.072359 0.384921 3.604086 24.000000 29 361.571762
-0.212424 0.947138 3.772066 89.000000 26 361.571765
-0.326389 1.384938 3.923567 9.000000 24 361.571768
-0.430111 1.822259 3.933481 22.000000 22 361.571770
-0.380505 1.610849 2.777543 16.000000 20 361.571773
-0.400397 1.695077 2.380253 22.000000 18 361.571775
-0.627636 2.657125 3.038077 10.000000 16 361.571778
-0.693070 2.900189 3.010052 10.000000 15 361.571735
-0.709177 2.967599 2.541736 11.000000 13 361.571738
-0.723061 3.028037 2.125696 12.000000 11 361.571741
-0.549795 2.302439 1.325142 20.000000 9 361.571743
-0.747971 3.134787 1.390409 12.000000 7 361.571746
-0.763311 3.201555 1.056751 13.000000 5 361.571748
-0.528607 2.217134 0.524208 20.000000 3 361.571751
-0.530847 2.228252 0.298188 14.000000 1 361.571753
-0.695802 2.931983 2.764123 12.000000 14 361.571761
-0.711777 2.999312 2.328129 13.000000 12 361.571764
-0.715630 3.017892 1.907487 11.000000 10 361.571766
-0.555259 2.341597 1.199944 23.000000 8 361.571769
-0.749231 3.162061 1.219509 15.000000 6 361.571771
-0.516281 2.180612 0.631191 23.000000 4 361.571774
-0.527835 2.231149 0.411585 17.000000 2 361.571776
-0.533225 2.255689 0.187176 11.000000 0 361.571779
-0.001630 0.061427 5.494065 102.000000 31 361.571790
-0.110186 0.527822 3.428269 27.000000 28 361.571792
-0.138303 0.666434 3.295749 26.000000 27 361.571795
-0.263592 1.155992 3.835301 87.000000 25 361.571797
-0.376108 1.608507 3.951185 9.000000 23 361.571800
-0.365271 1.560949 3.003952 14.000000 21 361.571802
-0.386135 1.650126 2.561640 18.000000 19 361.571805
-0.454777 1.943482 2.465502 16.000000 17 361.571808
-0.051481 0.326275 5.535123 37.000000 30 361.571815
-0.071110 0.385696 3.609057 24.000000 29 361.571818
-0.208845 0.946645 3.767226 90.000000 26 361.571820
-0.321552 1.386069 3.923567 9.000000 24 361.571823
-0.425226 1.830113 3.946984 20.000000 22 361.571826
-0.374289 1.609627 2.773277 16.000000 20 361.571828
-0.394478 1.696464 2.380253 22.000000 18 361.571831
-0.618357 2.659300 3.038077 10.000000 16 361.571833
-0.681309 2.895647 3.003043 10.000000 15 361.571791
-0.697922 2.966267 2.538599 11.000000 13 361.571794
-0.711530 3.026472 2.122955 12.000000 11 361.571796
-0.552908 2.351783 1.350641 17.000000 9 361.571799
-0.751035 3.199530 1.055341 14.000000 5 361.571804
-0.518620 2.209401 0.522343 21.000000 3 361.571806
-0.521929 2.225243 0.297742 15.000000 1 361.571809
-0.683864 2.927122 2.757474 12.000000 14 361.571817
-0.698544 2.989970 2.319299 14.000000 12 361.571819
-0.712932 3.053958 1.927747 13.000000 10 361.571822
-0.545019 2.334682 1.195748 28.000000 8 361.571824
-0.736043 3.155459 1.216224 15.000000 6 361.571827
-0.507563 2.177667 0.630019 22.000000 4 361.571829
-0.518921 2.228155 0.410895 17.000000 2 361.571832
-0.523083 2.247804 0.186773 10.000000 0 361.571835
-0.001415 0.061433 5.494065 102.000000 31 361.571845
-0.108343 0.528203 3.428269 27.000000 28 361.571848
-0.136178 0.667910 3.300644 26.000000 27 361.571850
-0.259555 1.156905 3.835301 87.000000 25 361.571853
-0.370491 1.609810 3.951185 8.000000 23 361.571855
-0.359282 1.559880 2.999564 14.000000 21 361.571858
-0.379110 1.645980 2.553375 18.000000 19 361.571861
-0.447270 1.941933 2.461665 16.000000 17 361.571863
-0.050342 0.326453 5.535123 40.000000 30 361.571871
-0.069764 0.385942 3.609057 24.000000 29 361.571873
-0.205540 0.947369 3.767226 89.000000 26 361.571876
-0.316328 1.385500 3.918875 9.000000 24 361.571879
-0.420777 1.840078 3.964987 17.000000 22 361.571881
-0.368086 1.608381 2.769011 16.000000 20 361.571884
-0.387881 1.694893 2.376263 22.000000 18 361.571886
-0.609071 2.661443 3.038077 10.000000 16 361.571889
-0.669588 2.891059 2.996034 10.000000 15 361.571846
-0.685807 2.961101 2.532323 11.000000 13 361.571849
-0.698133 3.016716 2.114731 12.000000 11 361.571852
-0.541203 2.340470 1.058882 9.000000 7 361.571857
-0.737702 3.192784 1.052523 14.000000 5 361.571859
-0.509799 2.206412 0.521410 21.000000 3 361.571862
-0.513038 2.222199 0.297295 14.000000 1 361.571864
-0.671968 2.922212 2.750824 12.000000 14 361.571872
-0.687197 2.988451 2.316356 13.000000 12 361.571875
-0.700336 3.048025 1.922682 13.000000 10 361.571877
-0.537882 2.340993 1.197846 25.000000 8 361.571880
-0.708117 3.084366 1.189941 8.000000 6 361.571882
-0.498872 2.174688 0.628847 22.000000 4 361.571885
-0.510033 2.225126 0.410206 17.000000 2 361.571888
-0.514118 2.244747 0.186571 10.000000 0 361.571890
-0.001201 0.061437 5.494065 102.000000 31 361.571901
-0.106652 0.529340 3.433208 27.000000 28 361.571903
-0.133846 0.668381 3.300644 26.000000 27 361.571906
-0.255515 1.157804 3.835301 89.000000 25 361.571908
-0.364438 1.609188 3.946583 8.000000 23 361.571911
-0.352776 1.556452 2.990786 14.000000 21 361.571914
-0.372740 1.644549 2.549242 18.000000 19 361.571916
-0.440489 1.943483 2.461665 16.000000 17 361.571919
-0.049286 0.327199 5.545106 51.000000 30 361.571926
-0.068416 0.386183 3.609057 24.000000 29 361.571929
-0.202231 0.948080 3.767226 90.000000 26 361.571932
-0.311111 1.384912 3.914181 9.000000 24 361.571934
-0.416263 1.850034 3.982990 15.000000 22 361.571937
-0.361897 1.607112 2.764745 16.000000 20 361.571939
-0.381963 1.696236 2.376263 22.000000 18 361.571942
-0.599777 2.663552 3.038077 10.000000 16 361.571944
-0.657907 2.886425 2.989025 10.000000 15 361.571902
-0.673736 2.955885 2.526047 11.000000 13 361.571905
-0.685741 3.010981 2.109248 12.000000 11 361.571907
-0.687976 3.020804 1.707617 13.000000 9 361.571910
-0.533030 2.342345 1.058882 23.000000 7 361.571912
-0.724425 3.185983 1.049705 14.000000 5 361.571915
-0.499915 2.198598 0.519545 21.000000 3 361.571917
-0.504174 2.219120 0.296849 14.000000 1 361.571920
-0.660940 2.920898 2.747499 12.000000 14 361.571928
-0.674977 2.982947 2.310470 14.000000 12 361.571930
-0.685889 3.033631 1.912552 13.000000 10 361.571933
-0.696305 3.082212 1.188298 8.000000 6 361.571938
-0.490207 2.171675 0.627674 23.000000 4 361.571940
-0.501173 2.222062 0.409516 16.000000 2 361.571943
-0.505181 2.241654 0.186370 11.000000 0 361.571946
-0.000986 0.061441 5.494065 102.000000 31 361.571956
-0.104953 0.530471 3.438148 27.000000 28 361.571959
-0.131708 0.669844 3.305539 26.000000 27 361.571961
-0.251472 1.158689 3.835301 89.000000 25 361.571964
-0.358394 1.608543 3.941980 9.000000 23 361.571966
-0.346819 1.555335 2.986398 14.000000 21 361.571969
-0.365772 1.640346 2.540976 18.000000 19 361.571971
-0.433005 1.941879 2.457828 16.000000 17 361.571974
-0.048432 0.329376 5.580048 60.000000 30 361.571982
-0.067158 0.386946 3.614029 24.000000 29 361.571984
-0.198921 0.948780 3.767226 90.000000 26 361.571987
-0.306275 1.385990 3.914181 9.000000 24 361.571989
-0.412156 1.862107 4.005495 13.000000 22 361.571992
-0.355721 1.605819 2.760479 16.000000 20 361.571994
-0.376040 1.697559 2.376263 23.000000 18 361.571997
-0.591209 2.668939 3.041752 10.000000 16 361.572000
-0.646267 2.881744 2.982016 10.000000 15 361.571957
-0.661711 2.950622 2.519772 11.000000 13 361.571960
-0.674313 3.009276 2.106506 12.000000 11 361.571962
-0.690020 3.079386 1.737751 16.000000 9 361.571965
-0.522825 2.335144 1.055136 26.000000 7 361.571968
-0.708063 3.165085 1.042659 13.000000 5 361.571970
-0.491165 2.195535 0.518612 22.000000 3 361.571973
-0.494252 2.211146 0.295957 14.000000 1 361.571975
-0.649117 2.915897 2.740849 12.000000 14 361.571983
-0.662804 2.977394 2.304584 13.000000 12 361.571986
-0.674360 3.031798 1.910020 13.000000 10 361.571988
-0.528787 2.379297 0.936967 16.000000 6 361.571993
-0.481570 2.168628 0.626502 23.000000 4 361.571996
-0.492341 2.218963 0.408826 16.000000 2 361.571998
-0.495191 2.233649 0.185967 11.000000 0 361.572001
-0.000772 0.061444 5.494065 102.000000 31 361.572012
-0.103101 0.530834 3.438148 27.000000 28 361.572014
-0.129561 0.671299 3.310434 26.000000 27 361.572017
-0.247426 1.159560 3.835301 89.000000 25 361.572019
-0.352777 1.609785 3.941980 9.000000 23 361.572022
-0.340875 1.554196 2.982009 14.000000 21 361.572024
-0.359441 1.638865 2.536843 18.000000 19 361.572027
-0.426223 1.943379 2.457828 15.000000 17 361.572029
-0.047121 0.328396 5.560081 66.000000 30 361.572037
-0.065807 0.387178 3.614029 24.000000 29 361.572040
-0.195608 0.949469 3.767226 90.000000 26 361.572042
-0.301069 1.385365 3.909489 9.000000 24 361.572045
-0.407179 1.872117 4.023498 13.000000 22 361.572047
-0.349278 1.604564 2.756213 16.000000 20 361.572050
-0.369815 1.698926 2.376263 23.000000 18 361.572053
-0.581423 2.671088 3.041752 10.000000 16 361.572055
-0.634667 2.877018 2.975007 10.000000 15 361.572013
-0.650568 2.949113 2.516634 11.000000 13 361.572015
-0.662004 3.003444 2.101023 12.000000 11 361.572018
-0.678313 3.077450 1.735433 16.000000 9 361.572020
-0.516665 2.346009 1.058882 24.000000 7 361.572023
-0.481005 2.187726 0.516747 22.000000 3 361.572028
-0.485076 2.208079 0.295511 14.000000 1 361.572031
-0.636829 2.910960 2.734200 12.000000 14 361.572038
-0.650159 2.971906 2.298697 13.000000 12 361.572041
-0.661402 3.025826 1.904955 14.000000 10 361.572044
-0.675748 3.091471 1.550318 15.000000 8 361.572046
-0.514017 2.353537 0.927111 25.000000 6 361.572049
-0.472582 2.165629 0.625330 23.000000 4 361.572051
-0.483150 2.215914 0.408136 16.000000 2 361.572054
-0.486326 2.230483 0.185765 11.000000 0 361.572056
-0.000547 0.061447 5.494065 102.000000 31 361.572067
-0.101300 0.531972 3.443087 27.000000 28 361.572070
-0.127100 0.671770 3.310434 26.000000 27 361.572072
-0.243174 1.160459 3.835301 89.000000 25 361.572075
-0.346463 1.609157 3.937377 9.000000 23 361.572077
-0.334672 1.553093 2.977620 14.000000 21 361.572080
-0.352840 1.637420 2.532710 18.000000 19 361.572082
-0.419098 1.944928 2.457828 15.000000 17 361.572085
-0.045957 0.328853 5.565073 72.000000 30 361.572093
-0.064387 0.387417 3.614029 24.000000 29 361.572095
-0.192126 0.950180 3.767226 90.000000 26 361.572098
-0.295989 1.386459 3.909489 9.000000 24 361.572100
-0.401097 1.875657 4.027999 12.000000 22 361.572103
-0.342583 1.600672 2.747681 17.000000 20 361.572106
-0.363252 1.697260 2.372273 23.000000 18 361.572108
-0.572095 2.673101 3.041752 10.000000 16 361.572111
-0.622607 2.872354 2.967998 10.000000 15 361.572068
-0.638106 2.943868 2.510359 11.000000 13 361.572071
-0.650107 3.001764 2.098282 12.000000 11 361.572073
-0.662341 3.058266 1.723843 16.000000 9 361.572076
-0.511024 2.363569 0.800277 4.000000 5 361.572081
-0.472328 2.184591 0.515814 21.000000 3 361.572084
-0.476314 2.204891 0.295064 14.000000 1 361.572086
-0.625093 2.905863 2.727550 12.000000 14 361.572094
-0.638931 2.970206 2.295754 13.000000 12 361.572097
-0.649930 3.023901 1.902422 14.000000 10 361.572099
-0.664953 3.093811 1.550318 15.000000 8 361.572102
-0.504807 2.350700 0.925469 25.000000 6 361.572104
-0.464000 2.162513 0.624157 22.000000 4 361.572107
-0.474374 2.212745 0.407446 17.000000 2 361.572109
-0.477102 2.227365 0.185564 10.000000 0 361.572112
-0.000332 0.061448 5.494065 102.000000 31 361.572123
-0.099442 0.532323 3.443087 27.000000 28 361.572125
-0.124940 0.673210 3.315330 26.000000 27 361.572128
-0.239122 1.161301 3.835301 89.000000 25 361.572130
-0.340844 1.610356 3.937377 9.000000 23 361.572133
-0.328752 1.551908 2.973232 14.000000 21 361.572135
-0.346539 1.635889 2.528577 18.000000 19 361.572138
-0.411642 1.943243 2.453991 16.000000 17 361.572140
-0.044770 0.328725 5.560081 77.000000 30 361.572148
-0.063119 0.388166 3.619000 23.000000 29 361.572151
-0.188809 0.950844 3.767226 90.000000 26 361.572153
-0.291148 1.387483 3.909489 9.000000 24 361.572156
-0.394547 1.877045 4.027999 12.000000 22 361.572158
-0.336457 1.599306 2.743415 16.000000 20 361.572161
-0.357325 1.698517 2.372273 23.000000 18 361.572164
-0.563459 2.678400 3.045427 10.000000 16 361.572166
-0.611090 2.867533 2.960989 10.000000 15 361.572124
-0.627015 2.942270 2.507221 11.000000 13 361.572126
-0.637883 2.995836 2.092799 12.000000 11 361.572129
-0.651661 3.060559 1.723843 16.000000 9 361.572132
-0.508755 2.393493 0.808732 18.000000 5 361.572137
-0.463678 2.181421 0.514882 21.000000 3 361.572139
-0.466546 2.196797 0.294172 14.000000 1 361.572142
-0.613401 2.900720 2.720900 13.000000 14 361.572150
-0.626887 2.964509 2.289868 14.000000 12 361.572152
-0.636697 3.013497 1.894825 14.000000 10 361.572155
-0.651335 3.082792 1.544024 15.000000 8 361.572157
-0.455446 2.159364 0.622985 22.000000 4 361.572162
-0.465626 2.209542 0.406757 17.000000 2 361.572165
-0.469324 2.229017 0.185564 10.000000 0 361.572167
-0.000118 0.061449 5.494065 102.000000 31 361.572178
-0.097723 0.533431 3.448026 27.000000 28 361.572181
-0.122771 0.674644 3.320225 26.000000 27 361.572183
-0.235067 1.162128 3.835301 89.000000 25 361.572186
-0.335221 1.611536 3.937377 9.000000 23 361.572188
-0.322844 1.550701 2.968843 14.000000 21 361.572191
-0.339679 1.631579 2.520311 18.000000 19 361.572193
-0.404856 1.944668 2.453991 16.000000 17 361.572196
-0.043622 0.328879 5.560081 82.000000 30 361.572204
-0.061764 0.388384 3.619000 23.000000 29 361.572206
-0.185488 0.951498 3.767226 90.000000 26 361.572209
-0.286651 1.390181 3.914181 9.000000 24 361.572211
-0.387993 1.878411 4.027999 12.000000 22 361.572214
-0.330344 1.597917 2.739149 16.000000 20 361.572217
-0.350784 1.696802 2.368284 23.000000 18 361.572219
-0.554106 2.680350 3.045427 10.000000 16 361.572222
-0.600346 2.866159 2.957484 10.000000 15 361.572179
-0.615144 2.936821 2.500945 11.000000 13 361.572182
-0.625709 2.989859 2.087316 12.000000 11 361.572184
-0.639159 3.054143 1.719207 15.000000 9 361.572187
-0.651061 3.113725 1.373551 16.000000 7 361.572190
-0.496473 2.376470 0.803095 22.000000 5 361.572192
-0.455056 2.178218 0.513949 22.000000 3 361.572195
-0.457857 2.193537 0.293726 14.000000 1 361.572197
-0.601752 2.895531 2.714250 12.000000 14 361.572205
-0.615713 2.962721 2.286925 14.000000 12 361.572208
-0.622668 2.998816 1.884695 13.000000 10 361.572210
-0.639647 3.080603 1.541926 15.000000 8 361.572213
-0.446919 2.156181 0.621813 23.000000 4 361.572218
-0.456906 2.206305 0.406067 17.000000 2 361.572220
-0.459516 2.220856 0.185160 10.000000 0 361.572223
0.000097 0.061449 5.494065 102.000000 31 361.572234
-0.095860 0.533769 3.448026 27.000000 28 361.572236
-0.120415 0.675069 3.320225 26.000000 27 361.572239
-0.230718 1.161477 3.830529 89.000000 25 361.572241
-0.329203 1.610783 3.932775 9.000000 23 361.572244
-0.316949 1.549471 2.964454 14.000000 21 361.572246
-0.333418 1.629997 2.516178 18.000000 19 361.572249
-0.398066 1.946069 2.453991 16.000000 17 361.572252
-0.042474 0.329029 5.560081 86.000000 30 361.572259
-0.060408 0.388597 3.619000 24.000000 29 361.572262
-0.182166 0.952139 3.767226 92.000000 26 361.572264
-0.281797 1.391173 3.914181 10.000000 24 361.572267
-0.381001 1.877620 4.023498 12.000000 22 361.572270
-0.324245 1.596505 2.734883 17.000000 20 361.572272
-0.344859 1.698017 2.368284 23.000000 18 361.572275
