# .PCD v.7 - Point Cloud Data file format
VERSION .7
FIELDS x y z intensity ring timestamp
SIZE 4 4 4 4 2 8
TYPE F F F F U D
COUNT 1 1 1 1 1 1
WIDTH 907
HEIGHT 1
VIEWPOINT 0 0 0 1 0 0 0
POINTS 907
DATA ascii
-0.902099 -1.084292 2.144213 35.000000 19 361.636551
-0.868536 -1.043947 1.701950 38.000000 17 361.636554
-0.144778 -0.150713 3.443639 26.000000 30 361.636561
-0.243925 -0.266434 3.320716 27.000000 29 361.636564
-0.509356 -0.596668 3.055863 29.000000 26 361.636567
-0.672062 -0.804669 2.905237 34.000000 24 361.636569
-0.913672 -1.094708 3.010810 29.000000 22 361.636572
-0.926708 -1.110712 2.436268 32.000000 20 361.636574
-0.882185 -1.057345 1.897523 38.000000 18 361.636577
-0.849952 -1.018710 1.516559 38.000000 16 361.636579
-0.840699 -1.012998 1.373429 39.000000 15 361.636537
-0.817389 -0.984908 1.114048 40.000000 13 361.636540
-0.802681 -0.966842 0.908485 40.000000 11 361.636542
-0.793282 -0.955517 0.736363 42.000000 9 361.636545
-0.776541 -0.935020 0.579386 39.000000 7 361.636547
-0.760496 -0.915376 0.439523 32.000000 5 361.636550
-0.740823 -0.891696 0.311570 10.000000 3 361.636552
-0.735160 -0.884566 0.196006 12.000000 1 361.636555
-0.828981 -0.995692 1.234693 40.000000 14 361.636563
-0.805984 -0.968067 1.000763 40.000000 12 361.636565
-0.793005 -0.952139 0.813479 44.000000 10 361.636568
-0.790747 -0.949425 0.658646 49.000000 8 361.636570
-0.777241 -0.932877 0.511512 38.000000 6 361.636573
-0.756305 -0.907427 0.375626 20.000000 4 361.636575
-0.745166 -0.893745 0.254307 10.000000 2 361.636578
-0.745423 -0.893736 0.140622 24.000000 0 361.636581
-0.033965 -0.028314 3.514140 17.000000 31 361.636591
-0.333031 -0.378607 3.206002 31.000000 28 361.636594
-0.427926 -0.485314 3.134206 27.000000 27 361.636596
-0.595689 -0.702824 2.990706 32.000000 25 361.636599
-0.758683 -0.905157 2.841977 16.000000 23 361.636601
-0.955738 -1.140644 2.793297 25.000000 21 361.636604
-0.907686 -1.083293 2.148345 35.000000 19 361.636606
-0.872175 -1.040909 1.701950 38.000000 17 361.636609
-0.145304 -0.150207 3.443639 26.000000 30 361.636617
-0.244491 -0.265189 3.315744 27.000000 29 361.636619
-0.510615 -0.593933 3.051024 30.000000 26 361.636622
-0.673756 -0.800997 2.900544 34.000000 24 361.636624
-0.914685 -1.088178 3.001809 29.000000 22 361.636627
-0.932257 -1.109467 2.440534 32.000000 20 361.636629
-0.887809 -1.056567 1.901513 38.000000 18 361.636632
-0.853503 -1.015736 1.516559 38.000000 16 361.636635
-0.846517 -1.012794 1.376934 39.000000 15 361.636592
-0.820822 -0.982048 1.114048 40.000000 13 361.636595
-0.806051 -0.964034 0.908485 40.000000 11 361.636597
-0.796613 -0.952742 0.736363 42.000000 9 361.636600
-0.779800 -0.932303 0.579386 39.000000 7 361.636603
-0.766765 -0.916395 0.440932 32.000000 5 361.636605
-0.743931 -0.889105 0.311570 10.000000 3 361.636608
-0.741440 -0.885813 0.196452 11.000000 1 361.636610
-0.832451 -0.992792 1.234693 42.000000 14 361.636618
-0.809358 -0.965247 1.000763 40.000000 12 361.636621
-0.799094 -0.952669 0.816011 45.000000 10 361.636623
-0.796973 -0.950136 0.660744 47.000000 8 361.636626
-0.780492 -0.930159 0.511512 38.000000 6 361.636628
-0.762593 -0.908505 0.376798 20.000000 4 361.636631
-0.751465 -0.894931 0.254997 10.000000 2 361.636633
-0.751751 -0.894954 0.140824 24.000000 0 361.636636
-0.034064 -0.028195 3.514140 17.000000 31 361.636647
-0.333835 -0.376861 3.201063 31.000000 28 361.636649
-0.428941 -0.483057 3.129311 28.000000 27 361.636652
-0.597169 -0.699605 2.985934 32.000000 25 361.636654
-0.763098 -0.903996 2.846580 17.000000 23 361.636657
-0.961259 -1.139132 2.797685 25.000000 21 361.636659
-0.911462 -1.080118 2.148345 35.000000 19 361.636662
-0.877871 -1.040308 1.705787 38.000000 17 361.636664
-0.145827 -0.149698 3.443639 27.000000 30 361.636672
-0.245415 -0.264334 3.315744 27.000000 29 361.636675
-0.511862 -0.591196 3.046185 30.000000 26 361.636677
-0.675432 -0.797324 2.895851 34.000000 24 361.636680
-0.915664 -1.081654 2.992807 29.000000 22 361.636682
-0.937809 -1.108197 2.444800 32.000000 20 361.636685
-0.891492 -1.053461 1.901513 38.000000 18 361.636688
-0.859233 -1.015339 1.520234 38.000000 16 361.636690
-0.850047 -1.009833 1.376934 39.000000 15 361.636648
-0.826752 -0.982155 1.117185 40.000000 13 361.636650
-0.809411 -0.961215 0.908485 40.000000 11 361.636653
-0.799934 -0.949956 0.736363 42.000000 9 361.636655
-0.783049 -0.929576 0.579386 39.000000 7 361.636658
-0.769960 -0.913713 0.440932 32.000000 5 361.636661
-0.750196 -0.890259 0.312503 10.000000 3 361.636663
-0.744527 -0.883220 0.196452 13.000000 1 361.636666
-0.838321 -0.992734 1.238018 42.000000 14 361.636673
-0.815330 -0.965504 1.003707 40.000000 12 361.636676
-0.802414 -0.949874 0.816011 45.000000 10 361.636679
-0.800285 -0.947348 0.660744 49.000000 8 361.636681
-0.786783 -0.931036 0.513155 38.000000 6 361.636684
-0.765760 -0.905837 0.376798 21.000000 4 361.636686
-0.754585 -0.892302 0.254997 10.000000 2 361.636689
-0.754871 -0.892325 0.140824 26.000000 0 361.636691
-0.034126 -0.028052 3.509140 17.000000 31 361.636702
-0.335149 -0.375693 3.201063 31.000000 28 361.636705
-0.430625 -0.481556 3.129311 28.000000 27 361.636707
-0.599608 -0.697516 2.985934 32.000000 25 361.636710
-0.768780 -0.904304 2.855785 16.000000 23 361.636712
-0.966781 -1.137595 2.802074 25.000000 21 361.636715
-0.917049 -1.079074 2.152478 35.000000 19 361.636717
-0.881497 -1.037237 1.705787 38.000000 17 361.636720
-0.146145 -0.148983 3.438648 26.000000 30 361.636728
-0.245971 -0.263086 3.310773 28.000000 29 361.636730
-0.513096 -0.588458 3.041346 30.000000 26 361.636733
-0.678211 -0.794961 2.895851 34.000000 24 361.636735
-0.916609 -1.075137 2.983805 29.000000 22 361.636738
-0.941672 -1.104916 2.444800 32.000000 20 361.636741
-0.897119 -1.052637 1.905502 37.000000 18 361.636743
-0.862772 -1.012333 1.520234 38.000000 16 361.636746
-0.855873 -1.009580 1.380438 39.000000 15 361.636703
-0.830175 -0.979263 1.117185 39.000000 13 361.636706
-0.812762 -0.958384 0.908485 40.000000 11 361.636708
-0.803245 -0.947158 0.736363 42.000000 9 361.636711
-0.789289 -0.930372 0.581259 39.000000 7 361.636714
-0.773144 -0.911020 0.440932 32.000000 5 361.636716
-0.753299 -0.887635 0.312503 10.000000 3 361.636719
-0.747606 -0.880615 0.196452 12.000000 1 361.636721
-0.841781 -0.989801 1.238018 42.000000 14 361.636729
-0.818695 -0.962653 1.003707 40.000000 12 361.636732
-0.808519 -0.950350 0.818544 44.000000 10 361.636734
-0.803587 -0.944549 0.660744 47.000000 8 361.636737
-0.790028 -0.928284 0.513155 39.000000 6 361.636739
-0.768917 -0.903159 0.376798 21.000000 4 361.636742
-0.757695 -0.889663 0.254997 10.000000 2 361.636744
-0.761221 -0.893487 0.141025 25.000000 0 361.636747
-0.034224 -0.027932 3.509140 18.000000 31 361.636758
-0.335938 -0.373944 3.196124 30.000000 28 361.636760
-0.431621 -0.479294 3.124416 28.000000 27 361.636763
-0.601061 -0.694290 2.981162 32.000000 25 361.636765
-0.773202 -0.903099 2.860387 16.000000 23 361.636768
-0.972303 -1.136034 2.806463 25.000000 21 361.636770
-0.920810 -1.075866 2.152478 35.000000 19 361.636773
-0.887197 -1.036590 1.709624 38.000000 17 361.636775
-0.146664 -0.148472 3.438648 25.000000 30 361.636783
-0.246888 -0.262226 3.310773 28.000000 29 361.636786
-0.514317 -0.585719 3.036507 30.000000 26 361.636788
-0.678733 -0.789971 2.886466 34.000000 24 361.636791
-0.917518 -1.068626 2.974804 29.000000 22 361.636793
-0.947221 -1.103602 2.449066 32.000000 20 361.636796
-0.900787 -1.049499 1.905502 37.000000 18 361.636799
-0.868509 -1.011888 1.523909 38.000000 16 361.636801
-0.859392 -1.006586 1.380438 39.000000 15 361.636759
-0.836116 -0.979320 1.120323 40.000000 13 361.636761
-0.818818 -0.958720 0.911227 40.000000 11 361.636764
-0.806546 -0.944348 0.736363 40.000000 9 361.636767
-0.792531 -0.927611 0.581259 39.000000 7 361.636769
-0.776320 -0.908315 0.440932 32.000000 5 361.636772
-0.756392 -0.885000 0.312503 10.000000 3 361.636774
-0.753911 -0.881785 0.196898 12.000000 1 361.636777
-0.845231 -0.986857 1.238018 42.000000 14 361.636785
-0.824680 -0.962859 1.006650 40.000000 12 361.636787
-0.811831 -0.947522 0.818544 44.000000 10 361.636790
-0.806879 -0.941738 0.660744 49.000000 8 361.636792
-0.796337 -0.929106 0.514797 38.000000 6 361.636795
-0.772065 -0.900469 0.376798 21.000000 4 361.636797
-0.760796 -0.887013 0.254997 10.000000 2 361.636800
-0.767588 -0.894616 0.141227 25.000000 0 361.636802
-0.034321 -0.027813 3.509140 17.000000 31 361.636813
-0.337242 -0.372769 3.196124 30.000000 28 361.636816
-0.432607 -0.477031 3.119520 28.000000 27 361.636818
-0.602499 -0.691062 2.976391 32.000000 25 361.636821
-0.778901 -0.903353 2.869592 17.000000 23 361.636823
-0.976263 -1.132633 2.806463 23.000000 21 361.636826
-0.924560 -1.072646 2.152478 35.000000 19 361.636828
-0.890810 -1.033486 1.709624 38.000000 17 361.636831
-0.146976 -0.147755 3.433656 25.000000 30 361.636839
-0.247433 -0.260976 3.305801 28.000000 29 361.636841
-0.516358 -0.583920 3.036507 30.000000 26 361.636844
-0.680357 -0.786292 2.881773 34.000000 24 361.636846
-0.918394 -1.062122 2.965802 30.000000 22 361.636849
-0.952773 -1.102262 2.453331 32.000000 20 361.636852
-0.906416 -1.048628 1.909492 37.000000 18 361.636854
-0.874253 -1.011415 1.527584 38.000000 16 361.636857
-0.862900 -1.003580 1.380438 39.000000 15 361.636814
-0.839530 -0.976396 1.120323 39.000000 13 361.636817
-0.822159 -0.955856 0.911227 40.000000 11 361.636819
-0.809838 -0.941527 0.736363 40.000000 9 361.636822
-0.795765 -0.924839 0.581259 39.000000 7 361.636825
-0.779486 -0.905600 0.440932 32.000000 5 361.636827
-0.759477 -0.882354 0.312503 10.000000 3 361.636830
-0.756985 -0.879148 0.196898 12.000000 1 361.636832
-0.851110 -0.986728 1.241343 40.000000 14 361.636840
-0.828036 -0.959974 1.006650 42.000000 12 361.636843
-0.815134 -0.944683 0.818544 44.000000 10 361.636845
-0.810161 -0.938916 0.660744 49.000000 8 361.636848
-0.799575 -0.926320 0.514797 39.000000 6 361.636850
-0.778380 -0.901448 0.377971 21.000000 4 361.636853
-0.763887 -0.884352 0.254997 10.000000 2 361.636855
-0.770706 -0.891931 0.141227 25.000000 0 361.636858
-0.034418 -0.027693 3.509140 17.000000 31 361.636869
-0.338017 -0.371015 3.191185 30.000000 28 361.636871
-0.434270 -0.475518 3.119520 28.000000 27 361.636874
-0.603922 -0.687832 2.971619 33.000000 25 361.636876
-0.784612 -0.903579 2.878797 17.000000 23 361.636879
-0.981781 -1.131027 2.810851 23.000000 21 361.636881
-0.930143 -1.071537 2.156611 35.000000 19 361.636884
-0.896513 -1.032791 1.713461 38.000000 17 361.636887
-0.147491 -0.147241 3.433656 26.000000 30 361.636894
-0.248343 -0.260111 3.305801 28.000000 29 361.636897
-0.517556 -0.581175 3.031667 30.000000 26 361.636899
-0.681964 -0.782612 2.877080 34.000000 24 361.636902
-0.920666 -1.057268 2.961301 30.000000 22 361.636905
-0.958328 -1.100896 2.457597 32.000000 20 361.636907
-0.910071 -1.045458 1.909492 37.000000 18 361.636910
-0.877778 -1.008357 1.527584 38.000000 16 361.636912
-0.868733 -1.003258 1.383943 39.000000 15 361.636870
-0.842933 -0.973459 1.120323 39.000000 13 361.636872
-0.825491 -0.952981 0.911227 40.000000 11 361.636875
-0.816020 -0.942043 0.738681 42.000000 9 361.636878
-0.798988 -0.922056 0.581259 39.000000 7 361.636880
-0.782642 -0.902874 0.440932 31.000000 5 361.636883
-0.762552 -0.879698 0.312503 10.000000 3 361.636885
-0.763312 -0.880263 0.197344 11.000000 1 361.636888
-0.854549 -0.983751 1.241343 40.000000 14 361.636896
-0.834033 -0.960129 1.009593 42.000000 12 361.636898
-0.818426 -0.941832 0.818544 44.000000 10 361.636901
-0.816411 -0.939508 0.662842 49.000000 8 361.636903
-0.802803 -0.923524 0.514797 38.000000 6 361.636906
-0.781522 -0.898725 0.377971 21.000000 4 361.636908
-0.766970 -0.881680 0.254997 10.000000 2 361.636911
-0.777095 -0.893004 0.141428 24.000000 0 361.636913
-0.034515 -0.027572 3.509140 17.000000 31 361.636924
-0.339310 -0.369833 3.191185 30.000000 28 361.636927
-0.435237 -0.473250 3.114625 28.000000 27 361.636929
-0.605330 -0.684601 2.966847 33.000000 25 361.636932
-0.787761 -0.900835 2.878797 17.000000 23 361.636934
-0.987300 -1.129397 2.815240 25.000000 21 361.636937
-0.933878 -1.068283 2.156611 34.000000 19 361.636939
-0.900113 -1.029656 1.713461 38.000000 17 361.636942
-0.147797 -0.146522 3.428664 26.000000 30 361.636950
-0.248878 -0.258858 3.300830 27.000000 29 361.636952
-0.519582 -0.579364 3.031667 31.000000 26 361.636955
-0.683553 -0.778929 2.872388 34.000000 24 361.636957
-0.921479 -1.050773 2.952300 31.000000 22 361.636960
-0.963884 -1.099505 2.461863 32.000000 20 361.636963
-0.915702 -1.044541 1.913481 37.000000 18 361.636965
-0.883527 -1.007836 1.531259 38.000000 16 361.636968
-0.872229 -1.000219 1.383943 39.000000 15 361.636925
-0.846326 -0.970511 1.120323 39.000000 13 361.636928
-0.831561 -0.953244 0.913968 40.000000 11 361.636931
-0.819303 -0.939189 0.738681 40.000000 9 361.636933
-0.802202 -0.919261 0.581259 39.000000 7 361.636936
-0.788944 -0.903750 0.442341 31.000000 5 361.636938
-0.765619 -0.877031 0.312503 10.000000 3 361.636941
-0.766380 -0.877593 0.197344 11.000000 1 361.636943
-0.860437 -0.983573 1.244668 42.000000 14 361.636951
-0.837379 -0.957212 1.009593 42.000000 12 361.636954
-0.821709 -0.938969 0.818544 44.000000 10 361.636956
-0.819685 -0.936652 0.662842 49.000000 8 361.636959
-0.806022 -0.920716 0.514797 39.000000 6 361.636961
-0.784654 -0.895992 0.377971 21.000000 4 361.636964
-0.773306 -0.882722 0.255687 10.000000 2 361.636966
-0.780207 -0.890286 0.141428 25.000000 0 361.636969
-0.034611 -0.027452 3.509140 17.000000 31 361.636980
-0.340071 -0.368076 3.186245 30.000000 28 361.636982
-0.436886 -0.471728 3.114625 28.000000 27 361.636985
-0.606723 -0.681369 2.962075 33.000000 25 361.636987
-0.794774 -0.902478 2.892605 18.000000 23 361.636990
-0.994402 -1.129540 2.824017 24.000000 21 361.636992
-0.939461 -1.067129 2.160744 34.000000 19 361.636995
-0.905820 -1.028914 1.717298 38.000000 17 361.636998
-0.148100 -0.145803 3.423673 26.000000 30 361.637005
-0.249780 -0.257988 3.300830 27.000000 29 361.637008
-0.520758 -0.576614 3.026828 31.000000 26 361.637010
-0.686268 -0.776538 2.872388 33.000000 24 361.637013
-0.925142 -1.047550 2.952300 31.000000 22 361.637016
-0.969442 -1.098089 2.466129 32.000000 20 361.637018
-0.921337 -1.043598 1.917471 37.000000 18 361.637021
-0.887040 -1.004746 1.531259 38.000000 16 361.637023
-0.878069 -0.999848 1.387447 39.000000 15 361.636981
-0.852277 -0.970476 1.123461 39.000000 13 361.636983
-0.834884 -0.950336 0.913968 39.000000 11 361.636986
-0.822577 -0.936323 0.738681 40.000000 9 361.636989
-0.808466 -0.919937 0.583132 39.000000 7 361.636991
-0.792094 -0.900991 0.442341 32.000000 5 361.636994
-0.771919 -0.878042 0.313436 10.000000 3 361.636996
-0.772727 -0.878653 0.197791 11.000000 1 361.636999
-0.863865 -0.980564 1.244668 42.000000 14 361.637007
-0.840715 -0.954283 1.009593 40.000000 12 361.637009
-0.827832 -0.939330 0.821076 44.000000 10 361.637012
-0.822950 -0.933786 0.662842 49.000000 8 361.637014
-0.809231 -0.917897 0.514797 39.000000 6 361.637017
-0.787777 -0.893247 0.377971 22.000000 4 361.637019
-0.776382 -0.880017 0.255687 10.000000 2 361.637022
-0.786616 -0.891303 0.141630 24.000000 0 361.637025
-0.034670 -0.027307 3.504140 17.000000 31 361.637035
-0.340824 -0.366318 3.181306 30.000000 28 361.637038
-0.437835 -0.469456 3.109730 28.000000 27 361.637040
-0.608100 -0.678135 2.957304 33.000000 25 361.637043
-0.813476 -0.917238 2.947835 21.000000 23 361.637045
-0.999929 -1.127855 2.828406 24.000000 21 361.637048
-0.945047 -1.065949 2.164877 35.000000 19 361.637051
-0.909406 -1.025746 1.717298 38.000000 17 361.637053
-0.148608 -0.145286 3.423673 26.000000 30 361.637061
-0.250679 -0.257114 3.300830 27.000000 29 361.637063
-0.522767 -0.574793 3.026828 31.000000 26 361.637066
-0.687827 -0.772849 2.867695 33.000000 24 361.637069
-0.921556 -1.036178 2.929795 32.000000 22 361.637071
-0.975002 -1.096648 2.470395 32.000000 20 361.637074
-0.926977 -1.042628 1.921460 37.000000 18 361.637076
-0.892794 -1.004177 1.534934 38.000000 16 361.637079
-0.881554 -0.996777 1.387447 39.000000 15 361.637036
-0.855659 -0.967495 1.123461 39.000000 13 361.637039
-0.838196 -0.947416 0.913968 39.000000 11 361.637042
-0.828776 -0.936764 0.740999 40.000000 9 361.637044
-0.811672 -0.917110 0.583132 39.000000 7 361.637047
-0.798414 -0.901812 0.443751 32.000000 5 361.637049
-0.774979 -0.875342 0.313436 10.000000 3 361.637052
-0.775790 -0.875950 0.197791 11.000000 1 361.637054
-0.867282 -0.977542 1.244668 40.000000 14 361.637062
-0.846724 -0.954366 1.012536 40.000000 12 361.637065
-0.831106 -0.936434 0.821076 44.000000 10 361.637067
-0.829217 -0.934302 0.664940 47.000000 8 361.637070
-0.815566 -0.918598 0.516440 39.000000 6 361.637072
-0.790890 -0.890492 0.377971 22.000000 4 361.637075
-0.779449 -0.877302 0.255687 10.000000 2 361.637077
-0.789722 -0.888552 0.141630 24.000000 0 361.637080
-0.034765 -0.027186 3.504140 17.000000 31 361.637091
-0.342101 -0.365126 3.181306 30.000000 28 361.637093
-0.438774 -0.467183 3.104835 28.000000 27 361.637096
-0.609463 -0.674900 2.952532 33.000000 25 361.637098
-0.832289 -0.931877 3.003065 27.000000 23 361.637101
-1.005455 -1.126145 2.832794 24.000000 21 361.637103
-0.950636 -1.064743 2.169010 34.000000 19 361.637106
-0.915116 -1.024956 1.721135 37.000000 17 361.637109
-0.149115 -0.144766 3.423673 25.000000 30 361.637116
-0.251575 -0.256238 3.300830 27.000000 29 361.637119
-0.523921 -0.572037 3.021989 31.000000 26 361.637121
-0.690520 -0.770443 2.867695 30.000000 24 361.637124
-0.926620 -1.034577 2.934296 23.000000 22 361.637127
-0.980564 -1.095181 2.474661 32.000000 20 361.637129
-0.932621 -1.041631 1.925450 37.000000 18 361.637132
-0.896294 -1.001055 1.534934 38.000000 16 361.637134
-0.887399 -0.996357 1.390952 39.000000 15 361.637092
-0.861620 -0.967409 1.126599 39.000000 13 361.637095
-0.841498 -0.944484 0.913968 40.000000 11 361.637097
-0.832040 -0.933866 0.740999 40.000000 9 361.637100
-0.817953 -0.917732 0.585005 39.000000 7 361.637102
-0.804749 -0.902600 0.445160 33.000000 5 361.637105
-0.781299 -0.876298 0.314368 11.000000 3 361.637107
-0.778843 -0.873237 0.197791 10.000000 1 361.637110
-0.873177 -0.977294 1.247992 40.000000 14 361.637118
-0.850050 -0.951405 1.012536 40.000000 12 361.637120
-0.837243 -0.936742 0.823609 42.000000 10 361.637123
-0.832473 -0.931401 0.664940 47.000000 8 361.637125
-0.818767 -0.915745 0.516440 39.000000 6 361.637128
-0.797234 -0.891349 0.379143 23.000000 4 361.637130
-0.782507 -0.874576 0.255687 10.000000 2 361.637133
-0.796151 -0.889513 0.141831 24.000000 0 361.637136
-0.034823 -0.027041 3.499140 15.000000 31 361.637146
-0.342840 -0.363365 3.176367 30.000000 28 361.637149
-0.440402 -0.465648 3.104835 28.000000 27 361.637151
-0.610810 -0.671663 2.947760 33.000000 25 361.637154
-0.842070 -0.936229 3.026078 29.000000 23 361.637156
-1.010982 -1.124410 2.837183 24.000000 21 361.637159
-0.956228 -1.063511 2.173143 35.000000 19 361.637162
-0.920832 -1.024140 1.724972 37.000000 17 361.637164
-0.149619 -0.144245 3.423673 25.000000 30 361.637172
-0.252468 -0.255358 3.300830 27.000000 29 361.637174
-0.525061 -0.569280 3.017150 31.000000 26 361.637177
-0.693206 -0.768028 2.867695 21.000000 24 361.637180
-0.986127 -1.093688 2.478927 32.000000 20 361.637185
-0.938270 -1.040608 1.929439 38.000000 18 361.637187
-0.902053 -1.000438 1.538610 38.000000 16 361.637190
-0.890872 -0.993253 1.390952 39.000000 15 361.637147
-0.864992 -0.964396 1.126599 39.000000 13 361.637150
-0.847582 -0.944653 0.916710 40.000000 11 361.637153
-0.838254 -0.934253 0.743317 42.000000 9 361.637155
-0.821152 -0.914871 0.585005 39.000000 7 361.637158
-0.807895 -0.899786 0.445160 33.000000 5 361.637160
-0.784353 -0.873566 0.314368 11.000000 3 361.637163
-0.781886 -0.870513 0.197791 10.000000 1 361.637165
-0.876583 -0.974240 1.247992 40.000000 14 361.637173
-0.853366 -0.948432 1.012536 40.000000 12 361.637176
-0.843392 -0.937018 0.826141 44.000000 10 361.637178
-0.835719 -0.928490 0.664940 49.000000 8 361.637181
-0.825119 -0.916391 0.518083 39.000000 6 361.637183
-0.800341 -0.888561 0.379143 23.000000 4 361.637186
-0.785555 -0.871839 0.255687 9.000000 2 361.637189
-0.799251 -0.886728 0.141831 25.000000 0 361.637191
-0.034917 -0.026919 3.499140 15.000000 31 361.637202
-0.344106 -0.362166 3.176367 30.000000 28 361.637204
-0.441322 -0.463371 3.099939 28.000000 27 361.637207
-0.612142 -0.668426 2.942989 33.000000 25 361.637209
-0.841398 -0.928940 3.012270 29.000000 23 361.637212
-1.018117 -1.124426 2.845960 24.000000 21 361.637215
-0.961824 -1.062252 2.177276 34.000000 19 361.637217
-0.924401 -1.020919 1.724972 38.000000 17 361.637220
-0.150122 -0.143721 3.423673 25.000000 30 361.637227
-0.252981 -0.254098 3.295859 28.000000 29 361.637230
-0.526189 -0.566523 3.012311 31.000000 26 361.637233
-0.695882 -0.765604 2.867695 19.000000 24 361.637235
-0.991692 -1.092170 2.483193 32.000000 20 361.637240
-0.943923 -1.039558 1.933429 38.000000 18 361.637243
-0.907819 -0.999793 1.542285 38.000000 16 361.637245
-0.896724 -0.992784 1.394457 38.000000 15 361.637203
-0.870962 -0.964259 1.129737 39.000000 13 361.637206
-0.850874 -0.941689 0.916710 40.000000 11 361.637208
-0.841510 -0.931321 0.743317 40.000000 9 361.637211
-0.827449 -0.915438 0.586878 39.000000 7 361.637213
-0.814249 -0.900519 0.446569 33.000000 5 361.637216
-0.790692 -0.874466 0.315301 11.000000 3 361.637218
-0.784920 -0.867778 0.197791 12.000000 1 361.637221
-0.882486 -0.973941 1.251317 40.000000 14 361.637229
-0.859385 -0.948443 1.015479 40.000000 12 361.637231
-0.846657 -0.934068 0.826141 44.000000 10 361.637234
-0.842003 -0.928930 0.667038 49.000000 8 361.637236
-0.828312 -0.913505 0.518083 39.000000 6 361.637239
-0.803438 -0.885761 0.379143 23.000000 4 361.637241
-0.791921 -0.872759 0.256377 10.000000 2 361.637244
-0.802342 -0.883933 0.141831 24.000000 0 361.637247
-0.035048 -0.026820 3.504140 17.000000 31 361.637257
-0.345368 -0.360963 3.176367 26.000000 28 361.637260
-0.442232 -0.461094 3.095044 28.000000 27 361.637262
-0.614471 -0.666285 2.942989 33.000000 25 361.637265
-0.844635 -0.925997 3.012270 29.000000 23 361.637267
-1.023650 -1.122635 2.850349 25.000000 21 361.637270
-0.967422 -1.060968 2.181409 34.000000 19 361.637272
-0.930119 -1.020055 1.728809 38.000000 17 361.637275
-0.150597 -0.143223 3.423673 26.000000 30 361.637283
-0.253822 -0.253257 3.295859 28.000000 29 361.637285
-0.527206 -0.563856 3.007472 31.000000 26 361.637288
-0.698417 -0.763292 2.867695 19.000000 24 361.637290
-0.995498 -1.088702 2.483193 32.000000 20 361.637295
-0.949579 -1.038481 1.937418 38.000000 18 361.637298
-0.913416 -0.999279 1.545960 38.000000 16 361.637301
-0.900184 -0.989648 1.394457 39.000000 15 361.637258
-0.874323 -0.961213 1.129737 39.000000 13 361.637261
-0.854156 -0.938713 0.916710 40.000000 11 361.637263
-0.847737 -0.931655 0.745636 40.000000 9 361.637266
-0.830480 -0.912689 0.586878 39.000000 7 361.637269
-0.817230 -0.897813 0.446569 33.000000 5 361.637271
-0.793739 -0.871701 0.315301 11.000000 3 361.637274
-0.787944 -0.865033 0.197791 12.000000 1 361.637276
-0.885881 -0.970855 1.251317 40.000000 14 361.637284
-0.862691 -0.945437 1.015479 40.000000 12 361.637287
-0.852656 -0.934440 0.828674 42.000000 10 361.637289
-0.845079 -0.926132 0.667038 47.000000 8 361.637292
-0.834521 -0.914241 0.519725 39.000000 6 361.637294
-0.809648 -0.886682 0.380315 23.000000 4 361.637297
-0.794811 -0.870128 0.256377 10.000000 2 361.637299
-0.805268 -0.881267 0.141831 24.000000 0 361.637302
-0.035136 -0.026704 3.504140 17.000000 31 361.637313
-0.346024 -0.359257 3.171428 27.000000 28 361.637315
-0.443758 -0.459624 3.095044 28.000000 27 361.637318
-0.615661 -0.663149 2.938217 33.000000 25 361.637320
-0.843737 -0.918875 2.998463 30.000000 23 361.637323
-1.028987 -1.120999 2.854738 24.000000 21 361.637325
-0.970935 -1.057754 2.181409 35.000000 19 361.637328
-0.935665 -1.019327 1.732646 37.000000 17 361.637330
-0.151096 -0.142696 3.423673 26.000000 30 361.637338
-0.254324 -0.251995 3.290887 28.000000 29 361.637341
-0.528308 -0.561097 3.002632 31.000000 26 361.637343
-0.701077 -0.760850 2.867695 20.000000 24 361.637346
-1.000870 -1.087313 2.487459 32.000000 20 361.637351
-0.953018 -1.035326 1.937418 37.000000 18 361.637354
-0.916899 -0.996084 1.545960 38.000000 16 361.637356
-0.905869 -0.989287 1.397961 39.000000 15 361.637314
-0.880135 -0.961180 1.132874 39.000000 13 361.637316
-0.860089 -0.938959 0.919451 40.000000 11 361.637319
-0.850822 -0.928839 0.745636 40.000000 9 361.637321
-0.833661 -0.909785 0.586878 39.000000 7 361.637324
-0.823601 -0.898492 0.447978 33.000000 5 361.637327
-0.796626 -0.869064 0.315301 11.000000 3 361.637329
-0.794174 -0.866086 0.198237 13.000000 1 361.637332
-0.891621 -0.970662 1.254642 40.000000 14 361.637339
-0.868556 -0.945548 1.018422 40.000000 12 361.637342
-0.855913 -0.931458 0.828674 40.000000 10 361.637345
-0.848307 -0.923177 0.667038 47.000000 8 361.637347
-0.837707 -0.911323 0.519725 39.000000 6 361.637350
-0.812738 -0.883850 0.380315 23.000000 4 361.637352
-0.801196 -0.870993 0.257067 10.000000 2 361.637355
-0.808340 -0.878451 0.141831 24.000000 0 361.637357
-0.035229 -0.026581 3.504140 17.000000 31 361.637368
-0.347276 -0.358046 3.171428 30.000000 28 361.637371
-0.444650 -0.457343 3.090149 27.000000 27 361.637373
-0.616952 -0.659905 2.933445 33.000000 25 361.637376
-0.845613 -0.914489 2.993860 32.000000 23 361.637378
-1.032894 -1.117401 2.854738 24.000000 21 361.637381
-0.976531 -1.056424 2.185542 34.000000 19 361.637383
-0.939217 -1.016055 1.732646 38.000000 17 361.637386
-0.151381 -0.141971 3.418681 26.000000 30 361.637394
-0.254821 -0.250732 3.285916 27.000000 29 361.637396
-0.529398 -0.558337 2.997793 31.000000 26 361.637399
-0.704903 -0.759663 2.872388 21.000000 24 361.637401
-0.928069 -1.000847 2.884787 3.000000 22 361.637404
-1.006432 -1.085726 2.491725 31.000000 20 361.637407
-0.958675 -1.034203 1.941408 37.000000 18 361.637409
-0.922675 -0.995364 1.549635 38.000000 16 361.637412
-0.909317 -0.986119 1.397961 38.000000 15 361.637369
-0.883485 -0.958101 1.132874 39.000000 13 361.637372
-0.863361 -0.935951 0.919451 40.000000 11 361.637374
-0.854059 -0.925863 0.745636 40.000000 9 361.637377
-0.839975 -0.910276 0.588751 39.000000 7 361.637380
-0.826732 -0.895611 0.447978 33.000000 5 361.637382
-0.799655 -0.866278 0.315301 11.000000 3 361.637385
-0.797192 -0.863308 0.198237 12.000000 1 361.637387
-0.895004 -0.967544 1.254642 40.000000 14 361.637395
-0.871851 -0.942510 1.018422 40.000000 12 361.637398
-0.862087 -0.931629 0.831206 40.000000 10 361.637400
-0.854606 -0.923541 0.669136 49.000000 8 361.637403
-0.840883 -0.908393 0.519725 39.000000 6 361.637405
-0.815819 -0.881008 0.380315 23.000000 4 361.637408
-0.807597 -0.871824 0.257756 9.000000 2 361.637410
-0.814797 -0.879289 0.142033 25.000000 0 361.637413
-0.035359 -0.026481 3.509140 17.000000 31 361.637424
-0.347980 -0.356277 3.166488 30.000000 28 361.637426
-0.446243 -0.455788 3.090149 27.000000 27 361.637429
-0.618228 -0.656660 2.928674 33.000000 25 361.637431
-0.846137 -0.908673 2.984655 32.000000 23 361.637434
-1.038420 -1.115542 2.859126 24.000000 21 361.637436
-0.982130 -1.055069 2.189675 34.000000 19 361.637439
-0.944943 -1.015116 1.736482 38.000000 17 361.637441
-0.151876 -0.141442 3.418681 26.000000 30 361.637449
-0.255695 -0.249841 3.285916 27.000000 29 361.637452
-0.531344 -0.556485 2.997793 31.000000 26 361.637454
-0.707550 -0.757197 2.872388 21.000000 24 361.637457
-0.922812 -0.987891 2.857782 3.000000 22 361.637459
-1.010405 -1.082030 2.491725 31.000000 20 361.637462
-0.962459 -1.030683 1.941408 37.000000 18 361.637465
-0.926317 -0.991976 1.549635 38.000000 16 361.637467
-0.915181 -0.985553 1.401466 38.000000 15 361.637425
-0.889472 -0.957864 1.136012 39.000000 13 361.637427
-0.869469 -0.935995 0.922193 40.000000 11 361.637430
-0.857286 -0.922876 0.745636 40.000000 9 361.637433
-0.843148 -0.907339 0.588751 39.000000 7 361.637435
-0.829854 -0.892720 0.447978 33.000000 5 361.637438
-0.806169 -0.866938 0.316234 11.000000 3 361.637440
-0.803743 -0.864027 0.198683 11.000000 1 361.637443
-0.901090 -0.966989 1.257967 40.000000 14 361.637451
-0.878055 -0.942266 1.021366 40.000000 12 361.637453
-0.865496 -0.928463 0.831206 40.000000 10 361.637456
-0.857986 -0.920403 0.669136 49.000000 8 361.637458
-0.847428 -0.908759 0.521368 39.000000 6 361.637461
-0.822358 -0.881566 0.381488 24.000000 4 361.637463
-0.814166 -0.872479 0.258446 9.000000 2 361.637466
-0.817861 -0.876439 0.142033 24.000000 0 361.637468
-0.035419 -0.026328 3.504140 17.000000 31 361.637479
-0.348738 -0.354445 3.161549 30.000000 28 361.637482
-0.447195 -0.453425 3.085254 28.000000 27 361.637484
-0.620630 -0.654390 2.928674 33.000000 25 361.637487
-0.846789 -0.902715 2.975450 32.000000 23 361.637489
-1.044141 -1.113476 2.863515 25.000000 21 361.637492
-0.987916 -1.053515 2.193808 34.000000 19 361.637494
-0.950850 -1.013985 1.740319 38.000000 17 361.637497
-0.152393 -0.140884 3.418681 26.000000 30 361.637505
-0.256225 -0.248531 3.280944 28.000000 29 361.637507
-0.532508 -0.553628 2.992954 31.000000 26 361.637510
-0.711504 -0.755856 2.877080 21.000000 24 361.637512
-0.950129 -1.010043 2.929795 3.000000 22 361.637515
-1.015962 -1.080396 2.495991 31.000000 20 361.637518
-0.968116 -1.029512 1.945397 37.000000 18 361.637520
-0.932097 -0.991206 1.553310 38.000000 16 361.637523
-0.918787 -0.982192 1.401466 38.000000 15 361.637480
-0.892977 -0.954598 1.136012 39.000000 13 361.637483
-0.872894 -0.932802 0.922193 40.000000 11 361.637485
-0.863690 -0.922963 0.747954 40.000000 9 361.637488
-0.849636 -0.907627 0.590624 40.000000 7 361.637491
-0.833120 -0.889673 0.447978 33.000000 5 361.637493
-0.812548 -0.867705 0.317166 11.000000 3 361.637496
-0.806754 -0.861216 0.198683 11.000000 1 361.637498
-0.904460 -0.963838 1.257967 40.000000 14 361.637506
-0.881339 -0.939195 1.021366 40.000000 12 361.637509
-0.871682 -0.928579 0.833738 44.000000 10 361.637511
-0.864300 -0.920711 0.671234 47.000000 8 361.637514
-0.850595 -0.905795 0.521368 39.000000 6 361.637516
-0.825430 -0.878690 0.381488 24.000000 4 361.637519
-0.817206 -0.869632 0.258446 9.000000 2 361.637521
-0.824490 -0.877076 0.142234 24.000000 0 361.637524
-0.035510 -0.026204 3.504140 17.000000 31 361.637535
-0.349426 -0.352674 3.156610 31.000000 28 361.637537
-0.448058 -0.451139 3.080359 28.000000 27 361.637540
-0.621879 -0.651139 2.923902 33.000000 25 361.637542
-0.847252 -0.896914 2.966245 32.000000 23 361.637545
-1.049666 -1.111566 2.867904 25.000000 21 361.637547
-0.993519 -1.052106 2.197941 34.000000 19 361.637550
-0.956585 -1.012990 1.744156 37.000000 17 361.637553
-0.152670 -0.140157 3.413689 27.000000 30 361.637560
-0.257091 -0.247635 3.280944 28.000000 29 361.637563
-0.534437 -0.551766 2.992954 31.000000 26 361.637565
-0.714138 -0.753367 2.877080 20.000000 24 361.637568
-0.932681 -0.984586 2.866784 3.000000 22 361.637571
-1.021520 -1.078737 2.500257 31.000000 20 361.637573
-0.971704 -1.026127 1.945397 37.000000 18 361.637576
-0.937882 -0.990408 1.556985 38.000000 16 361.637578
-0.924655 -0.981574 1.404970 39.000000 15 361.637536
-0.898973 -0.954308 1.139150 39.000000 13 361.637538
-0.879012 -0.932792 0.924934 40.000000 11 361.637541
-0.866906 -0.919942 0.747954 40.000000 9 361.637544
-0.852799 -0.904655 0.590624 40.000000 7 361.637546
-0.836221 -0.886759 0.447978 33.000000 5 361.637549
-0.815572 -0.864863 0.317166 12.000000 3 361.637551
-0.813173 -0.862017 0.199129 11.000000 1 361.637554
-0.910384 -0.963389 1.261292 40.000000 14 361.637562
-0.887388 -0.939050 1.024309 40.000000 12 361.637564
-0.874918 -0.925531 0.833738 44.000000 10 361.637567
-0.867508 -0.917689 0.671234 47.000000 8 361.637569
-0.853751 -0.902820 0.521368 39.000000 6 361.637572
-0.828492 -0.875803 0.381488 24.000000 4 361.637574
-0.823641 -0.870371 0.259136 9.000000 2 361.637577
-0.827546 -0.874192 0.142234 24.000000 0 361.637579
-0.035564 -0.026058 3.499140 17.000000 31 361.637590
-0.350655 -0.351453 3.156610 31.000000 28 361.637593
-0.449630 -0.449573 3.080359 28.000000 27 361.637595
-0.623113 -0.647888 2.919130 34.000000 25 361.637598
-0.847684 -0.891120 2.957040 28.000000 23 361.637600
-1.056841 -1.111368 2.876681 25.000000 21 361.637603
-0.999125 -1.050671 2.202074 34.000000 19 361.637605
-0.960115 -1.009645 1.744156 37.000000 17 361.637608
-0.153158 -0.139623 3.413689 26.000000 30 361.637616
-0.257567 -0.246368 3.275973 28.000000 29 361.637618
-0.535481 -0.548997 2.988115 31.000000 26 361.637621
-0.720338 -0.754615 2.891159 21.000000 24 361.637623
-0.942125 -0.987628 2.884787 4.000000 22 361.637626
-1.028879 -1.078939 2.508789 31.000000 20 361.637629
-0.977360 -1.024910 1.949387 37.000000 18 361.637631
-0.941333 -0.987128 1.556985 38.000000 16 361.637634
-0.928076 -0.978341 1.404970 39.000000 15 361.637591
-0.902299 -0.951165 1.139150 39.000000 13 361.637594
-0.882263 -0.929718 0.924934 40.000000 11 361.637597
-0.873162 -0.920124 0.750272 40.000000 9 361.637599
-0.859143 -0.905035 0.592497 40.000000 7 361.637602
-0.842614 -0.887313 0.449387 33.000000 5 361.637604
-0.821969 -0.865573 0.318099 12.000000 3 361.637607
-0.816177 -0.859173 0.199129 11.000000 1 361.637609
-0.916316 -0.962910 1.264617 40.000000 14 361.637617
-0.890661 -0.935947 1.024309 40.000000 12 361.637620
-0.881116 -0.925594 0.836271 44.000000 10 361.637622
-0.870706 -0.914655 0.671234 47.000000 8 361.637625
-0.856898 -0.899835 0.521368 39.000000 6 361.637627
-0.834897 -0.876425 0.382660 24.000000 4 361.637630
-0.826674 -0.867490 0.259136 9.000000 2 361.637632
-0.830593 -0.871298 0.142234 23.000000 0 361.637635
-0.035655 -0.025933 3.499140 17.000000 31 361.637646
-0.351328 -0.349679 3.151671 30.000000 28 361.637648
-0.450473 -0.447283 3.075463 28.000000 27 361.637651
-0.624331 -0.644637 2.914358 33.000000 25 361.637653
-0.848087 -0.885334 2.947835 28.000000 23 361.637656
-1.062371 -1.109402 2.881070 24.000000 21 361.637658
-1.004732 -1.049209 2.206207 34.000000 19 361.637661
-0.965851 -1.008603 1.747993 37.000000 17 361.637664
-0.153645 -0.139087 3.413689 26.000000 30 361.637671
-0.258425 -0.245467 3.275973 28.000000 29 361.637674
-0.536513 -0.546227 2.983275 31.000000 26 361.637676
-0.728947 -0.758316 2.914623 22.000000 24 361.637679
-0.941041 -0.979622 2.871285 4.000000 22 361.637682
-1.034446 -1.077222 2.513055 31.000000 20 361.637684
-0.983019 -1.023666 1.953376 37.000000 18 361.637687
-0.947122 -0.986281 1.560661 38.000000 16 361.637689
-0.933948 -0.977674 1.408475 38.000000 15 361.637647
-0.905614 -0.948009 1.139150 39.000000 13 361.637649
-0.885503 -0.926633 0.924934 40.000000 11 361.637652
-0.876368 -0.917071 0.750272 40.000000 9 361.637655
-0.862297 -0.902031 0.592497 40.000000 7 361.637657
-0.845706 -0.884367 0.449387 34.000000 5 361.637660
-0.828380 -0.866249 0.319031 12.000000 3 361.637662
-0.819171 -0.856319 0.199129 12.000000 1 361.637665
-0.919671 -0.959706 1.264617 40.000000 14 361.637673
-0.896719 -0.935751 1.027252 40.000000 12 361.637675
-0.884342 -0.922513 0.836271 44.000000 10 361.637678
-0.877034 -0.914886 0.673332 47.000000 8 361.637680
-0.860033 -0.896838 0.521368 39.000000 6 361.637683
-0.837951 -0.873506 0.382660 25.000000 4 361.637685
-0.829697 -0.864599 0.259136 8.000000 2 361.637688
-0.833629 -0.868394 0.142234 23.000000 0 361.637691
-0.035745 -0.025809 3.499140 17.000000 31 361.637701
-0.351994 -0.347904 3.146731 30.000000 28 361.637704
-0.451306 -0.444994 3.070568 28.000000 27 361.637706
-0.625535 -0.641384 2.909587 33.000000 25 361.637709
-0.848459 -0.879556 2.938630 32.000000 23 361.637711
-1.067901 -1.107412 2.885458 22.000000 21 361.637714
-1.010342 -1.047721 2.210340 35.000000 19 361.637717
-0.969365 -1.005225 1.747993 37.000000 17 361.637719
-0.154105 -0.138577 3.413689 26.000000 30 361.637727
-0.259238 -0.244609 3.275973 27.000000 29 361.637729
-0.537436 -0.543551 2.978436 31.000000 26 361.637732
-0.742258 -0.767055 2.956857 23.000000 24 361.637735
-0.944455 -0.976331 2.871285 4.000000 22 361.637737
-1.040013 -1.075480 2.517321 31.000000 20 361.637740
-0.988681 -1.022395 1.957366 37.000000 18 361.637742
-0.952743 -0.985572 1.564336 38.000000 16 361.637745
-0.937355 -0.974408 1.408475 38.000000 15 361.637702
-0.911616 -0.947648 1.142288 39.000000 13 361.637705
-0.891631 -0.926549 0.927676 40.000000 11 361.637708
-0.882636 -0.917198 0.752590 39.000000 9 361.637710
-0.865283 -0.899166 0.592497 40.000000 7 361.637713
-0.848634 -0.881557 0.449387 34.000000 5 361.637715
-0.831399 -0.863352 0.319031 12.000000 3 361.637718
-0.822155 -0.853455 0.199129 12.000000 1 361.637720
-0.925609 -0.959177 1.267941 40.000000 14 361.637728
-0.899980 -0.932615 1.027252 40.000000 12 361.637731
-0.887396 -0.919575 0.836271 45.000000 10 361.637733
-0.880063 -0.911973 0.673332 47.000000 8 361.637736
-0.863003 -0.893981 0.521368 39.000000 6 361.637738
-0.840843 -0.870722 0.382660 25.000000 4 361.637741
-0.832560 -0.861843 0.259136 9.000000 2 361.637743
-0.836504 -0.865624 0.142234 24.000000 0 361.637746
-0.035831 -0.025690 3.499140 17.000000 31 361.637757
-0.353146 -0.346735 3.146731 30.000000 28 361.637759
-0.452052 -0.442783 3.065673 29.000000 27 361.637762
-0.626612 -0.638241 2.904815 32.000000 25 361.637764
-0.855454 -0.880942 2.952438 38.000000 23 361.637767
-1.073236 -1.105583 2.889847 22.000000 21 361.637769
-1.015771 -1.046384 2.214473 35.000000 19 361.637772
-0.974927 -1.004306 1.751830 37.000000 17 361.637775
-0.154588 -0.138038 3.413689 25.000000 30 361.637782
-0.259700 -0.243338 3.271002 27.000000 29 361.637785
-0.539330 -0.541671 2.978436 31.000000 26 361.637787
-0.754566 -0.774347 2.994400 24.000000 24 361.637790
-0.949376 -0.974588 2.875785 4.000000 22 361.637793
-1.045580 -1.073711 2.521587 31.000000 20 361.637795
-0.994347 -1.021097 1.961355 37.000000 18 361.637798
-0.956349 -0.982074 1.564336 39.000000 16 361.637800
-0.943062 -0.973856 1.411979 38.000000 15 361.637758
-0.914754 -0.944619 1.142288 39.000000 13 361.637761
-0.894699 -0.923588 0.927676 40.000000 11 361.637763
-0.885672 -0.914266 0.752590 39.000000 9 361.637766
-0.868417 -0.896140 0.592497 40.000000 7 361.637768
-0.855045 -0.882034 0.450796 33.000000 5 361.637771
-0.837827 -0.863971 0.319964 12.000000 3 361.637773
-0.825129 -0.850579 0.199129 12.000000 1 361.637776
-0.928951 -0.955940 1.267941 40.000000 14 361.637784
-0.906047 -0.932366 1.030195 40.000000 12 361.637786
-0.890760 -0.916316 0.836271 42.000000 10 361.637789
-0.883400 -0.908741 0.673332 47.000000 8 361.637791
-0.866274 -0.890812 0.521368 39.000000 6 361.637794
-0.844029 -0.867634 0.382660 25.000000 4 361.637796
-0.839166 -0.862335 0.259826 9.000000 2 361.637799
-0.839521 -0.862699 0.142234 23.000000 0 361.637802
-0.035925 -0.025559 3.499140 17.000000 31 361.637812
-0.353857 -0.344897 3.141792 30.000000 28 361.637815
-0.453671 -0.441123 3.065673 29.000000 27 361.637817
-0.627897 -0.634878 2.900043 32.000000 25 361.637820
-0.861410 -0.880594 2.961643 20.000000 23 361.637822
-1.078956 -1.103355 2.894236 24.000000 21 361.637825
-1.021567 -1.044666 2.218606 34.000000 19 361.637828
-0.980842 -1.003018 1.755667 37.000000 17 361.637830
-0.154875 -0.137280 3.408698 25.000000 30 361.637838
-0.260590 -0.242385 3.271002 27.000000 29 361.637840
-0.540421 -0.538803 2.973597 31.000000 26 361.637843
-0.770697 -0.785122 3.046020 30.000000 24 361.637846
-0.952773 -0.971268 2.875785 4.000000 22 361.637848
-1.049322 -1.070055 2.521587 31.000000 20 361.637851
-0.997905 -1.017620 1.961355 37.000000 18 361.637853
-0.962145 -0.981150 1.568011 39.000000 16 361.637856
-0.946625 -0.970393 1.411979 39.000000 15 361.637813
-0.920928 -0.944047 1.145425 39.000000 13 361.637816
-0.900998 -0.923295 0.930417 40.000000 11 361.637819
-0.892112 -0.914185 0.754908 39.000000 9 361.637821
-0.874934 -0.896269 0.594370 40.000000 7 361.637824
-0.858273 -0.878894 0.450796 33.000000 5 361.637826
-0.840838 -0.861041 0.319964 12.000000 3 361.637829
-0.828093 -0.847694 0.199129 12.000000 1 361.637831
-0.934894 -0.955361 1.271266 40.000000 14 361.637839
-0.909296 -0.929198 1.030195 40.000000 12 361.637842
-0.896970 -0.916282 0.838803 42.000000 10 361.637844
-0.889742 -0.908895 0.675431 49.000000 8 361.637847
-0.872682 -0.891157 0.523011 39.000000 6 361.637849
-0.847052 -0.864683 0.382660 25.000000 4 361.637852
-0.842171 -0.859401 0.259826 8.000000 2 361.637855
-0.842677 -0.859616 0.142234 20.000000 0 361.637857
-0.036014 -0.025433 3.499140 17.000000 31 361.637868
-0.355059 -0.343659 3.141792 30.000000 28 361.637870
-0.454476 -0.438830 3.060778 28.000000 27 361.637873
-0.629055 -0.631624 2.895272 32.000000 25 361.637875
-1.084481 -1.101289 2.898624 24.000000 21 361.637881
-1.027182 -1.043099 2.222739 34.000000 19 361.637883
-0.986587 -1.001872 1.759504 37.000000 17 361.637886
-0.155353 -0.136739 3.408698 26.000000 30 361.637893
-0.261435 -0.241474 3.271002 27.000000 29 361.637896
-0.541405 -0.536029 2.968758 31.000000 26 361.637899
-0.777073 -0.786109 3.060098 32.000000 24 361.637901
-0.956157 -0.967936 2.875785 4.000000 22 361.637904
-1.054883 -1.068241 2.525852 31.000000 20 361.637906
-1.003569 -1.016275 1.965345 37.000000 18 361.637909
-0.967946 -0.980198 1.571686 38.000000 16 361.637911
-0.950007 -0.967083 1.411979 38.000000 15 361.637869
-0.924218 -0.940827 1.145425 39.000000 13 361.637872
-0.904216 -0.920144 0.930417 40.000000 11 361.637874
-0.895297 -0.911065 0.754908 40.000000 9 361.637877
-0.878057 -0.893209 0.594370 40.000000 7 361.637879
-0.864699 -0.879313 0.452206 34.000000 5 361.637882
-0.847283 -0.861603 0.320897 12.000000 3 361.637884
-0.831047 -0.844798 0.199129 12.000000 1 361.637887
-0.938223 -0.952091 1.271266 40.000000 14 361.637895
-0.915371 -0.928897 1.033138 42.000000 12 361.637897
-0.900162 -0.913146 0.838803 44.000000 10 361.637900
-0.892909 -0.905784 0.675431 49.000000 8 361.637902
-0.875787 -0.888105 0.523011 39.000000 6 361.637905
-0.850065 -0.861721 0.382660 26.000000 4 361.637907
-0.845166 -0.856456 0.259826 8.000000 2 361.637910
-0.842163 -0.853114 0.142033 18.000000 0 361.637913
-0.036102 -0.025307 3.499140 16.000000 31 361.637924
-0.356256 -0.342418 3.141792 30.000000 28 361.637927
-0.455269 -0.436536 3.055882 28.000000 27 361.637929
-0.632314 -0.630479 2.900043 31.000000 25 361.637932
-1.091693 -1.100899 2.907402 23.000000 21 361.637937
-1.030817 -1.039507 2.222739 34.000000 19 361.637939
-0.990078 -0.998422 1.759504 37.000000 17 361.637942
-0.155610 -0.136006 3.403706 27.000000 30 361.637950
-0.261882 -0.240200 3.266030 27.000000 29 361.637952
-0.542375 -0.533254 2.963918 31.000000 26 361.637955
-0.778595 -0.782169 3.055406 32.000000 24 361.637957
-0.961066 -0.966137 2.880286 4.000000 22 361.637960
-1.058605 -1.064553 2.525852 31.000000 20 361.637962
-1.009235 -1.014902 1.969334 37.000000 18 361.637965
-0.971362 -0.976813 1.571686 38.000000 16 361.637968
-0.955885 -0.966296 1.415484 38.000000 15 361.637925
-0.930234 -0.940362 1.148563 39.000000 13 361.637928
-0.910363 -0.919954 0.933159 40.000000 11 361.637930
-0.898472 -0.907934 0.754908 42.000000 9 361.637933
-0.884431 -0.893433 0.596243 40.000000 7 361.637936
-0.867763 -0.876290 0.452206 34.000000 5 361.637938
-0.850285 -0.858640 0.320897 12.000000 3 361.637941
-0.837496 -0.845430 0.199576 12.000000 1 361.637943
-0.944172 -0.951461 1.274591 40.000000 14 361.637951
-0.918608 -0.925697 1.033138 40.000000 12 361.637954
-0.906382 -0.913058 0.841336 44.000000 10 361.637956
-0.899263 -0.905882 0.677529 47.000000 8 361.637959
-0.882210 -0.888394 0.524653 39.000000 6 361.637961
-0.853068 -0.858748 0.382660 26.000000 4 361.637964
-0.848151 -0.853500 0.259826 9.000000 2 361.637966
-0.845136 -0.850169 0.142033 16.000000 0 361.637969
-0.036228 -0.025203 3.504140 16.000000 31 361.637980
-0.356887 -0.340636 3.136853 30.000000 28 361.637982
-0.456790 -0.434945 3.055882 28.000000 27 361.637985
-0.634511 -0.628268 2.900043 28.000000 25 361.637987
-1.097222 -1.098777 2.911790 23.000000 21 361.637992
-1.036427 -1.037894 2.226871 34.000000 19 361.637995
-0.995823 -0.997229 1.763341 37.000000 17 361.637997
-0.156084 -0.135462 3.403706 26.000000 30 361.638005
-0.262718 -0.239284 3.266030 26.000000 29 361.638008
-0.543333 -0.530479 2.959080 31.000000 26 361.638010
-0.778877 -0.777008 3.046020 32.000000 24 361.638013
-0.964433 -0.962776 2.880286 4.000000 22 361.638015
-1.064160 -1.062694 2.530118 31.000000 20 361.638018
-1.012772 -1.011373 1.969334 37.000000 18 361.638021
-0.977164 -0.975812 1.575361 38.000000 16 361.638023
-0.959252 -0.962953 1.415484 38.000000 15 361.637981
-0.933511 -0.937109 1.148563 39.000000 13 361.637983
-0.913569 -0.916771 0.933159 40.000000 11 361.637986
-0.904763 -0.907930 0.757226 40.000000 9 361.637988
-0.890818 -0.893624 0.598116 40.000000 7 361.637991
-0.874204 -0.876652 0.453615 34.000000 5 361.637994
-0.853277 -0.855667 0.320897 13.000000 3 361.637996
-0.840442 -0.842502 0.199576 11.000000 1 361.637999
-0.947487 -0.948160 1.274591 40.000000 14 361.638006
-0.924690 -0.925344 1.036081 40.000000 12 361.638009
-0.909563 -0.909888 0.841336 44.000000 10 361.638012
-0.902419 -0.902738 0.677529 45.000000 8 361.638014
-0.885305 -0.885309 0.524653 39.000000 6 361.638017
-0.856061 -0.855765 0.382660 26.000000 4 361.638019
-0.851125 -0.850534 0.259826 9.000000 2 361.638022
-0.851633 -0.850745 0.142234 16.000000 0 361.638024
-0.036316 -0.025076 3.504140 15.000000 31 361.638035
-0.358074 -0.339388 3.136853 30.000000 28 361.638038
-0.457565 -0.432648 3.050987 28.000000 27 361.638040
-0.636700 -0.626049 2.900043 20.000000 25 361.638043
-0.866693 -0.861594 2.938630 2.000000 23 361.638045
-1.102750 -1.096630 2.916179 23.000000 21 361.638048
-1.042039 -1.036254 2.231004 34.000000 19 361.638050
-1.001571 -0.996007 1.767178 37.000000 17 361.638053
-0.156556 -0.134916 3.403706 25.000000 30 361.638061
-0.263552 -0.238366 3.266030 26.000000 29 361.638063
-0.544278 -0.527704 2.954240 31.000000 26 361.638066
-0.780358 -0.773070 3.041327 33.000000 24 361.638068
-0.969334 -0.960937 2.884787 4.000000 22 361.638071
-1.069715 -1.060809 2.534384 30.000000 20 361.638074
-1.018436 -1.009954 1.973324 36.000000 18 361.638076
-0.982972 -0.974782 1.579036 39.000000 16 361.638079
-0.965133 -0.962117 1.418988 38.000000 15 361.638036
-0.939533 -0.936593 1.151701 39.000000 13 361.638039
-0.919725 -0.916528 0.935900 40.000000 11 361.638041
-0.907927 -0.904767 0.757226 40.000000 9 361.638044
-0.893931 -0.890509 0.598116 40.000000 7 361.638047
-0.877259 -0.873595 0.453615 34.000000 5 361.638049
-0.856259 -0.852683 0.320897 13.000000 3 361.638052
-0.846907 -0.843076 0.200022 11.000000 1 361.638054
-0.953440 -0.947479 1.277916 40.000000 14 361.638062
-0.927915 -0.922110 1.036081 40.000000 12 361.638065
-0.915793 -0.909746 0.843868 44.000000 10 361.638067
-0.908785 -0.902781 0.679627 40.000000 8 361.638070
-0.888390 -0.882213 0.524653 39.000000 6 361.638072
-0.862492 -0.856196 0.383832 26.000000 4 361.638075
-0.854088 -0.847558 0.259826 9.000000 2 361.638077
-0.858144 -0.851285 0.142436 17.000000 0 361.638080
-0.036403 -0.024949 3.504140 15.000000 31 361.638091
-0.358690 -0.337604 3.131914 30.000000 28 361.638093
-0.459073 -0.431049 3.050987 28.000000 27 361.638096
-0.639950 -0.624866 2.904815 17.000000 25 361.638098
-0.862744 -0.851701 2.915617 11.000000 23 361.638101
-1.108276 -1.094457 2.920568 23.000000 21 361.638103
-1.047652 -1.034587 2.235137 34.000000 19 361.638106
-1.007323 -0.994757 1.771015 37.000000 17 361.638108
-0.157026 -0.134369 3.403706 25.000000 30 361.638116
-0.264383 -0.237444 3.266030 27.000000 29 361.638119
-0.545211 -0.524928 2.949401 31.000000 26 361.638121
-0.780591 -0.767921 3.031942 33.000000 24 361.638124
-0.972682 -0.957547 2.884787 4.000000 22 361.638126
-1.075270 -1.058899 2.538650 30.000000 20 361.638129
-1.024103 -1.008508 1.977313 37.000000 18 361.638132
-0.988784 -0.973724 1.582712 38.000000 16 361.638134
-0.971020 -0.961251 1.422493 38.000000 15 361.638092
-0.942797 -0.933308 1.151701 39.000000 13 361.638094
-0.925891 -0.916253 0.938642 40.000000 11 361.638097
-0.911079 -0.901592 0.757226 42.000000 9 361.638100
-0.900330 -0.890644 0.599989 40.000000 7 361.638102
-0.880303 -0.870528 0.453615 34.000000 5 361.638105
-0.859230 -0.849689 0.320897 13.000000 3 361.638107
-0.849845 -0.840115 0.200022 12.000000 1 361.638110
