# .PCD v.7 - Point Cloud Data file format
VERSION .7
FIELDS x y z intensity ring timestamp
SIZE 4 4 4 4 2 8
TYPE F F F F U D
COUNT 1 1 1 1 1 1
WIDTH 924
HEIGHT 1
VIEWPOINT 0 0 0 1 0 0 0
POINTS 924
DATA ascii
0.706876 -1.890597 2.492361 21.000000 17 361.819463
0.054947 -0.186284 3.189067 24.000000 30 361.819470
0.110986 -0.346000 3.340601 20.000000 29 361.819473
0.459741 -1.279226 5.267380 98.000000 26 361.819475
0.644271 -1.733251 5.082681 97.000000 24 361.819478
0.810931 -2.179312 4.869655 60.000000 22 361.819481
0.657577 -1.766248 3.152945 39.000000 20 361.819483
0.722316 -1.940148 2.815108 23.000000 18 361.819486
0.681721 -1.831114 2.196464 28.000000 16 361.819488
0.675542 -1.800089 1.969202 32.000000 15 361.819446
0.649396 -1.730426 1.572163 36.000000 13 361.819448
0.629277 -1.677705 1.259393 38.000000 11 361.819451
0.610396 -1.627373 0.995982 40.000000 9 361.819454
0.595891 -1.589545 0.774181 49.000000 7 361.819456
0.580821 -1.550170 0.576215 49.000000 5 361.819459
0.568761 -1.517982 0.399237 45.000000 3 361.819461
0.553567 -1.478214 0.234380 32.000000 1 361.819464
0.658449 -1.762956 1.756694 35.000000 14 361.819472
0.633071 -1.695016 1.401033 38.000000 12 361.819474
0.615781 -1.649598 1.119903 40.000000 10 361.819477
0.600353 -1.608276 0.881040 49.000000 8 361.819479
0.584565 -1.566816 0.670852 53.000000 6 361.819482
0.570667 -1.530381 0.484652 56.000000 4 361.819484
0.560295 -1.503367 0.315701 36.000000 2 361.819487
0.549239 -1.474489 0.157148 35.000000 0 361.819489
0.007371 -0.039365 3.034158 18.000000 31 361.819500
0.177111 -0.516680 3.472722 18.000000 28 361.819503
0.358566 -1.050826 5.361535 90.000000 27 361.819505
0.548370 -1.508785 5.176155 96.000000 25 361.819508
0.722571 -1.954352 4.968344 97.000000 23 361.819510
0.837130 -2.263011 4.487320 11.000000 21 361.819513
0.713906 -1.929901 3.094791 39.000000 19 361.819515
0.696936 -1.884033 2.480850 23.000000 17 361.819518
0.054217 -0.186196 3.184076 24.000000 30 361.819526
0.109618 -0.345876 3.335630 21.000000 29 361.819528
0.455694 -1.282008 5.272220 97.000000 26 361.819531
0.638216 -1.735489 5.082681 97.000000 24 361.819533
0.803319 -2.182130 4.869655 54.000000 22 361.819536
0.651408 -1.768532 3.152945 39.000000 20 361.819539
0.712415 -1.934173 2.803139 23.000000 18 361.819541
0.672982 -1.827121 2.189114 30.000000 16 361.819544
0.665530 -1.792407 1.958688 32.000000 15 361.819501
0.640642 -1.725384 1.565888 36.000000 13 361.819504
0.621962 -1.675971 1.256652 38.000000 11 361.819507
0.603170 -1.625340 0.993664 40.000000 9 361.819509
0.587114 -1.582922 0.770435 46.000000 7 361.819512
0.573739 -1.547690 0.574806 49.000000 5 361.819514
0.561752 -1.515352 0.398304 44.000000 3 361.819517
0.546673 -1.475468 0.233934 32.000000 1 361.819519
0.649703 -1.758238 1.750044 35.000000 14 361.819527
0.624349 -1.689632 1.395147 38.000000 12 361.819530
0.607031 -1.643649 1.114838 40.000000 10 361.819532
0.593163 -1.606104 0.878942 50.000000 8 361.819535
0.577457 -1.564416 0.669210 53.000000 6 361.819537
0.561957 -1.523243 0.482307 56.000000 4 361.819540
0.551617 -1.496020 0.314321 35.000000 2 361.819542
0.542362 -1.471710 0.156946 35.000000 0 361.819545
0.007233 -0.039390 3.034158 18.000000 31 361.819556
0.175057 -0.516559 3.467783 18.000000 28 361.819558
0.354896 -1.052071 5.361535 90.000000 27 361.819561
0.543606 -1.512095 5.180927 95.000000 25 361.819563
0.716416 -1.958698 4.972946 97.000000 23 361.819566
0.824285 -2.252420 4.460988 11.000000 21 361.819568
0.708132 -1.935024 3.098924 38.000000 19 361.819571
0.687050 -1.877422 2.469339 24.000000 17 361.819574
0.053567 -0.186384 3.184076 23.000000 30 361.819581
0.108410 -0.346257 3.335630 20.000000 29 361.819584
0.451216 -1.283591 5.272220 97.000000 26 361.819586
0.632744 -1.739328 5.087373 97.000000 24 361.819589
0.795697 -2.184921 4.869655 52.000000 22 361.819592
0.645231 -1.770795 3.152945 39.000000 20 361.819594
0.702563 -1.928152 2.791171 24.000000 18 361.819597
0.663118 -1.819903 2.178088 30.000000 16 361.819599
0.656810 -1.788024 1.951679 32.000000 15 361.819557
0.631931 -1.720301 1.559612 37.000000 13 361.819559
0.613226 -1.670282 1.251169 38.000000 11 361.819562
0.594439 -1.619119 0.989028 40.000000 9 361.819565
0.579988 -1.580610 0.768562 46.000000 7 361.819567
0.565030 -1.540675 0.571987 50.000000 5 361.819570
0.554767 -1.512692 0.397372 44.000000 3 361.819572
0.539806 -1.472691 0.233487 32.000000 1 361.819575
0.639715 -1.749973 1.740070 35.000000 14 361.819583
0.615672 -1.684209 1.389261 38.000000 12 361.819585
0.599811 -1.641708 1.112305 40.000000 10 361.819588
0.585995 -1.603902 0.876844 50.000000 8 361.819590
0.570372 -1.561987 0.667567 51.000000 6 361.819593
0.554970 -1.520630 0.481135 58.000000 4 361.819595
0.544695 -1.493284 0.313631 36.000000 2 361.819598
0.535510 -1.468900 0.156745 34.000000 0 361.819601
0.007099 -0.039459 3.039158 19.000000 31 361.819611
0.173007 -0.516430 3.462844 18.000000 28 361.819614
0.350899 -1.052337 5.356639 91.000000 27 361.819616
0.538324 -1.513984 5.180927 95.000000 25 361.819619
0.709574 -1.961186 4.972946 97.000000 23 361.819621
0.811525 -2.241768 4.434656 11.000000 21 361.819624
0.703289 -1.942776 3.107190 35.000000 19 361.819627
0.677219 -1.870766 2.457828 24.000000 17 361.819629
0.052871 -0.186282 3.179084 23.000000 30 361.819637
0.107104 -0.346104 3.330658 20.000000 29 361.819639
0.447370 -1.286269 5.277059 98.000000 26 361.819642
0.626973 -1.741416 5.087373 97.000000 24 361.819645
0.788065 -2.187685 4.869655 51.000000 22 361.819647
0.639045 -1.773037 3.152945 39.000000 20 361.819650
0.692763 -1.922087 2.779202 23.000000 18 361.819652
0.654779 -1.815713 2.170738 30.000000 16 361.819655
0.648129 -1.783602 1.944670 32.000000 15 361.819612
0.624592 -1.718838 1.556474 37.000000 13 361.819615
0.604537 -1.664551 1.245686 38.000000 11 361.819618
0.587272 -1.617019 0.986710 40.000000 9 361.819620
0.571579 -1.573810 0.764816 48.000000 7 361.819623
0.558281 -1.538031 0.570578 50.000000 5 361.819625
0.546133 -1.505384 0.395506 44.000000 3 361.819628
0.531267 -1.465203 0.232595 32.000000 1 361.819630
0.631063 -1.745172 1.733420 35.000000 14 361.819638
0.607040 -1.678745 1.383374 38.000000 12 361.819641
0.591431 -1.635579 1.107241 40.000000 10 361.819643
0.579130 -1.601568 0.874746 50.000000 8 361.819646
0.563584 -1.559428 0.665924 53.000000 6 361.819648
0.548273 -1.517890 0.479962 57.000000 4 361.819651
0.538058 -1.490425 0.312942 35.000000 2 361.819653
0.527245 -1.461269 0.156342 34.000000 0 361.819656
0.006968 -0.039482 3.039158 19.000000 31 361.819667
0.171293 -0.517001 3.462844 17.000000 28 361.819669
0.347089 -1.052528 5.351744 81.000000 27 361.819672
0.533301 -1.515761 5.180927 95.000000 25 361.819674
0.703725 -1.965368 4.977549 97.000000 23 361.819677
0.799239 -2.230914 4.408324 11.000000 21 361.819679
0.696842 -1.945097 3.107190 29.000000 19 361.819682
0.667768 -1.863947 2.446317 24.000000 17 361.819685
0.052220 -0.186465 3.179084 24.000000 30 361.819692
0.105895 -0.346475 3.330658 21.000000 29 361.819695
0.442877 -1.287822 5.277059 98.000000 26 361.819697
0.620891 -1.743594 5.087373 97.000000 24 361.819700
0.780424 -2.190422 4.869655 53.000000 22 361.819703
0.633728 -1.777713 3.157211 39.000000 20 361.819705
0.683013 -1.915976 2.767234 24.000000 18 361.819708
0.644705 -1.808521 2.159713 30.000000 16 361.819710
0.639797 -1.779030 1.937661 33.000000 15 361.819668
0.616254 -1.713573 1.550199 37.000000 13 361.819671
0.596185 -1.658677 1.240203 38.000000 11 361.819673
0.578909 -1.610620 0.982074 40.000000 9 361.819676
0.564514 -1.571432 0.762943 46.000000 7 361.819678
0.551287 -1.535455 0.569169 50.000000 5 361.819681
0.539216 -1.502657 0.394574 42.000000 3 361.819683
0.524468 -1.462361 0.232149 32.000000 1 361.819686
0.622452 -1.740332 1.726771 35.000000 14 361.819694
0.599815 -1.677048 1.380431 38.000000 12 361.819696
0.583982 -1.633677 1.104708 40.000000 10 361.819699
0.570201 -1.595133 0.870549 50.000000 8 361.819701
0.556276 -1.557036 0.664282 53.000000 6 361.819704
0.541072 -1.515312 0.478790 57.000000 4 361.819706
0.530928 -1.487723 0.312252 35.000000 2 361.819709
0.520462 -1.458396 0.156140 34.000000 0 361.819712
0.006823 -0.039507 3.039158 19.000000 31 361.819722
0.169156 -0.516887 3.457905 17.000000 28 361.819725
0.343229 -1.053793 5.351744 67.000000 27 361.819727
0.527741 -1.517705 5.180927 96.000000 25 361.819730
0.696517 -1.967934 4.977549 94.000000 23 361.819732
0.786258 -2.220279 4.381992 11.000000 21 361.819735
0.696284 -1.966207 3.136120 19.000000 19 361.819738
0.657721 -1.857316 2.434806 25.000000 17 361.819740
0.051569 -0.186646 3.179084 24.000000 30 361.819748
0.104532 -0.346332 3.325687 21.000000 29 361.819750
0.438379 -1.289360 5.277059 98.000000 26 361.819753
0.614801 -1.745751 5.087373 97.000000 24 361.819756
0.773497 -2.195187 4.874156 50.000000 22 361.819758
0.627519 -1.779914 3.157211 39.000000 20 361.819761
0.673315 -1.909821 2.755265 24.000000 18 361.819763
0.636449 -1.804255 2.152362 30.000000 16 361.819766
0.630883 -1.774642 1.930652 33.000000 15 361.819723
0.607361 -1.708484 1.543923 37.000000 13 361.819726
0.587302 -1.652971 1.234720 39.000000 11 361.819729
0.571519 -1.608557 0.979756 40.000000 9 361.819731
0.557473 -1.569025 0.761070 46.000000 7 361.819734
0.544319 -1.532849 0.567760 50.000000 5 361.819736
0.530681 -1.495272 0.392708 42.000000 3 361.819739
0.517695 -1.459489 0.231703 32.000000 1 361.819741
0.613883 -1.735453 1.720121 35.000000 14 361.819749
0.591262 -1.671510 1.374545 38.000000 12 361.819752
0.575685 -1.627475 1.099643 40.000000 10 361.819754
0.563395 -1.592736 0.868451 52.000000 8 361.819757
0.547962 -1.549967 0.660996 51.000000 6 361.819759
0.534424 -1.512515 0.477618 55.000000 4 361.819762
0.524342 -1.484805 0.311562 35.000000 2 361.819765
0.513705 -1.455492 0.155938 34.000000 0 361.819767
0.006692 -0.039530 3.039158 19.000000 31 361.819778
0.167441 -0.517445 3.457905 18.000000 28 361.819780
0.340668 -1.057833 5.366430 45.000000 27 361.819783
0.522706 -1.519447 5.180927 96.000000 25 361.819785
0.690633 -1.972077 4.982151 94.000000 23 361.819788
0.774930 -2.211569 4.360048 10.000000 21 361.819791
0.684177 -1.952570 3.111322 13.000000 19 361.819793
0.648378 -1.850410 2.423295 25.000000 17 361.819796
0.050917 -0.186825 3.179084 23.000000 30 361.819803
0.103322 -0.346694 3.325687 21.000000 29 361.819806
0.433876 -1.290883 5.277059 98.000000 26 361.819809
0.608703 -1.747887 5.087373 97.000000 24 361.819811
0.766213 -2.197740 4.874156 51.000000 22 361.819814
0.621613 -1.781986 3.157211 40.000000 20 361.819816
0.664000 -1.903506 2.743297 24.000000 18 361.819819
0.626797 -1.796862 2.141336 30.000000 16 361.819821
0.622628 -1.769996 1.923643 32.000000 15 361.819779
0.599109 -1.703144 1.537648 37.000000 13 361.819782
0.579044 -1.647020 1.229237 38.000000 11 361.819784
0.563243 -1.602084 0.975120 40.000000 9 361.819787
0.548919 -1.562214 0.757324 48.000000 7 361.819789
0.537376 -1.530214 0.566351 47.000000 5 361.819792
0.524092 -1.492388 0.391776 42.000000 3 361.819794
0.511203 -1.456499 0.231256 32.000000 1 361.819797
0.605657 -1.730429 1.713471 35.000000 14 361.819805
0.583045 -1.665832 1.368658 38.000000 12 361.819807
0.568577 -1.625405 1.097111 40.000000 10 361.819810
0.556333 -1.590409 0.866353 53.000000 8 361.819812
0.540990 -1.547413 0.659354 53.000000 6 361.819815
0.527538 -1.509783 0.476445 53.000000 4 361.819817
0.517523 -1.481951 0.310872 35.000000 2 361.819820
0.506975 -1.452560 0.155737 35.000000 0 361.819823
0.006554 -0.039553 3.039158 18.000000 31 361.819833
0.165398 -0.517286 3.452965 18.000000 28 361.819836
0.335740 -1.055135 5.346849 26.000000 27 361.819838
0.517399 -1.521262 5.180927 96.000000 25 361.819841
0.683745 -1.974476 4.982151 98.000000 23 361.819843
0.761715 -2.198414 4.329328 10.000000 21 361.819846
0.676435 -1.952288 3.107190 13.000000 19 361.819848
0.638766 -1.843574 2.411785 25.000000 17 361.819851
0.050265 -0.187002 3.179084 23.000000 30 361.819859
0.101962 -0.346540 3.320716 21.000000 29 361.819861
0.429367 -1.292389 5.277059 98.000000 26 361.819864
0.602598 -1.750001 5.087373 96.000000 24 361.819866
0.758537 -2.200401 4.874156 51.000000 22 361.819869
0.615389 -1.784145 3.157211 39.000000 20 361.819871
0.653420 -1.894415 2.727339 25.000000 18 361.819874
0.618310 -1.792630 2.133986 30.000000 16 361.819877
0.614102 -1.765422 1.916634 32.000000 15 361.819834
0.591881 -1.701548 1.534510 37.000000 13 361.819837
0.571918 -1.645081 1.226496 39.000000 11 361.819839
0.556192 -1.599856 0.972802 42.000000 9 361.819842
0.541941 -1.559741 0.755451 48.000000 7 361.819845
0.530457 -1.527548 0.564941 47.000000 5 361.819847
0.517268 -1.489568 0.390843 40.000000 3 361.819850
0.504483 -1.453570 0.230810 31.000000 1 361.819852
0.598392 -1.729004 1.710146 36.000000 14 361.819860
0.574583 -1.660217 1.362772 38.000000 12 361.819863
0.560082 -1.619231 1.092046 40.000000 10 361.819865
0.549294 -1.588052 0.864255 53.000000 8 361.819868
0.534042 -1.544828 0.657711 53.000000 6 361.819870
0.520678 -1.507021 0.475273 47.000000 4 361.819873
0.510731 -1.479068 0.310182 35.000000 2 361.819875
0.500272 -1.449598 0.155535 35.000000 0 361.819878
0.006416 -0.039575 3.039158 18.000000 31 361.819889
0.163591 -0.517860 3.452965 18.000000 28 361.819891
0.512561 -1.524475 5.185699 96.000000 25 361.819896
0.676849 -1.976850 4.982151 98.000000 23 361.819899
0.749378 -2.187461 4.302996 10.000000 21 361.819901
0.668705 -1.951975 3.103057 13.000000 19 361.819904
0.629210 -1.836694 2.400274 25.000000 17 361.819906
0.049539 -0.186896 3.174092 24.000000 30 361.819914
0.100752 -0.346894 3.320716 21.000000 29 361.819917
0.424853 -1.293880 5.277059 99.000000 26 361.819919
0.597042 -1.753727 5.092066 96.000000 24 361.819922
0.751554 -2.205097 4.878657 52.000000 22 361.819924
0.609157 -1.786282 3.157211 39.000000 20 361.819927
0.643885 -1.888127 2.715370 25.000000 18 361.819930
0.609861 -1.788360 2.126636 30.000000 16 361.819932
0.604457 -1.757438 1.906120 33.000000 15 361.819890
0.583406 -1.696242 1.528234 37.000000 13 361.819892
0.563453 -1.639159 1.221013 38.000000 11 361.819895
0.549164 -1.597598 0.970484 43.000000 9 361.819897
0.533481 -1.552855 0.751705 46.000000 7 361.819900
0.523564 -1.524853 0.563532 45.000000 5 361.819903
0.512066 -1.491365 0.390843 42.000000 3 361.819905
0.497790 -1.450611 0.230364 31.000000 1 361.819908
0.589935 -1.724016 1.703496 36.000000 14 361.819915
0.567475 -1.658388 1.359829 38.000000 12 361.819918
0.553031 -1.617097 1.089514 40.000000 10 361.819921
0.540810 -1.581371 0.860059 53.000000 8 361.819923
0.527119 -1.542214 0.656068 53.000000 6 361.819926
0.513843 -1.504230 0.474101 47.000000 4 361.819928
0.503965 -1.476155 0.309493 35.000000 2 361.819931
0.493595 -1.446607 0.155334 34.000000 0 361.819933
0.006275 -0.039554 3.034158 18.000000 31 361.819944
0.161551 -0.517686 3.448026 18.000000 28 361.819947
0.221297 -0.712210 3.609043 7.000000 27 361.819949
0.507237 -1.526255 5.185699 96.000000 25 361.819952
0.669944 -1.979201 4.982151 97.000000 23 361.819954
0.737127 -2.176448 4.276664 11.000000 21 361.819957
0.660984 -1.951632 3.098924 15.000000 19 361.819959
0.620738 -1.832806 2.392600 26.000000 17 361.819962
0.048887 -0.187068 3.174092 24.000000 30 361.819970
0.099394 -0.346730 3.315744 20.000000 29 361.819972
0.420722 -1.296552 5.281898 98.000000 26 361.819975
0.590917 -1.755800 5.092066 97.000000 24 361.819977
0.743852 -2.207707 4.878657 52.000000 22 361.819980
0.602918 -1.788397 3.157211 39.000000 20 361.819983
0.634402 -1.881795 2.703402 25.000000 18 361.819985
0.601448 -1.784052 2.119286 30.000000 16 361.819988
0.596022 -1.752785 1.899111 33.000000 15 361.819945
0.576228 -1.694582 1.525097 37.000000 13 361.819948
0.556383 -1.637157 1.218271 38.000000 11 361.819950
0.542159 -1.595310 0.968166 43.000000 9 361.819953
0.526566 -1.550318 0.749831 42.000000 7 361.819956
0.516696 -1.522129 0.562123 45.000000 5 361.819958
0.505278 -1.488492 0.389911 42.000000 3 361.819961
0.491123 -1.447624 0.229918 31.000000 1 361.819963
0.581520 -1.718989 1.696847 36.000000 14 361.819971
0.559092 -1.652701 1.353943 38.000000 12 361.819974
0.544621 -1.610849 1.084449 40.000000 10 361.819976
0.533834 -1.578950 0.857961 53.000000 8 361.819979
0.520221 -1.539571 0.654426 53.000000 6 361.819981
0.507034 -1.501409 0.472929 55.000000 4 361.819984
0.497225 -1.473213 0.308803 34.000000 2 361.819986
0.486946 -1.443588 0.155132 34.000000 0 361.819989
0.006137 -0.039576 3.034158 18.000000 31 361.820000
0.159515 -0.517505 3.443087 18.000000 28 361.820002
0.219108 -0.713952 3.613938 10.000000 27 361.820005
0.501906 -1.528016 5.185699 95.000000 25 361.820007
0.663032 -1.981527 4.982151 97.000000 23 361.820010
0.724962 -2.165377 4.250332 11.000000 21 361.820012
0.655954 -1.959264 3.107190 18.000000 19 361.820015
0.611283 -1.825842 2.381089 26.000000 17 361.820017
0.048233 -0.187237 3.174092 24.000000 30 361.820025
0.098183 -0.347075 3.315744 21.000000 29 361.820028
0.416194 -1.298012 5.281898 98.000000 26 361.820030
0.584784 -1.757853 5.092066 97.000000 24 361.820033
0.736830 -2.212356 4.883157 54.000000 22 361.820035
0.597497 -1.792965 3.161477 37.000000 20 361.820038
0.624971 -1.875420 2.691433 25.000000 18 361.820041
0.593073 -1.779709 2.111935 30.000000 16 361.820043
0.587627 -1.748094 1.892102 33.000000 15 361.820001
0.567829 -1.689203 1.518821 37.000000 13 361.820003
0.548001 -1.631161 1.212788 38.000000 11 361.820006
0.535176 -1.592994 0.965848 43.000000 9 361.820009
0.518200 -1.543357 0.746085 44.000000 7 361.820011
0.508327 -1.514827 0.559305 49.000000 5 361.820014
0.498516 -1.485589 0.388978 40.000000 3 361.820016
0.484483 -1.444608 0.229472 31.000000 1 361.820019
0.573147 -1.713926 1.690197 36.000000 14 361.820027
0.552038 -1.650810 1.350999 38.000000 12 361.820029
0.537628 -1.608652 1.081916 40.000000 10 361.820032
0.526880 -1.576499 0.855863 53.000000 8 361.820034
0.511851 -1.532419 0.651140 55.000000 6 361.820037
0.500251 -1.498559 0.471756 57.000000 4 361.820039
0.490513 -1.470242 0.308113 34.000000 2 361.820042
0.480323 -1.440539 0.154931 34.000000 0 361.820044
0.005997 -0.039553 3.029158 18.000000 31 361.820055
0.157708 -0.518058 3.443087 18.000000 28 361.820058
0.216320 -0.713738 3.609043 11.000000 27 361.820060
0.497030 -1.531179 5.190470 95.000000 25 361.820063
0.656111 -1.983830 4.982151 98.000000 23 361.820065
0.712130 -2.151974 4.219612 11.000000 21 361.820068
0.644691 -1.948184 3.086525 25.000000 19 361.820070
0.602892 -1.821877 2.373415 25.000000 17 361.820073
0.047542 -0.187115 3.169101 24.000000 30 361.820081
0.097032 -0.347399 3.315744 21.000000 29 361.820083
0.411887 -1.299385 5.281898 99.000000 26 361.820086
0.578952 -1.759782 5.092066 96.000000 24 361.820088
0.729103 -2.214915 4.883157 57.000000 22 361.820091
0.591234 -1.795040 3.161477 33.000000 20 361.820094
0.615592 -1.869002 2.679465 26.000000 18 361.820096
0.585046 -1.775226 2.104585 30.000000 16 361.820099
0.579273 -1.743366 1.885093 33.000000 15 361.820056
0.559474 -1.683787 1.512545 37.000000 13 361.820059
0.540986 -1.629096 1.210047 38.000000 11 361.820061
0.528216 -1.590648 0.963530 42.000000 9 361.820064
0.511619 -1.540667 0.744212 44.000000 7 361.820067
0.501790 -1.511951 0.557895 49.000000 5 361.820069
0.491781 -1.482658 0.388045 40.000000 3 361.820072
0.477871 -1.441563 0.229025 31.000000 1 361.820074
0.564817 -1.708825 1.683547 36.000000 14 361.820082
0.543736 -1.645051 1.345113 38.000000 12 361.820085
0.529585 -1.602239 1.076851 40.000000 10 361.820087
0.520225 -1.573928 0.853765 52.000000 8 361.820090
0.505285 -1.529624 0.649497 55.000000 6 361.820092
0.493755 -1.495594 0.470584 55.000000 4 361.820095
0.484083 -1.467158 0.307423 34.000000 2 361.820097
0.473979 -1.437379 0.154729 34.000000 0 361.820100
0.005866 -0.039573 3.029158 18.000000 31 361.820111
0.155766 -0.517834 3.438148 18.000000 28 361.820113
0.213660 -0.713475 3.604148 13.000000 27 361.820116
0.491950 -1.532819 5.190470 96.000000 25 361.820118
0.649528 -1.985995 4.982151 98.000000 23 361.820121
0.700519 -2.140661 4.193280 11.000000 21 361.820123
0.634726 -1.939613 3.069993 20.000000 19 361.820126
0.594853 -1.817772 2.365741 26.000000 17 361.820129
0.046889 -0.187280 3.169101 24.000000 30 361.820136
0.095818 -0.347735 3.315744 22.000000 29 361.820139
0.407349 -1.300815 5.281898 99.000000 26 361.820141
0.573339 -1.763433 5.096759 97.000000 24 361.820144
0.722428 -2.219391 4.887658 60.000000 22 361.820147
0.588509 -1.806910 3.178540 27.000000 20 361.820149
0.607524 -1.865301 2.671486 26.000000 18 361.820152
0.575696 -1.767587 2.093560 30.000000 16 361.820154
0.571262 -1.738501 1.878084 33.000000 15 361.820112
0.552672 -1.681934 1.509408 37.000000 13 361.820114
0.532972 -1.622936 1.204564 38.000000 11 361.820117
0.521556 -1.588181 0.961212 42.000000 9 361.820120
0.504792 -1.538039 0.742339 44.000000 7 361.820122
0.495014 -1.509136 0.556486 50.000000 5 361.820125
0.485330 -1.479613 0.387113 42.000000 3 361.820127
0.473088 -1.443140 0.229025 28.000000 1 361.820130
0.556827 -1.703589 1.676898 36.000000 14 361.820138
0.537022 -1.643003 1.342170 38.000000 12 361.820140
0.522650 -1.599980 1.074319 40.000000 10 361.820143
0.511909 -1.567107 0.849569 52.000000 8 361.820145
0.498477 -1.526889 0.647855 53.000000 6 361.820148
0.487023 -1.492687 0.469412 55.000000 4 361.820150
0.477423 -1.464131 0.306733 34.000000 2 361.820153
0.467411 -1.434275 0.154528 34.000000 0 361.820155
0.005727 -0.039593 3.029158 16.000000 31 361.820166
0.153736 -0.517630 3.433208 18.000000 28 361.820169
0.211168 -0.714217 3.604148 14.000000 27 361.820171
0.486596 -1.534527 5.190470 96.000000 25 361.820174
0.643193 -1.990109 4.986753 98.000000 23 361.820176
0.688620 -2.129417 4.166947 11.000000 21 361.820179
0.624489 -1.931107 3.053461 16.000000 19 361.820181
0.586531 -1.813737 2.358068 26.000000 17 361.820184
0.046235 -0.187442 3.169101 24.000000 30 361.820192
0.094465 -0.347552 3.310773 21.000000 29 361.820194
0.402806 -1.302229 5.281898 99.000000 26 361.820197
0.567180 -1.765424 5.096759 97.000000 24 361.820199
0.716010 -2.226045 4.896660 59.000000 22 361.820202
0.594982 -1.848675 3.246795 22.000000 20 361.820205
0.598239 -1.858803 2.659517 26.000000 18 361.820207
0.567446 -1.763131 2.086209 31.000000 16 361.820210
0.562987 -1.733701 1.871075 33.000000 15 361.820167
0.544393 -1.676448 1.503132 38.000000 13 361.820170
0.526013 -1.620809 1.201822 38.000000 11 361.820173
0.513274 -1.581565 0.956576 43.000000 9 361.820175
0.497990 -1.535381 0.740466 44.000000 7 361.820178
0.488264 -1.506291 0.555077 50.000000 5 361.820180
0.478648 -1.476625 0.386180 40.000000 3 361.820183
0.466513 -1.440045 0.228579 28.000000 1 361.820185
0.549729 -1.701969 1.673573 36.000000 14 361.820193
0.530041 -1.641021 1.339227 38.000000 12 361.820196
0.514413 -1.593589 1.069254 40.000000 10 361.820198
0.505042 -1.564565 0.847471 52.000000 8 361.820201
0.491694 -1.524126 0.646212 53.000000 6 361.820203
0.480318 -1.489752 0.468239 55.000000 4 361.820206
0.470791 -1.461075 0.306043 34.000000 2 361.820208
0.460870 -1.431142 0.154326 34.000000 0 361.820211
0.005589 -0.039613 3.029158 16.000000 31 361.820222
0.151711 -0.517417 3.428269 18.000000 28 361.820224
0.208389 -0.713972 3.599253 14.000000 27 361.820227
0.481237 -1.536216 5.190470 96.000000 25 361.820229
0.636242 -1.992342 4.986753 98.000000 23 361.820232
0.677537 -2.120397 4.145004 12.000000 21 361.820234
0.615174 -1.925234 3.041062 15.000000 19 361.820237
0.577269 -1.806612 2.346557 26.000000 17 361.820240
0.045580 -0.187602 3.169101 24.000000 30 361.820247
0.093251 -0.347880 3.310773 21.000000 29 361.820250
0.398625 -1.304830 5.286737 99.000000 26 361.820252
0.561014 -1.767393 5.096759 97.000000 24 361.820255
0.708895 -2.230606 4.901161 43.000000 22 361.820258
0.601961 -1.892992 3.319316 17.000000 20 361.820260
0.589920 -1.855136 2.651538 26.000000 18 361.820263
0.559233 -1.758640 2.078859 31.000000 16 361.820265
0.555842 -1.732260 1.867570 33.000000 15 361.820223
0.536159 -1.670925 1.496856 38.000000 13 361.820225
0.517798 -1.614672 1.196339 38.000000 11 361.820228
0.506397 -1.579128 0.954258 43.000000 9 361.820231
0.491212 -1.532696 0.738593 46.000000 7 361.820233
0.481540 -1.503417 0.553668 49.000000 5 361.820236
0.471992 -1.473609 0.385247 40.000000 3 361.820238
0.459965 -1.436922 0.228133 30.000000 1 361.820241
0.541514 -1.696762 1.666923 36.000000 14 361.820249
0.521852 -1.635160 1.333341 38.000000 12 361.820251
0.507538 -1.591267 1.066722 40.000000 10 361.820254
0.498198 -1.561994 0.845373 52.000000 8 361.820256
0.484937 -1.521333 0.644569 55.000000 6 361.820259
0.473640 -1.486789 0.467067 55.000000 4 361.820261
0.464185 -1.457990 0.305354 33.000000 2 361.820264
0.454357 -1.427982 0.154125 34.000000 0 361.820267
0.005451 -0.039632 3.029158 18.000000 31 361.820277
0.149903 -0.517944 3.428269 15.000000 28 361.820280
0.205896 -0.714695 3.599253 14.000000 27 361.820282
0.476313 -1.539313 5.195242 95.000000 25 361.820285
0.629284 -1.994551 4.986753 97.000000 23 361.820287
0.665804 -2.109041 4.118672 12.000000 21 361.820290
0.605909 -1.919319 3.028664 15.000000 19 361.820293
0.569029 -1.802502 2.338883 27.000000 17 361.820295
0.044925 -0.187760 3.169101 24.000000 30 361.820303
0.091901 -0.347687 3.305801 21.000000 29 361.820305
0.394068 -1.306214 5.286737 99.000000 26 361.820308
0.554841 -1.769341 5.096759 96.000000 24 361.820311
0.703061 -2.239301 4.914663 33.000000 22 361.820313
0.610982 -1.944845 3.404635 14.000000 20 361.820316
0.580731 -1.848557 2.639570 27.000000 18 361.820318
0.551059 -1.754113 2.071509 32.000000 16 361.820321
0.547637 -1.727390 1.860561 33.000000 15 361.820278
0.527970 -1.665365 1.490581 38.000000 13 361.820281
0.510896 -1.612483 1.193598 38.000000 11 361.820284
0.499544 -1.576663 0.951940 42.000000 9 361.820286
0.484460 -1.529981 0.736720 46.000000 7 361.820289
0.474841 -1.500515 0.552259 47.000000 5 361.820291
0.465363 -1.470564 0.384315 40.000000 3 361.820294
0.453445 -1.433770 0.227687 30.000000 1 361.820296
0.533342 -1.691519 1.660274 36.000000 14 361.820304
0.514925 -1.633117 1.330397 38.000000 12 361.820307
0.499389 -1.584805 1.061657 40.000000 10 361.820309
0.491379 -1.559395 0.843275 52.000000 8 361.820312
0.478205 -1.518512 0.642927 55.000000 6 361.820314
0.466988 -1.483796 0.465895 55.000000 4 361.820317
0.457607 -1.454878 0.304664 33.000000 2 361.820319
0.447872 -1.424793 0.153923 34.000000 0 361.820322
0.005313 -0.039651 3.029158 18.000000 31 361.820333
0.148095 -0.518464 3.428269 15.000000 28 361.820335
0.203122 -0.714430 3.594357 14.000000 27 361.820338
0.470937 -1.540966 5.195242 95.000000 25 361.820340
0.622899 -1.998600 4.991356 97.000000 23 361.820343
0.654872 -2.099917 4.096729 12.000000 21 361.820345
0.596692 -1.913363 3.016265 16.000000 19 361.820348
0.560825 -1.798356 2.331209 27.000000 17 361.820351
0.044270 -0.187916 3.169101 24.000000 30 361.820358
0.090687 -0.348005 3.305801 21.000000 29 361.820361
0.389506 -1.307582 5.286737 99.000000 26 361.820363
0.549172 -1.772915 5.101452 96.000000 24 361.820366
0.691370 -2.229261 4.887658 25.000000 22 361.820369
0.608055 -1.959420 3.425965 13.000000 20 361.820371
0.572488 -1.844816 2.631591 27.000000 18 361.820374
0.542923 -1.749550 2.064158 32.000000 16 361.820376
0.539472 -1.722485 1.853552 34.000000 15 361.820334
0.520990 -1.663483 1.487443 37.000000 13 361.820337
0.502766 -1.606276 1.188115 38.000000 11 361.820339
0.491391 -1.569941 0.947304 43.000000 9 361.820342
0.477732 -1.527239 0.734847 44.000000 7 361.820344
0.468169 -1.497585 0.550849 49.000000 5 361.820347
0.458762 -1.467491 0.383382 40.000000 3 361.820349
0.446952 -1.430591 0.227241 30.000000 1 361.820352
0.525213 -1.686240 1.653624 36.000000 14 361.820360
0.506817 -1.627186 1.324511 38.000000 12 361.820362
0.492572 -1.582423 1.059124 40.000000 10 361.820365
0.484584 -1.556767 0.841177 52.000000 8 361.820367
0.471499 -1.515663 0.641284 57.000000 6 361.820370
0.460363 -1.480776 0.464722 54.000000 4 361.820372
0.451057 -1.451737 0.303974 33.000000 2 361.820375
0.441414 -1.421576 0.153722 34.000000 0 361.820378
0.005174 -0.039669 3.029158 19.000000 31 361.820388
0.146284 -0.518978 3.428269 18.000000 28 361.820391
0.200627 -0.715135 3.594357 14.000000 27 361.820393
0.465555 -1.542601 5.195242 96.000000 25 361.820396
0.615919 -2.000762 4.991356 97.000000 23 361.820398
0.644011 -2.090742 4.074786 11.000000 21 361.820401
0.588353 -1.910055 3.007999 18.000000 19 361.820404
0.551713 -1.791111 2.319698 27.000000 17 361.820406
0.043550 -0.187787 3.164109 24.000000 30 361.820414
0.089340 -0.347802 3.300830 22.000000 29 361.820416
0.384939 -1.308933 5.286737 98.000000 26 361.820419
0.542980 -1.774821 5.101452 97.000000 24 361.820422
0.681671 -2.225414 4.874156 21.000000 22 361.820424
0.601211 -1.961531 3.425965 13.000000 20 361.820427
0.563396 -1.838159 2.619622 27.000000 18 361.820429
0.534826 -1.744951 2.056808 32.000000 16 361.820432
0.532402 -1.720950 1.850048 34.000000 15 361.820389
0.512880 -1.657853 1.481168 37.000000 13 361.820392
0.495921 -1.604026 1.185374 39.000000 11 361.820395
0.484599 -1.567414 0.944986 43.000000 9 361.820397
0.471030 -1.524468 0.732974 44.000000 7 361.820400
0.461524 -1.494626 0.549440 49.000000 5 361.820402
0.452187 -1.464390 0.382450 39.000000 3 361.820405
0.439019 -1.422625 0.226348 30.000000 1 361.820407
0.518226 -1.684494 1.650299 36.000000 14 361.820415
0.499946 -1.625082 1.321568 38.000000 12 361.820418
0.485778 -1.580011 1.056592 40.000000 10 361.820420
0.476479 -1.549773 0.836981 52.000000 8 361.820423
0.464818 -1.512785 0.639641 55.000000 6 361.820425
0.453764 -1.477727 0.463550 54.000000 4 361.820428
0.444534 -1.448568 0.303284 33.000000 2 361.820431
0.436449 -1.423109 0.153722 34.000000 0 361.820433
0.005036 -0.039687 3.029158 19.000000 31 361.820444
0.144471 -0.519485 3.428269 19.000000 28 361.820446
0.197858 -0.714849 3.589462 14.000000 27 361.820449
0.460167 -1.544217 5.195242 95.000000 25 361.820451
0.608931 -2.002900 4.991356 97.000000 23 361.820454
0.633920 -2.083809 4.057231 11.000000 21 361.820457
0.579225 -1.904021 2.995600 19.000000 19 361.820459
0.543591 -1.786892 2.312024 27.000000 17 361.820462
0.042894 -0.187938 3.164109 25.000000 30 361.820469
0.087995 -0.347594 3.295859 22.000000 29 361.820472
0.380368 -1.310269 5.286737 98.000000 26 361.820475
0.536782 -1.776706 5.101452 97.000000 24 361.820477
0.672007 -2.221527 4.860653 18.000000 22 361.820480
0.592094 -1.956129 3.413167 13.000000 20 361.820482
0.555230 -1.834345 2.611643 27.000000 18 361.820485
0.526767 -1.740318 2.049458 32.000000 16 361.820487
0.524307 -1.715977 1.843039 34.000000 15 361.820445
0.504814 -1.652187 1.474892 37.000000 13 361.820448
0.487877 -1.597749 1.179891 39.000000 11 361.820450
0.477831 -1.564859 0.942668 45.000000 9 361.820453
0.464352 -1.521669 0.731101 46.000000 7 361.820455
0.453505 -1.487051 0.546622 45.000000 5 361.820458
0.445640 -1.461261 0.381517 39.000000 3 361.820460
0.432598 -1.419385 0.225902 30.000000 1 361.820463
0.510172 -1.679146 1.643649 36.000000 14 361.820471
0.491920 -1.619082 1.315682 39.000000 12 361.820473
0.477755 -1.573447 1.051527 40.000000 10 361.820476
0.469748 -1.547084 0.834882 51.000000 8 361.820478
0.458164 -1.509880 0.637999 55.000000 6 361.820481
0.447193 -1.474651 0.462378 54.000000 4 361.820483
0.438038 -1.445372 0.302594 33.000000 2 361.820486
0.430031 -1.419842 0.153520 35.000000 0 361.820489
0.004897 -0.039704 3.029158 18.000000 31 361.820499
0.142657 -0.519986 3.428269 19.000000 28 361.820502
0.195361 -0.715535 3.589462 15.000000 27 361.820504
0.454774 -1.545813 5.195242 95.000000 25 361.820507
0.602498 -2.006885 4.995958 97.000000 23 361.820509
0.623196 -2.074537 4.035287 12.000000 21 361.820512
0.570147 -1.897946 2.983201 20.000000 19 361.820514
0.534584 -1.779567 2.300513 27.000000 17 361.820517
0.042176 -0.187804 3.159117 25.000000 30 361.820525
0.086781 -0.347899 3.295859 22.000000 29 361.820527
0.376138 -1.312798 5.291576 99.000000 26 361.820530
0.531070 -1.780222 5.106144 97.000000 24 361.820532
0.661755 -2.215513 4.842650 17.000000 22 361.820535
0.583022 -1.950688 3.400369 13.000000 20 361.820537
0.546234 -1.827608 2.599675 27.000000 18 361.820540
0.518747 -1.735650 2.042107 32.000000 16 361.820543
0.516254 -1.710968 1.836029 34.000000 15 361.820500
0.497920 -1.650212 1.471754 37.000000 13 361.820503
0.481089 -1.595439 1.177149 39.000000 11 361.820505
0.469808 -1.558034 0.938032 43.000000 9 361.820508
0.457700 -1.518841 0.729228 44.000000 7 361.820511
0.446928 -1.484031 0.545213 45.000000 5 361.820513
0.437703 -1.453400 0.379652 39.000000 3 361.820516
0.426206 -1.416118 0.225456 29.000000 1 361.820518
0.502161 -1.673763 1.637000 36.000000 14 361.820526
0.485104 -1.616918 1.312738 38.000000 12 361.820529
0.471022 -1.570975 1.048995 40.000000 10 361.820531
0.461738 -1.540020 0.830686 50.000000 8 361.820534
0.451535 -1.506946 0.636356 55.000000 6 361.820536
0.439254 -1.466890 0.460033 54.000000 4 361.820539
0.431571 -1.442148 0.301905 33.000000 2 361.820541
0.423640 -1.416548 0.153319 34.000000 0 361.820544
0.004758 -0.039721 3.029158 18.000000 31 361.820555
0.140841 -0.520481 3.428269 19.000000 28 361.820557
0.192598 -0.715230 3.584567 15.000000 27 361.820560
0.449792 -1.548826 5.200014 96.000000 25 361.820562
0.595488 -2.008976 4.995958 97.000000 23 361.820565
0.613226 -2.067512 4.017733 12.000000 21 361.820567
0.561118 -1.891831 2.970802 21.000000 19 361.820570
0.526545 -1.775275 2.292840 28.000000 17 361.820572
0.041520 -0.187950 3.159117 24.000000 30 361.820580
0.085440 -0.347681 3.290887 22.000000 29 361.820583
0.371553 -1.314103 5.291576 99.000000 26 361.820585
0.524852 -1.782065 5.106144 96.000000 24 361.820588
0.650322 -2.205276 4.815645 15.000000 22 361.820590
0.573995 -1.945207 3.387571 14.000000 20 361.820593
0.538145 -1.823722 2.591696 28.000000 18 361.820596
0.510767 -1.730947 2.034757 32.000000 16 361.820598
0.508242 -1.705924 1.829020 34.000000 15 361.820556
0.489933 -1.644479 1.465479 37.000000 13 361.820558
0.473131 -1.589093 1.171666 39.000000 11 361.820561
0.463102 -1.555419 0.935714 43.000000 9 361.820563
0.451074 -1.515986 0.727355 46.000000 7 361.820566
0.440378 -1.480984 0.543803 45.000000 5 361.820569
0.431227 -1.450211 0.378719 39.000000 3 361.820571
0.421260 -1.417597 0.225456 29.000000 1 361.820574
0.494194 -1.668344 1.630350 36.000000 14 361.820581
0.477161 -1.610850 1.306852 38.000000 12 361.820584
0.463088 -1.564342 1.043930 40.000000 10 361.820587
0.455071 -1.537270 0.828588 48.000000 8 361.820589
0.444932 -1.503985 0.634713 55.000000 6 361.820592
0.432753 -1.463753 0.458861 52.000000 4 361.820594
0.425131 -1.438896 0.301215 33.000000 2 361.820597
0.417278 -1.413226 0.153117 34.000000 0 361.820599
0.004620 -0.039738 3.029158 17.000000 31 361.820610
0.139024 -0.520970 3.428269 19.000000 28 361.820613
0.189840 -0.714913 3.579672 15.000000 27 361.820615
0.444383 -1.550387 5.200014 96.000000 25 361.820618
0.589021 -2.012917 5.000561 95.000000 23 361.820620
0.602639 -2.058144 3.995790 12.000000 21 361.820623
0.552138 -1.885676 2.958403 21.000000 19 361.820625
0.518543 -1.770949 2.285166 28.000000 17 361.820628
0.040864 -0.188093 3.159117 24.000000 30 361.820636
0.084226 -0.347977 3.290887 22.000000 29 361.820638
0.366964 -1.315392 5.291576 99.000000 26 361.820641
0.518629 -1.783886 5.106144 96.000000 24 361.820643
0.638968 -2.194987 4.788640 11.000000 22 361.820646
0.565742 -1.942190 3.379039 14.000000 20 361.820649
0.529247 -1.816909 2.579727 28.000000 18 361.820651
0.502825 -1.726210 2.027406 32.000000 16 361.820654
0.500272 -1.700845 1.822011 34.000000 15 361.820611
0.483092 -1.642444 1.462341 37.000000 13 361.820614
0.466402 -1.586724 1.168925 39.000000 11 361.820616
0.455171 -1.548525 0.931078 42.000000 9 361.820619
0.444473 -1.513104 0.725482 46.000000 7 361.820622
0.433854 -1.477909 0.542394 45.000000 5 361.820624
0.424779 -1.446994 0.377787 39.000000 3 361.820627
0.414907 -1.414280 0.225009 29.000000 1 361.820629
0.486271 -1.662891 1.623700 36.000000 14 361.820637
0.470401 -1.608627 1.303909 38.000000 12 361.820640
0.456415 -1.561811 1.041397 40.000000 10 361.820642
0.448429 -1.534493 0.826490 50.000000 8 361.820645
0.438356 -1.500995 0.633071 56.000000 6 361.820647
0.426279 -1.460589 0.457688 52.000000 4 361.820650
0.418719 -1.435617 0.300525 33.000000 2 361.820652
0.410945 -1.409878 0.152915 34.000000 0 361.820655
0.004481 -0.039753 3.029158 17.000000 31 361.820666
0.137204 -0.521452 3.428269 19.000000 28 361.820668
0.187086 -0.714586 3.574776 15.000000 27 361.820671
0.439375 -1.553365 5.204786 96.000000 25 361.820673
0.581991 -2.014961 5.000561 96.000000 23 361.820676
0.592791 -2.051028 3.978235 12.000000 21 361.820678
0.543209 -1.879482 2.946005 21.000000 19 361.820681
0.510578 -1.766588 2.277492 28.000000 17 361.820683
0.040207 -0.188235 3.159117 24.000000 30 361.820691
0.082888 -0.347750 3.285916 22.000000 29 361.820694
0.362370 -1.316665 5.291576 99.000000 26 361.820696
0.512874 -1.787345 5.110837 96.000000 24 361.820699
0.627694 -2.184646 4.761635 9.000000 22 361.820701
0.556077 -1.934127 3.361975 14.000000 20 361.820704
0.521236 -1.812952 2.571748 28.000000 18 361.820707
0.494923 -1.721438 2.020056 32.000000 16 361.820709
0.493337 -1.699157 1.818507 34.000000 15 361.820667
0.475185 -1.636644 1.456065 37.000000 13 361.820669
0.459695 -1.584326 1.166183 39.000000 11 361.820672
0.448528 -1.545850 0.928760 40.000000 9 361.820675
0.437897 -1.510193 0.723609 48.000000 7 361.820677
0.427357 -1.474807 0.540985 45.000000 5 361.820680
0.418358 -1.443750 0.376854 38.000000 3 361.820682
0.408583 -1.410936 0.224563 29.000000 1 361.820685
0.479428 -1.660990 1.620375 37.000000 14 361.820693
0.462541 -1.602492 1.298023 38.000000 12 361.820695
0.449766 -1.559252 1.038865 40.000000 10 361.820698
0.441812 -1.531688 0.824392 50.000000 8 361.820700
0.431806 -1.497979 0.631428 54.000000 6 361.820703
0.419832 -1.457397 0.456516 50.000000 4 361.820705
0.412335 -1.432311 0.299835 32.000000 2 361.820708
0.404640 -1.406503 0.152714 34.000000 0 361.820710
0.004342 -0.039769 3.029158 18.000000 31 361.820721
0.135189 -0.521175 3.423330 19.000000 28 361.820724
0.184336 -0.714249 3.569881 15.000000 27 361.820726
0.433950 -1.554890 5.204786 96.000000 25 361.820729
0.574954 -2.016980 5.000561 97.000000 23 361.820731
0.582342 -2.041566 3.956292 11.000000 21 361.820734
0.534329 -1.873248 2.933606 22.000000 19 361.820736
0.502650 -1.762194 2.269818 28.000000 17 361.820739
0.039582 -0.188367 3.159117 24.000000 30 361.820747
0.081734 -0.348023 3.285916 22.000000 29 361.820749
0.358331 -1.319073 5.296416 98.000000 26 361.820752
0.506945 -1.789036 5.110837 96.000000 24 361.820754
0.615312 -2.170062 4.725628 8.000000 22 361.820757
0.547187 -1.928530 3.349178 14.000000 20 361.820760
0.512437 -1.806062 2.559780 28.000000 18 361.820762
0.487360 -1.716547 2.012706 33.000000 16 361.820765
0.485438 -1.694012 1.811498 34.000000 15 361.820722
0.468396 -1.634550 1.452928 37.000000 13 361.820725
0.453011 -1.581901 1.163442 39.000000 11 361.820727
0.441910 -1.543147 0.926442 40.000000 9 361.820730
0.431610 -1.507180 0.721736 48.000000 7 361.820733
0.421144 -1.471603 0.539576 45.000000 5 361.820735
0.411965 -1.440478 0.375921 38.000000 3 361.820738
0.403655 -1.412354 0.224563 29.000000 1 361.820740
0.471581 -1.655471 1.613726 37.000000 14 361.820748
0.455837 -1.600209 1.295079 39.000000 12 361.820751
0.442230 -1.552443 1.033800 40.000000 10 361.820753
0.435487 -1.528780 0.822294 51.000000 8 361.820756
0.425543 -1.494861 0.629785 53.000000 6 361.820758
0.414997 -1.458782 0.456516 51.000000 4 361.820761
0.406229 -1.428907 0.299145 32.000000 2 361.820763
0.398608 -1.403031 0.152512 33.000000 0 361.820766
0.004210 -0.039783 3.029158 18.000000 31 361.820777
0.133268 -0.520868 3.418391 21.000000 28 361.820779
0.181716 -0.713870 3.564986 15.000000 27 361.820782
0.428791 -1.556320 5.204786 96.000000 25 361.820784
0.568262 -2.018875 5.000561 97.000000 23 361.820787
0.572971 -2.034262 3.938737 11.000000 21 361.820789
0.526589 -1.869593 2.925340 22.000000 19 361.820792
0.495065 -1.757679 2.262144 28.000000 17 361.820795
0.038925 -0.188504 3.159117 24.000000 30 361.820802
0.080519 -0.348306 3.285916 23.000000 29 361.820805
0.353725 -1.320316 5.296416 98.000000 26 361.820807
0.500697 -1.790794 5.110837 96.000000 24 361.820810
0.607146 -2.170100 4.721128 8.000000 22 361.820813
0.538342 -1.922893 3.336380 14.000000 20 361.820815
0.504504 -1.802035 2.551801 28.000000 18 361.820818
0.480152 -1.715057 2.009031 33.000000 16 361.820820
0.477876 -1.688749 1.804489 34.000000 15 361.820778
0.460854 -1.628603 1.446652 37.000000 13 361.820780
0.445487 -1.575348 1.157959 39.000000 11 361.820783
0.434379 -1.536078 0.921806 40.000000 9 361.820786
0.425086 -1.504217 0.719863 46.000000 7 361.820788
0.414701 -1.468448 0.538167 45.000000 5 361.820791
0.405600 -1.437180 0.374989 38.000000 3 361.820793
0.397371 -1.408961 0.224117 28.000000 1 361.820796
0.464789 -1.653512 1.610401 37.000000 14 361.820804
0.448061 -1.594008 1.289193 38.000000 12 361.820806
0.435371 -1.549902 1.031268 40.000000 10 361.820809
0.427426 -1.521627 0.818098 48.000000 8 361.820811
0.418785 -1.491863 0.628143 53.000000 6 361.820814
0.408335 -1.455613 0.455344 49.000000 4 361.820816
0.399652 -1.425618 0.298455 31.000000 2 361.820819
0.393708 -1.404414 0.152512 33.000000 0 361.820821
0.004064 -0.039798 3.029158 18.000000 31 361.820832
0.131358 -0.521353 3.418391 21.000000 28 361.820835
0.178851 -0.713543 3.560091 15.000000 27 361.820837
0.423084 -1.557881 5.204786 96.000000 25 361.820840
0.560859 -2.020945 5.000561 97.000000 23 361.820842
0.562947 -2.027115 3.921183 11.000000 21 361.820845
0.517474 -1.863376 2.912941 22.000000 19 361.820847
0.486904 -1.753304 2.254470 29.000000 17 361.820850
0.038178 -0.188362 3.154126 24.000000 30 361.820858
0.079242 -0.348599 3.285916 22.000000 29 361.820860
0.348883 -1.321603 5.296416 99.000000 26 361.820863
0.494588 -1.794281 5.115530 97.000000 24 361.820865
0.597830 -2.165908 4.707625 8.000000 22 361.820868
0.529544 -1.917219 3.323582 14.000000 20 361.820871
0.496606 -1.797975 2.543822 29.000000 18 361.820873
0.472357 -1.710187 2.001680 33.000000 16 361.820876
0.469766 -1.683619 1.797479 34.000000 15 361.820833
0.452789 -1.622782 1.440377 37.000000 13 361.820836
0.438587 -1.572942 1.155217 39.000000 11 361.820839
0.427557 -1.533392 0.919487 40.000000 9 361.820841
0.418326 -1.501299 0.717990 48.000000 7 361.820844
0.408029 -1.465336 0.536757 45.000000 5 361.820846
0.400581 -1.438587 0.374989 38.000000 3 361.820849
0.391115 -1.405542 0.223671 28.000000 1 361.820851
0.457019 -1.647927 1.603751 37.000000 14 361.820859
0.441414 -1.591668 1.286250 38.000000 12 361.820862
0.428807 -1.547258 1.028735 40.000000 10 361.820864
0.420900 -1.518736 0.816000 50.000000 8 361.820867
0.412314 -1.488765 0.626500 55.000000 6 361.820869
0.401955 -1.452345 0.454171 49.000000 4 361.820872
0.393353 -1.422232 0.297766 31.000000 2 361.820874
0.387227 -1.401032 0.152311 33.000000 0 361.820877
0.003926 -0.039812 3.029158 18.000000 31 361.820888
0.129350 -0.521054 3.413451 20.000000 28 361.820890
0.176116 -0.713174 3.555196 15.000000 27 361.820893
0.417644 -1.559349 5.204786 95.000000 25 361.820895
0.554317 -2.024775 5.005164 97.000000 23 361.820898
0.552702 -2.017514 3.899239 12.000000 21 361.820900
0.509479 -1.859743 2.904675 22.000000 19 361.820903
0.479087 -1.748809 2.246796 29.000000 17 361.820906
0.037520 -0.188494 3.154126 25.000000 30 361.820913
0.077909 -0.348352 3.280944 22.000000 29 361.820916
0.344268 -1.322813 5.296416 99.000000 26 361.820918
0.488322 -1.795997 5.115530 96.000000 24 361.820921
0.588549 -2.161678 4.694122 7.000000 22 361.820924
0.520792 -1.911507 3.310784 14.000000 20 361.820926
0.488742 -1.793881 2.535843 28.000000 18 361.820929
0.465493 -1.708555 1.998005 33.000000 16 361.820931
0.461994 -1.678372 1.790470 35.000000 15 361.820889
0.446088 -1.620599 1.437239 37.000000 13 361.820891
0.431985 -1.570432 1.152476 39.000000 11 361.820894
0.421026 -1.530604 0.917169 40.000000 9 361.820897
0.411854 -1.498280 0.716117 48.000000 7 361.820899
0.401641 -1.462126 0.535348 43.000000 5 361.820902
0.394256 -1.435240 0.374056 38.000000 3 361.820904
0.384888 -1.402096 0.223225 28.000000 1 361.820907
0.450278 -1.645910 1.600426 37.000000 14 361.820915
0.433722 -1.585401 1.280364 38.000000 12 361.820917
0.422267 -1.544587 1.026203 40.000000 10 361.820920
0.414399 -1.515818 0.813902 51.000000 8 361.820922
0.405870 -1.485640 0.624857 55.000000 6 361.820925
0.395603 -1.449050 0.452999 49.000000 4 361.820927
0.387083 -1.418818 0.297076 31.000000 2 361.820930
0.381020 -1.397555 0.152109 33.000000 0 361.820933
0.003787 -0.039782 3.024158 17.000000 31 361.820943
0.127347 -0.520747 3.408512 20.000000 28 361.820946
0.173626 -0.713785 3.555196 15.000000 27 361.820948
0.412198 -1.560797 5.204786 95.000000 25 361.820951
0.547246 -2.026697 5.005164 97.000000 23 361.820953
0.543157 -2.010180 3.881685 12.000000 21 361.820956
0.500782 -1.853360 2.892276 22.000000 19 361.820959
0.471307 -1.744281 2.239122 29.000000 17 361.820961
0.036841 -0.188333 3.149134 25.000000 30 361.820969
0.076753 -0.348608 3.280944 23.000000 29 361.820971
0.340192 -1.325166 5.301255 99.000000 26 361.820974
0.482364 -1.797606 5.115530 97.000000 24 361.820977
0.579306 -2.157410 4.680620 8.000000 22 361.820979
0.512086 -1.905757 3.297987 14.000000 20 361.820982
0.480131 -1.786844 2.523874 29.000000 18 361.820984
0.458064 -1.703541 1.990655 33.000000 16 361.820987
0.455198 -1.676533 1.786966 35.000000 15 361.820944
0.438389 -1.614633 1.430963 37.000000 13 361.820947
0.425405 -1.567894 1.149734 39.000000 11 361.820950
0.414521 -1.527788 0.914851 40.000000 9 361.820952
0.405669 -1.495163 0.714244 48.000000 7 361.820955
0.395535 -1.458820 0.533939 42.000000 5 361.820957
0.387959 -1.431866 0.373123 38.000000 3 361.820960
0.378690 -1.398624 0.222778 28.000000 1 361.820962
0.443557 -1.643867 1.597101 37.000000 14 361.820970
0.427132 -1.583003 1.277421 38.000000 12 361.820973
0.416019 -1.541816 1.023670 40.000000 10 361.820975
0.408188 -1.512802 0.811804 50.000000 8 361.820978
0.399712 -1.482418 0.623215 53.000000 6 361.820980
0.389531 -1.445661 0.451827 49.000000 4 361.820983
0.381088 -1.415312 0.296386 31.000000 2 361.820985
0.376383 -1.398811 0.152109 33.000000 0 361.820988
0.003655 -0.039794 3.024158 17.000000 31 361.820999
0.125438 -0.520411 3.403573 21.000000 28 361.821001
0.171021 -0.713366 3.550300 15.000000 27 361.821004
0.407020 -1.562155 5.204786 96.000000 25 361.821006
0.541025 -2.030388 5.009766 98.000000 23 361.821009
0.534019 -2.002711 3.864130 11.000000 21 361.821011
0.493184 -1.849573 2.884011 22.000000 19 361.821014
0.463868 -1.739639 2.231448 29.000000 17 361.821017
0.036183 -0.188460 3.149134 25.000000 30 361.821024
0.075424 -0.348352 3.275973 23.000000 29 361.821027
0.335564 -1.326345 5.301255 99.000000 26 361.821029
0.476527 -1.800947 5.120223 96.000000 24 361.821032
0.571033 -2.155109 4.671618 8.000000 22 361.821035
0.503758 -1.899882 3.285189 14.000000 20 361.821037
0.472658 -1.782600 2.515895 29.000000 18 361.821040
0.451246 -1.701853 1.986980 33.000000 16 361.821042
0.447790 -1.671144 1.779957 35.000000 15 361.821000
0.431017 -1.608557 1.424688 37.000000 13 361.821003
0.419122 -1.565257 1.146993 39.000000 11 361.821005
0.408306 -1.524875 0.912533 40.000000 9 361.821008
0.399249 -1.492092 0.712371 48.000000 7 361.821010
0.389201 -1.455557 0.532530 40.000000 5 361.821013
0.383208 -1.433145 0.373123 38.000000 3 361.821015
0.372764 -1.395061 0.222332 25.000000 1 361.821018
0.436182 -1.638111 1.590452 37.000000 14 361.821026
0.419801 -1.576599 1.271534 38.000000 12 361.821028
0.409526 -1.539092 1.021138 40.000000 10 361.821031
0.402905 -1.514218 0.811804 50.000000 8 361.821033
0.393322 -1.479240 0.621572 53.000000 6 361.821036
0.383234 -1.442314 0.450655 49.000000 4 361.821038
0.376146 -1.416634 0.296386 31.000000 2 361.821041
0.370217 -1.395288 0.151908 33.000000 0 361.821044
0.003516 -0.039807 3.024158 15.000000 31 361.821054
0.123441 -0.520090 3.398634 21.000000 28 361.821057
0.168296 -0.712968 3.545405 15.000000 27 361.821059
0.401936 -1.565013 5.209557 95.000000 25 361.821062
