# .PCD v.7 - Point Cloud Data file format
VERSION .7
FIELDS x y z intensity ring timestamp
SIZE 4 4 4 4 2 8
TYPE F F F F U D
COUNT 1 1 1 1 1 1
WIDTH 907
HEIGHT 1
VIEWPOINT 0 0 0 1 0 0 0
POINTS 907
DATA ascii
-0.199728 -0.302271 3.330658 91.000000 29 361.033087
-0.437756 -0.715272 3.263949 57.000000 26 361.033089
-0.596884 -0.999344 3.219652 42.000000 24 361.033092
-0.770925 -1.291735 3.172840 39.000000 22 361.033094
-0.745120 -1.248984 2.449066 33.000000 20 361.033097
-0.705506 -1.182578 1.897523 38.000000 18 361.033100
-0.674518 -1.130633 1.505533 38.000000 16 361.033102
-0.667847 -1.126141 1.366420 39.000000 15 361.033060
-0.646911 -1.090833 1.104634 40.000000 13 361.033062
-0.632640 -1.066345 0.897520 43.000000 11 361.033065
-0.624625 -1.052831 0.727091 42.000000 9 361.033068
-0.610882 -1.029256 0.571893 39.000000 7 361.033070
-0.592884 -0.998536 0.431068 30.000000 5 361.033073
-0.584339 -0.984143 0.308773 9.000000 3 361.033075
-0.579757 -0.976040 0.194667 12.000000 1 361.033078
-0.656896 -1.103719 1.224718 40.000000 14 361.033086
-0.640109 -1.075510 0.994877 44.000000 12 361.033088
-0.625100 -1.049874 0.803349 45.000000 10 361.033091
-0.622831 -1.046058 0.650254 47.000000 8 361.033093
-0.609290 -1.022910 0.503299 37.000000 6 361.033096
-0.602198 -1.010603 0.374454 17.000000 4 361.033098
-0.583151 -0.978251 0.250858 11.000000 2 361.033101
-0.585850 -0.982387 0.139816 25.000000 0 361.033103
-0.028193 -0.032414 3.369145 58.000000 31 361.033114
-0.276625 -0.437295 3.289970 83.000000 28 361.033117
-0.363470 -0.573047 3.285958 65.000000 27 361.033119
-0.519998 -0.856459 3.248379 51.000000 25 361.033122
-0.682747 -1.138571 3.187166 39.000000 23 361.033124
-0.773712 -1.290762 2.824017 26.000000 21 361.033127
-0.728070 -1.214617 2.152478 36.000000 19 361.033129
-0.694900 -1.159276 1.694276 38.000000 17 361.033132
-0.116608 -0.166405 3.343807 78.000000 30 361.033140
-0.200782 -0.301572 3.330658 88.000000 29 361.033142
-0.440250 -0.713739 3.263949 59.000000 26 361.033145
-0.600369 -0.997255 3.219652 40.000000 24 361.033147
-0.775429 -1.289036 3.172840 38.000000 22 361.033150
-0.750819 -1.248611 2.453331 33.000000 20 361.033153
-0.711182 -1.182691 1.901513 38.000000 18 361.033155
-0.680208 -1.131176 1.509208 39.000000 16 361.033158
-0.671774 -1.123803 1.366420 39.000000 15 361.033115
-0.652712 -1.091909 1.107772 40.000000 13 361.033118
-0.636358 -1.064130 0.897520 43.000000 11 361.033120
-0.628297 -1.050644 0.727091 40.000000 9 361.033123
-0.614471 -1.027117 0.571893 39.000000 7 361.033126
-0.596366 -0.996461 0.431068 30.000000 5 361.033128
-0.587770 -0.982098 0.308773 9.000000 3 361.033131
-0.583161 -0.974010 0.194667 12.000000 1 361.033133
-0.660744 -1.101419 1.224718 40.000000 14 361.033141
-0.643860 -1.073269 0.994877 44.000000 12 361.033144
-0.628761 -1.047686 0.803349 45.000000 10 361.033146
-0.626478 -1.043878 0.650254 47.000000 8 361.033149
-0.612857 -1.020777 0.503299 38.000000 6 361.033151
-0.605723 -1.008495 0.374454 17.000000 4 361.033154
-0.586563 -0.976209 0.250858 11.000000 2 361.033156
-0.589276 -0.980336 0.139816 25.000000 0 361.033159
-0.028305 -0.032315 3.369145 58.000000 31 361.033170
-0.278568 -0.436982 3.294909 83.000000 28 361.033172
-0.365468 -0.571775 3.285958 65.000000 27 361.033175
-0.522985 -0.854639 3.248379 49.000000 25 361.033177
-0.686717 -1.136180 3.187166 39.000000 23 361.033180
-0.778213 -1.288054 2.824017 26.000000 21 361.033182
-0.733761 -1.214476 2.156611 36.000000 19 361.033185
-0.698942 -1.156843 1.694276 38.000000 17 361.033188
-0.117188 -0.165997 3.343807 83.000000 30 361.033195
-0.201833 -0.300870 3.330658 88.000000 29 361.033198
-0.442739 -0.712198 3.263949 59.000000 26 361.033200
-0.603847 -0.995153 3.219652 40.000000 24 361.033203
-0.779924 -1.286321 3.172840 38.000000 22 361.033206
-0.755173 -1.245982 2.453331 33.000000 20 361.033208
-0.715306 -1.180201 1.901513 38.000000 18 361.033211
-0.684152 -1.128795 1.509208 38.000000 16 361.033213
-0.675693 -1.121451 1.366420 39.000000 15 361.033171
-0.656519 -1.089624 1.107772 39.000000 13 361.033173
-0.640069 -1.061902 0.897520 44.000000 11 361.033176
-0.631960 -1.048445 0.727091 40.000000 9 361.033179
-0.618052 -1.024966 0.571893 39.000000 7 361.033181
-0.599841 -0.994373 0.431068 30.000000 5 361.033184
-0.591195 -0.980040 0.308773 9.000000 3 361.033186
-0.586557 -0.971969 0.194667 12.000000 1 361.033189
-0.664585 -1.099106 1.224718 40.000000 14 361.033197
-0.647602 -1.071015 0.994877 42.000000 12 361.033199
-0.632414 -1.045485 0.803349 45.000000 10 361.033202
-0.630118 -1.041684 0.650254 45.000000 8 361.033204
-0.616416 -1.018632 0.503299 38.000000 6 361.033207
-0.609239 -1.006375 0.374454 17.000000 4 361.033209
-0.589967 -0.974156 0.250858 11.000000 2 361.033212
-0.592694 -0.978274 0.139816 25.000000 0 361.033214
-0.028418 -0.032216 3.369145 58.000000 31 361.033225
-0.280092 -0.436007 3.294909 89.000000 28 361.033228
-0.367461 -0.570496 3.285958 64.000000 27 361.033230
-0.525965 -0.852808 3.248379 51.000000 25 361.033233
-0.690679 -1.133776 3.187166 39.000000 23 361.033235
-0.782704 -1.285329 2.824017 26.000000 21 361.033238
-0.737996 -1.211908 2.156611 36.000000 19 361.033240
-0.704644 -1.157135 1.698113 38.000000 17 361.033243
-0.117767 -0.165587 3.343807 84.000000 30 361.033251
-0.202882 -0.300163 3.330658 87.000000 29 361.033253
-0.445222 -0.710649 3.263949 59.000000 26 361.033256
-0.607317 -0.993039 3.219652 40.000000 24 361.033258
-0.784409 -1.283591 3.172840 38.000000 22 361.033261
-0.759518 -1.243339 2.453331 33.000000 20 361.033264
-0.719422 -1.177697 1.901513 38.000000 18 361.033266
-0.688088 -1.126400 1.509208 39.000000 16 361.033269
-0.679603 -1.119086 1.366420 39.000000 15 361.033226
-0.660319 -1.087326 1.107772 40.000000 13 361.033229
-0.645943 -1.063235 0.900261 42.000000 11 361.033232
-0.635616 -1.046232 0.727091 42.000000 9 361.033234
-0.621626 -1.022803 0.571893 39.000000 7 361.033237
-0.605801 -0.996372 0.432477 30.000000 5 361.033239
-0.594612 -0.977970 0.308773 9.000000 3 361.033242
-0.589947 -0.969915 0.194667 12.000000 1 361.033244
-0.668418 -1.096780 1.224718 40.000000 14 361.033252
-0.651337 -1.068748 0.994877 42.000000 12 361.033255
-0.636060 -1.043271 0.803349 45.000000 10 361.033257
-0.636113 -1.043354 0.652352 49.000000 8 361.033260
-0.619968 -1.016474 0.503299 38.000000 6 361.033262
-0.612748 -1.004242 0.374454 17.000000 4 361.033265
-0.593363 -0.972090 0.250858 11.000000 2 361.033267
-0.596105 -0.976199 0.139816 25.000000 0 361.033270
-0.028530 -0.032117 3.369145 58.000000 31 361.033281
-0.281612 -0.435026 3.294909 87.000000 28 361.033283
-0.369450 -0.569210 3.285958 64.000000 27 361.033286
-0.528938 -0.850967 3.248379 49.000000 25 361.033288
-0.694632 -1.131359 3.187166 39.000000 23 361.033291
-0.788439 -1.284631 2.828406 26.000000 21 361.033293
-0.742221 -1.209324 2.156611 36.000000 19 361.033296
-0.708679 -1.154668 1.698113 38.000000 17 361.033299
-0.118344 -0.165175 3.343807 78.000000 30 361.033306
-0.203929 -0.299453 3.330658 87.000000 29 361.033309
-0.447700 -0.709090 3.263949 59.000000 26 361.033311
-0.610779 -0.990913 3.219652 40.000000 24 361.033314
-0.790027 -1.282699 3.177341 38.000000 22 361.033317
-0.763853 -1.240680 2.453331 33.000000 20 361.033319
-0.723528 -1.175179 1.901513 38.000000 18 361.033322
-0.692016 -1.123991 1.509208 38.000000 16 361.033324
-0.683506 -1.116706 1.366420 39.000000 15 361.033282
-0.664110 -1.085014 1.107772 40.000000 13 361.033284
-0.649650 -1.060974 0.900261 44.000000 11 361.033287
-0.639264 -1.044007 0.727091 40.000000 9 361.033290
-0.625193 -1.020626 0.571893 39.000000 7 361.033292
-0.609275 -0.994251 0.432477 30.000000 5 361.033295
-0.598022 -0.975889 0.308773 9.000000 3 361.033297
-0.590726 -0.963604 0.194221 12.000000 1 361.033300
-0.672242 -1.094440 1.224718 40.000000 14 361.033308
-0.655063 -1.066468 0.994877 42.000000 12 361.033310
-0.639698 -1.041044 0.803349 45.000000 10 361.033313
-0.639751 -1.041127 0.652352 49.000000 8 361.033315
-0.623513 -1.014303 0.503299 38.000000 6 361.033318
-0.616250 -1.002097 0.374454 17.000000 4 361.033320
-0.596753 -0.970013 0.250858 12.000000 2 361.033323
-0.602128 -0.978367 0.140018 25.000000 0 361.033326
-0.028642 -0.032017 3.369145 58.000000 31 361.033336
-0.283129 -0.434041 3.294909 89.000000 28 361.033339
-0.371993 -0.568769 3.290853 65.000000 27 361.033341
-0.531905 -0.849116 3.248379 48.000000 25 361.033344
-0.698577 -1.128927 3.187166 39.000000 23 361.033346
-0.792919 -1.281871 2.828406 26.000000 21 361.033349
-0.746438 -1.206726 2.156611 36.000000 19 361.033352
-0.712705 -1.152187 1.698113 38.000000 17 361.033354
-0.118920 -0.164761 3.343807 78.000000 30 361.033362
-0.204973 -0.298740 3.330658 88.000000 29 361.033364
-0.450172 -0.707523 3.263949 62.000000 26 361.033367
-0.614235 -0.988775 3.219652 40.000000 24 361.033370
-0.794500 -1.279934 3.177341 38.000000 22 361.033372
-0.769555 -1.240222 2.457597 33.000000 20 361.033375
-0.727626 -1.172646 1.901513 38.000000 18 361.033377
-0.695935 -1.121569 1.509208 39.000000 16 361.033380
-0.687399 -1.114314 1.366420 39.000000 15 361.033337
-0.667894 -1.082689 1.107772 40.000000 13 361.033340
-0.653350 -1.058700 0.900261 44.000000 11 361.033343
-0.642905 -1.041769 0.727091 40.000000 9 361.033345
-0.628752 -1.018438 0.571893 39.000000 7 361.033348
-0.612742 -0.992119 0.432477 30.000000 5 361.033350
-0.601425 -0.973795 0.308773 9.000000 3 361.033353
-0.594086 -0.961536 0.194221 12.000000 1 361.033355
-0.676058 -1.092087 1.224718 40.000000 14 361.033363
-0.660910 -1.067611 0.997820 44.000000 12 361.033366
-0.645597 -1.042470 0.805882 45.000000 10 361.033368
-0.643382 -1.038887 0.652352 49.000000 8 361.033371
-0.629537 -1.016135 0.504941 38.000000 6 361.033373
-0.619744 -0.999940 0.374454 17.000000 4 361.033376
-0.600135 -0.967924 0.250858 11.000000 2 361.033378
-0.605539 -0.976259 0.140018 25.000000 0 361.033381
-0.028722 -0.031887 3.364146 58.000000 31 361.033392
-0.284642 -0.433050 3.294909 87.000000 28 361.033394
-0.373976 -0.567467 3.290853 65.000000 27 361.033397
-0.534866 -0.847254 3.248379 51.000000 25 361.033399
-0.702513 -1.126482 3.187166 39.000000 23 361.033402
-0.797388 -1.279096 2.828406 26.000000 21 361.033404
-0.752135 -1.206501 2.160744 36.000000 19 361.033407
-0.716722 -1.149692 1.698113 38.000000 17 361.033410
-0.119666 -0.164578 3.348799 80.000000 30 361.033417
-0.206014 -0.298022 3.330658 88.000000 29 361.033420
-0.452639 -0.705947 3.263949 58.000000 26 361.033422
-0.617682 -0.986625 3.219652 40.000000 24 361.033425
-0.798963 -1.277153 3.177341 38.000000 22 361.033428
-0.773879 -1.237528 2.457597 33.000000 20 361.033430
-0.731715 -1.170099 1.901513 38.000000 18 361.033433
-0.699846 -1.119133 1.509208 39.000000 16 361.033435
-0.693168 -1.114936 1.369925 39.000000 15 361.033393
-0.671669 -1.080351 1.107772 40.000000 13 361.033396
-0.657042 -1.056413 0.900261 44.000000 11 361.033398
-0.646537 -1.039519 0.727091 40.000000 9 361.033401
-0.632303 -1.016237 0.571893 39.000000 7 361.033403
-0.616201 -0.989974 0.432477 30.000000 5 361.033406
-0.604821 -0.971690 0.308773 9.000000 3 361.033408
-0.597439 -0.959457 0.194221 13.000000 1 361.033411
-0.679866 -1.089720 1.224718 40.000000 14 361.033419
-0.664632 -1.065298 0.997820 44.000000 12 361.033421
-0.649232 -1.040210 0.805882 45.000000 10 361.033424
-0.647004 -1.036635 0.652352 49.000000 8 361.033426
-0.633080 -1.013932 0.504941 38.000000 6 361.033429
-0.623231 -0.997770 0.374454 17.000000 4 361.033431
-0.606135 -0.970023 0.251548 11.000000 2 361.033434
-0.608943 -0.974139 0.140018 25.000000 0 361.033437
-0.028833 -0.031787 3.364146 57.000000 31 361.033447
-0.286152 -0.432053 3.294909 87.000000 28 361.033450
-0.375955 -0.566158 3.290853 65.000000 27 361.033452
-0.537820 -0.845381 3.248379 51.000000 25 361.033455
-0.706441 -1.124022 3.187166 37.000000 23 361.033457
-0.801848 -1.276304 2.828406 26.000000 21 361.033460
-0.756342 -1.203868 2.160744 36.000000 19 361.033463
-0.720731 -1.147183 1.698113 38.000000 17 361.033465
-0.120239 -0.164160 3.348799 80.000000 30 361.033473
-0.207053 -0.297301 3.330658 89.000000 29 361.033475
-0.455101 -0.704363 3.263949 57.000000 26 361.033478
-0.621122 -0.984463 3.219652 40.000000 24 361.033481
-0.803416 -1.274356 3.177341 38.000000 22 361.033483
-0.778194 -1.234819 2.457597 33.000000 20 361.033486
-0.737402 -1.170087 1.905502 38.000000 18 361.033488
-0.703748 -1.116683 1.509208 39.000000 16 361.033491
-0.697055 -1.112510 1.369925 39.000000 15 361.033448
-0.675436 -1.078000 1.107772 40.000000 13 361.033451
-0.660725 -1.054113 0.900261 44.000000 11 361.033454
-0.650162 -1.037256 0.727091 40.000000 9 361.033456
-0.638309 -1.017951 0.573766 39.000000 7 361.033459
-0.622203 -0.991881 0.433886 30.000000 5 361.033461
-0.608209 -0.969573 0.308773 9.000000 3 361.033464
-0.600784 -0.957365 0.194221 13.000000 1 361.033466
-0.683666 -1.087340 1.224718 42.000000 14 361.033474
-0.668347 -1.062971 0.997820 44.000000 12 361.033477
-0.652859 -1.037938 0.805882 45.000000 10 361.033479
-0.650619 -1.034370 0.652352 49.000000 8 361.033482
-0.636615 -1.011715 0.504941 38.000000 6 361.033484
-0.626710 -0.995589 0.374454 17.000000 4 361.033487
-0.609517 -0.967901 0.251548 11.000000 2 361.033490
-0.612340 -0.972008 0.140018 25.000000 0 361.033492
-0.028912 -0.031657 3.359145 57.000000 31 361.033503
-0.287659 -0.431052 3.294909 89.000000 28 361.033505
-0.377929 -0.564842 3.290853 65.000000 27 361.033508
-0.540768 -0.843499 3.248379 48.000000 25 361.033510
-0.710361 -1.121550 3.187166 37.000000 23 361.033513
-0.806299 -1.273498 2.828406 26.000000 21 361.033516
-0.760539 -1.201221 2.160744 36.000000 19 361.033518
-0.726446 -1.147369 1.701950 38.000000 17 361.033521
-0.120812 -0.163739 3.348799 80.000000 30 361.033528
-0.208090 -0.296577 3.330658 90.000000 29 361.033531
-0.457557 -0.702770 3.263949 58.000000 26 361.033534
-0.625481 -0.983745 3.224345 40.000000 24 361.033536
-0.807859 -1.271544 3.177341 39.000000 22 361.033539
-0.783898 -1.234297 2.461863 33.000000 20 361.033541
-0.741482 -1.167506 1.905502 38.000000 18 361.033544
-0.707642 -1.114220 1.509208 39.000000 16 361.033546
-0.700935 -1.110070 1.369925 39.000000 15 361.033504
-0.679195 -1.075636 1.107772 40.000000 13 361.033507
-0.664401 -1.051800 0.900261 42.000000 11 361.033509
-0.653778 -1.034980 0.727091 40.000000 9 361.033512
-0.641859 -1.015717 0.573766 39.000000 7 361.033514
-0.625661 -0.989703 0.433886 30.000000 5 361.033517
-0.611590 -0.967444 0.308773 9.000000 3 361.033519
-0.604122 -0.955262 0.194221 13.000000 1 361.033522
-0.687457 -1.084947 1.224718 42.000000 14 361.033530
-0.669890 -1.057218 0.994877 42.000000 12 361.033532
-0.656479 -1.035652 0.805882 45.000000 10 361.033535
-0.654225 -1.032093 0.652352 49.000000 8 361.033537
-0.640143 -1.009487 0.504941 38.000000 6 361.033540
-0.630181 -0.993395 0.374454 17.000000 4 361.033542
-0.612892 -0.965768 0.251548 11.000000 2 361.033545
-0.615729 -0.969864 0.140018 25.000000 0 361.033548
-0.029022 -0.031555 3.359145 56.000000 31 361.033558
-0.289161 -0.430045 3.294909 89.000000 28 361.033561
-0.379898 -0.563519 3.290853 65.000000 27 361.033563
-0.543709 -0.841606 3.248379 48.000000 25 361.033566
-0.714271 -1.119063 3.187166 38.000000 23 361.033568
-0.812028 -1.272695 2.832794 25.000000 21 361.033571
-0.764728 -1.198559 2.160744 36.000000 19 361.033573
-0.730447 -1.144826 1.701950 38.000000 17 361.033576
-0.121383 -0.163316 3.348799 79.000000 30 361.033584
-0.209124 -0.295849 3.330658 88.000000 29 361.033586
-0.460007 -0.701169 3.263949 58.000000 26 361.033589
-0.628911 -0.981556 3.224345 40.000000 24 361.033591
-0.812293 -1.268716 3.177341 39.000000 22 361.033594
-0.788202 -1.231553 2.461863 33.000000 20 361.033596
-0.745552 -1.164911 1.905502 38.000000 18 361.033599
-0.713354 -1.114598 1.512883 39.000000 16 361.033602
-0.704805 -1.107616 1.369925 39.000000 15 361.033559
-0.682945 -1.073259 1.107772 40.000000 13 361.033562
-0.668068 -1.049474 0.900261 44.000000 11 361.033564
-0.659766 -1.036429 0.729409 40.000000 9 361.033567
-0.645400 -1.013470 0.573766 39.000000 7 361.033570
-0.629112 -0.987513 0.433886 30.000000 5 361.033572
-0.614963 -0.965303 0.308773 9.000000 3 361.033575
-0.607453 -0.953148 0.194221 12.000000 1 361.033577
-0.691240 -1.082541 1.224718 40.000000 14 361.033585
-0.673576 -1.054873 0.994877 42.000000 12 361.033588
-0.660090 -1.033355 0.805882 45.000000 10 361.033590
-0.657824 -1.029803 0.652352 49.000000 8 361.033593
-0.643663 -1.007246 0.504941 38.000000 6 361.033595
-0.633645 -0.991189 0.374454 17.000000 4 361.033598
-0.616259 -0.963623 0.251548 12.000000 2 361.033600
-0.619111 -0.967709 0.140018 24.000000 0 361.033603
-0.029132 -0.031454 3.359145 56.000000 31 361.033614
-0.290661 -0.429033 3.294909 89.000000 28 361.033616
-0.381863 -0.562190 3.290853 68.000000 27 361.033619
-0.546644 -0.839703 3.248379 48.000000 25 361.033621
-0.718173 -1.116563 3.187166 39.000000 23 361.033624
-0.816465 -1.269853 2.832794 25.000000 21 361.033626
-0.768907 -1.195882 2.160744 36.000000 19 361.033629
-0.734439 -1.142270 1.701950 38.000000 17 361.033631
-0.121952 -0.162891 3.348799 80.000000 30 361.033639
-0.210466 -0.295551 3.335630 88.000000 29 361.033642
-0.463146 -0.700608 3.268789 59.000000 26 361.033644
-0.632334 -0.979354 3.224345 40.000000 24 361.033647
-0.816716 -1.265873 3.177341 39.000000 22 361.033649
-0.793909 -1.230986 2.466129 33.000000 20 361.033652
-0.751248 -1.164834 1.909492 38.000000 18 361.033655
-0.717241 -1.112101 1.512883 38.000000 16 361.033657
-0.708667 -1.105149 1.369925 39.000000 15 361.033615
-0.686687 -1.070868 1.107772 40.000000 13 361.033617
-0.671727 -1.047136 0.900261 42.000000 11 361.033620
-0.663380 -1.034119 0.729409 42.000000 9 361.033622
-0.648934 -1.011211 0.573766 39.000000 7 361.033625
-0.632555 -0.985311 0.433886 29.000000 5 361.033628
-0.618329 -0.963151 0.308773 9.000000 3 361.033630
-0.613468 -0.955212 0.194667 12.000000 1 361.033633
-0.695015 -1.080122 1.224718 40.000000 14 361.033640
-0.677254 -1.052515 0.994877 42.000000 12 361.033643
-0.663693 -1.031044 0.805882 45.000000 10 361.033646
-0.661415 -1.027501 0.652352 49.000000 8 361.033648
-0.647175 -1.004993 0.504941 38.000000 6 361.033651
-0.637101 -0.988971 0.374454 17.000000 4 361.033653
-0.619619 -0.961466 0.251548 11.000000 2 361.033656
-0.622485 -0.965542 0.140018 25.000000 0 361.033658
-0.029241 -0.031352 3.359145 54.000000 31 361.033669
-0.292157 -0.428016 3.294909 89.000000 28 361.033672
-0.383823 -0.560853 3.290853 67.000000 27 361.033674
-0.550391 -0.839039 3.253151 48.000000 25 361.033677
-0.722066 -1.114050 3.187166 39.000000 23 361.033679
-0.822196 -1.269006 2.837183 26.000000 21 361.033682
-0.774607 -1.195552 2.164877 36.000000 19 361.033684
-0.738421 -1.139699 1.701950 38.000000 17 361.033687
-0.122520 -0.162465 3.348799 80.000000 30 361.033695
-0.211496 -0.294815 3.335630 88.000000 29 361.033697
-0.465588 -0.698987 3.268789 59.000000 26 361.033700
-0.635748 -0.977141 3.224345 40.000000 24 361.033702
-0.821130 -1.263015 3.177341 39.000000 22 361.033705
-0.798201 -1.228207 2.466129 33.000000 20 361.033708
-0.755309 -1.162205 1.909492 38.000000 18 361.033710
-0.721118 -1.109591 1.512883 39.000000 16 361.033713
-0.712520 -1.102669 1.369925 39.000000 15 361.033670
-0.690421 -1.068465 1.107772 40.000000 13 361.033673
-0.677648 -1.048297 0.903003 44.000000 11 361.033675
-0.666986 -1.031797 0.729409 40.000000 9 361.033678
-0.652460 -1.008940 0.573766 39.000000 7 361.033681
-0.635991 -0.983097 0.433886 29.000000 5 361.033683
-0.621687 -0.960987 0.308773 9.000000 3 361.033686
-0.616798 -0.953065 0.194667 11.000000 1 361.033688
-0.700813 -1.080822 1.228043 40.000000 14 361.033696
-0.680924 -1.050145 0.994877 42.000000 12 361.033699
-0.669634 -1.032338 0.808414 45.000000 10 361.033701
-0.664997 -1.025186 0.652352 49.000000 8 361.033704
-0.650679 -1.002728 0.504941 38.000000 6 361.033706
-0.637903 -0.982664 0.373282 17.000000 4 361.033709
-0.620274 -0.955144 0.250858 11.000000 2 361.033711
-0.625851 -0.963363 0.140018 25.000000 0 361.033714
-0.029351 -0.031250 3.359145 54.000000 31 361.033725
-0.293649 -0.426994 3.294909 89.000000 28 361.033727
-0.385778 -0.559510 3.290853 65.000000 27 361.033730
-0.553316 -0.837112 3.253151 49.000000 25 361.033732
-0.725951 -1.111522 3.187166 38.000000 23 361.033735
-0.826620 -1.266128 2.837183 26.000000 21 361.033737
-0.778775 -1.192841 2.164877 36.000000 19 361.033740
-0.742395 -1.137115 1.701950 38.000000 17 361.033742
-0.123086 -0.162036 3.348799 83.000000 30 361.033750
-0.212524 -0.294075 3.335630 88.000000 29 361.033753
-0.468025 -0.697357 3.268789 59.000000 26 361.033755
-0.638209 -0.973473 3.219652 39.000000 24 361.033758
-0.826727 -1.261962 3.181842 38.000000 22 361.033760
-0.802484 -1.225413 2.466129 33.000000 20 361.033763
-0.759361 -1.159561 1.909492 38.000000 18 361.033766
-0.724987 -1.107067 1.512883 39.000000 16 361.033768
-0.718311 -1.103163 1.373429 39.000000 15 361.033726
-0.694147 -1.066048 1.107772 40.000000 13 361.033728
-0.681304 -1.045925 0.903003 44.000000 11 361.033731
-0.670583 -1.029463 0.729409 40.000000 9 361.033734
-0.655977 -1.006656 0.573766 39.000000 7 361.033736
-0.639418 -0.980871 0.433886 30.000000 5 361.033739
-0.625038 -0.958811 0.308773 9.000000 3 361.033741
-0.622842 -0.955077 0.195113 11.000000 1 361.033744
-0.704581 -1.078369 1.228043 40.000000 14 361.033752
-0.686796 -1.051145 0.997820 42.000000 12 361.033754
-0.673233 -1.029994 0.808414 45.000000 10 361.033757
-0.668572 -1.022858 0.652352 49.000000 8 361.033759
-0.654175 -1.000451 0.504941 38.000000 6 361.033762
-0.641329 -0.980432 0.373282 17.000000 4 361.033764
-0.623605 -0.952973 0.250858 12.000000 2 361.033767
-0.629210 -0.961173 0.140018 25.000000 0 361.033769
-0.029460 -0.031147 3.359145 55.000000 31 361.033780
-0.295138 -0.425966 3.294909 89.000000 28 361.033783
-0.387729 -0.558160 3.290853 65.000000 27 361.033785
-0.556235 -0.835176 3.253151 49.000000 25 361.033788
-0.730900 -1.110613 3.191769 38.000000 23 361.033790
-0.832352 -1.265236 2.841572 25.000000 21 361.033793
-0.782934 -1.190115 2.164877 36.000000 19 361.033795
-0.746360 -1.134516 1.701950 38.000000 17 361.033798
-0.123474 -0.161376 3.343807 83.000000 30 361.033806
-0.213549 -0.293331 3.335630 88.000000 29 361.033808
-0.470457 -0.695719 3.268789 54.000000 26 361.033811
-0.641603 -0.971239 3.219652 39.000000 24 361.033813
-0.831127 -1.259068 3.181842 38.000000 22 361.033816
-0.806756 -1.222605 2.466129 33.000000 20 361.033819
-0.763404 -1.156903 1.909492 38.000000 18 361.033821
-0.728847 -1.104530 1.512883 38.000000 16 361.033824
-0.722158 -1.100649 1.373429 39.000000 15 361.033781
-0.697864 -1.063619 1.107772 40.000000 13 361.033784
-0.684950 -1.043540 0.903003 44.000000 11 361.033786
-0.674173 -1.027116 0.729409 40.000000 9 361.033789
-0.659487 -1.004360 0.573766 39.000000 7 361.033792
-0.642838 -0.978633 0.433886 30.000000 5 361.033794
-0.628381 -0.956623 0.308773 9.000000 3 361.033797
-0.626172 -0.952897 0.195113 12.000000 1 361.033799
-0.708341 -1.075903 1.228043 40.000000 14 361.033807
-0.690461 -1.048741 0.997820 42.000000 12 361.033810
-0.676825 -1.027638 0.808414 45.000000 10 361.033812
-0.672138 -1.020518 0.652352 47.000000 8 361.033815
-0.657663 -0.998161 0.504941 38.000000 6 361.033817
-0.644748 -0.978187 0.373282 17.000000 4 361.033820
-0.626927 -0.950790 0.250858 12.000000 2 361.033822
-0.632562 -0.958971 0.140018 25.000000 0 361.033825
-0.029568 -0.031044 3.359145 55.000000 31 361.033836
-0.296623 -0.424933 3.294909 87.000000 28 361.033838
-0.389675 -0.556803 3.290853 65.000000 27 361.033841
-0.559147 -0.833229 3.253151 49.000000 25 361.033843
-0.734773 -1.108055 3.191769 39.000000 23 361.033846
-0.838087 -1.264320 2.845960 25.000000 21 361.033848
-0.788639 -1.189721 2.169010 36.000000 19 361.033851
-0.752087 -1.134576 1.705787 38.000000 17 361.033854
-0.124036 -0.160944 3.343807 84.000000 30 361.033861
-0.214572 -0.292584 3.335630 86.000000 29 361.033864
-0.472882 -0.694073 3.268789 54.000000 26 361.033866
-0.644990 -0.968994 3.219652 40.000000 24 361.033869
-0.835517 -1.256160 3.181842 38.000000 22 361.033872
-0.812463 -1.221953 2.470395 33.000000 20 361.033874
-0.767438 -1.154232 1.909492 38.000000 18 361.033877
-0.732698 -1.101979 1.512883 38.000000 16 361.033879
-0.725995 -1.098122 1.373429 39.000000 15 361.033837
-0.701572 -1.061176 1.107772 40.000000 13 361.033839
-0.688589 -1.041143 0.903003 42.000000 11 361.033842
-0.677754 -1.024756 0.729409 40.000000 9 361.033845
-0.662989 -1.002052 0.573766 39.000000 7 361.033847
-0.646251 -0.976383 0.433886 30.000000 5 361.033850
-0.631716 -0.954424 0.308773 9.000000 3 361.033852
-0.629494 -0.950706 0.195113 10.000000 1 361.033855
-0.712092 -1.073424 1.228043 40.000000 14 361.033863
-0.694118 -1.046325 0.997820 42.000000 12 361.033865
-0.680408 -1.025269 0.808414 45.000000 10 361.033868
-0.675696 -1.018166 0.652352 47.000000 8 361.033870
-0.661143 -0.995860 0.504941 38.000000 6 361.033873
-0.648158 -0.975931 0.373282 17.000000 4 361.033875
-0.630243 -0.948596 0.250858 12.000000 2 361.033878
-0.635905 -0.956757 0.140018 25.000000 0 361.033880
-0.029676 -0.030941 3.359145 47.000000 31 361.033891
-0.298104 -0.423895 3.294909 87.000000 28 361.033894
-0.391616 -0.555440 3.290853 65.000000 27 361.033896
-0.562052 -0.831272 3.253151 49.000000 25 361.033899
-0.738636 -1.105484 3.191769 39.000000 23 361.033901
-0.842495 -1.261387 2.845960 24.000000 21 361.033904
-0.792787 -1.186961 2.169010 36.000000 19 361.033906
-0.756043 -1.131944 1.705787 38.000000 17 361.033909
-0.124597 -0.160511 3.343807 79.000000 30 361.033917
-0.215274 -0.291404 3.330658 84.000000 29 361.033919
-0.475302 -0.692418 3.268789 58.000000 26 361.033922
-0.648368 -0.966736 3.219652 40.000000 24 361.033924
-0.839897 -1.253235 3.181842 39.000000 22 361.033927
-0.816724 -1.219110 2.470395 33.000000 20 361.033930
-0.773140 -1.154050 1.913481 38.000000 18 361.033932
-0.738427 -1.102231 1.516559 39.000000 16 361.033935
-0.729824 -1.095581 1.373429 39.000000 15 361.033892
-0.705272 -1.058721 1.107772 40.000000 13 361.033895
-0.692219 -1.038733 0.903003 42.000000 11 361.033898
-0.681327 -1.022384 0.729409 40.000000 9 361.033900
-0.666483 -0.999732 0.573766 39.000000 7 361.033903
-0.649655 -0.974121 0.433886 30.000000 5 361.033905
-0.635044 -0.952213 0.308773 9.000000 3 361.033908
-0.632809 -0.948503 0.195113 10.000000 1 361.033910
-0.715835 -1.070932 1.228043 40.000000 14 361.033918
-0.697766 -1.043896 0.997820 42.000000 12 361.033921
-0.683982 -1.022888 0.808414 45.000000 10 361.033923
-0.681769 -1.019574 0.654450 49.000000 8 361.033926
-0.664616 -0.993546 0.504941 38.000000 6 361.033928
-0.651561 -0.973662 0.373282 17.000000 4 361.033931
-0.633550 -0.946390 0.250858 11.000000 2 361.033933
-0.639241 -0.954531 0.140018 25.000000 0 361.033936
-0.029784 -0.030837 3.359145 47.000000 31 361.033947
-0.299582 -0.422852 3.294909 87.000000 28 361.033949
-0.393552 -0.554069 3.290853 65.000000 27 361.033952
-0.564950 -0.829305 3.253151 48.000000 25 361.033954
-0.742490 -1.102899 3.191769 39.000000 23 361.033957
-0.846893 -1.258438 2.845960 24.000000 21 361.033959
-0.798496 -1.186521 2.173143 36.000000 19 361.033962
-0.759989 -1.129298 1.705787 38.000000 17 361.033965
-0.125129 -0.160096 3.343807 79.000000 30 361.033972
-0.216239 -0.290689 3.330658 84.000000 29 361.033975
-0.477596 -0.690838 3.268789 62.000000 26 361.033977
-0.651570 -0.964581 3.219652 40.000000 24 361.033980
-0.844266 -1.250296 3.181842 38.000000 22 361.033983
-0.820974 -1.216251 2.470395 33.000000 20 361.033985
-0.777164 -1.151344 1.913481 38.000000 18 361.033988
-0.742078 -1.099776 1.516559 39.000000 16 361.033990
-0.735631 -1.095988 1.376934 39.000000 15 361.033948
-0.708963 -1.056252 1.107772 40.000000 13 361.033950
-0.695840 -1.036310 0.903003 42.000000 11 361.033953
-0.684892 -1.020000 0.729409 40.000000 9 361.033956
-0.669795 -0.997516 0.573766 39.000000 7 361.033958
-0.652882 -0.971961 0.433886 31.000000 5 361.033961
-0.641104 -0.954068 0.309705 9.000000 3 361.033963
-0.636116 -0.946288 0.195113 11.000000 1 361.033966
-0.721655 -1.071524 1.231368 40.000000 14 361.033974
-0.701406 -1.041454 0.997820 42.000000 12 361.033976
-0.687371 -1.020614 0.808414 44.000000 10 361.033979
-0.685146 -1.017307 0.654450 49.000000 8 361.033981
-0.667907 -0.991336 0.504941 38.000000 6 361.033984
-0.657503 -0.975527 0.374454 18.000000 4 361.033986
-0.636685 -0.944284 0.250858 12.000000 2 361.033989
-0.642403 -0.952406 0.140018 25.000000 0 361.033992
-0.029886 -0.030738 3.359145 56.000000 31 361.034002
-0.300983 -0.421856 3.294909 84.000000 28 361.034005
-0.395388 -0.552761 3.290853 65.000000 27 361.034007
-0.567697 -0.827427 3.253151 48.000000 25 361.034010
-0.746144 -1.100430 3.191769 39.000000 23 361.034012
-0.852405 -1.257606 2.850349 25.000000 21 361.034015
-0.802426 -1.183866 2.173143 36.000000 19 361.034018
-0.765529 -1.129425 1.709624 38.000000 17 361.034020
-0.125867 -0.159885 3.348799 80.000000 30 361.034028
-0.217252 -0.289932 3.330658 84.000000 29 361.034030
-0.480004 -0.689167 3.268789 59.000000 26 361.034033
-0.655904 -0.963727 3.224345 40.000000 24 361.034036
-0.848408 -1.247489 3.181842 38.000000 22 361.034038
-0.825003 -1.213522 2.470395 33.000000 20 361.034041
-0.780977 -1.148760 1.913481 38.000000 18 361.034043
-0.745913 -1.097179 1.516559 39.000000 16 361.034046
-0.739262 -1.093542 1.376934 39.000000 15 361.034003
-0.712462 -1.053895 1.107772 40.000000 13 361.034006
-0.699273 -1.033997 0.903003 42.000000 11 361.034009
-0.688270 -1.017723 0.729409 40.000000 9 361.034011
-0.673273 -0.995172 0.573766 39.000000 7 361.034014
-0.656270 -0.969676 0.433886 31.000000 5 361.034016
-0.644264 -0.951936 0.309705 9.000000 3 361.034019
-0.639250 -0.944173 0.195113 11.000000 1 361.034021
-0.725204 -1.069125 1.231368 40.000000 14 361.034029
-0.704856 -1.039122 0.997820 42.000000 12 361.034032
-0.690929 -1.018209 0.808414 44.000000 10 361.034034
-0.688693 -1.014909 0.654450 47.000000 8 361.034037
-0.674015 -0.992906 0.506584 38.000000 6 361.034039
-0.660904 -0.973226 0.374454 18.000000 4 361.034042
-0.639977 -0.942056 0.250858 12.000000 2 361.034044
-0.648532 -0.954290 0.140219 25.000000 0 361.034047
-0.029993 -0.030634 3.359145 56.000000 31 361.034058
-0.302453 -0.420803 3.294909 83.000000 28 361.034060
-0.397315 -0.551378 3.290853 65.000000 27 361.034063
-0.571431 -0.826669 3.257922 49.000000 25 361.034065
-0.749980 -1.097819 3.191769 39.000000 23 361.034068
-0.856790 -1.254623 2.850349 26.000000 21 361.034070
-0.808141 -1.183382 2.177276 36.000000 19 361.034073
-0.769467 -1.126746 1.709624 38.000000 17 361.034076
-0.126425 -0.159445 3.348799 82.000000 30 361.034083
-0.218263 -0.289172 3.330658 84.000000 29 361.034086
-0.482407 -0.687487 3.268789 57.000000 26 361.034088
-0.659264 -0.961432 3.224345 40.000000 24 361.034091
-0.852974 -1.244372 3.181842 39.000000 22 361.034094
-0.830919 -1.212642 2.474661 33.000000 20 361.034096
-0.785183 -1.145890 1.913481 38.000000 18 361.034099
-0.749929 -1.094438 1.516559 39.000000 16 361.034101
-0.743074 -1.090955 1.376934 39.000000 15 361.034059
-0.718328 -1.054620 1.110910 39.000000 13 361.034062
-0.702878 -1.031550 0.903003 42.000000 11 361.034064
-0.691819 -1.015314 0.729409 40.000000 9 361.034067
-0.679353 -0.996646 0.575639 39.000000 7 361.034069
-0.662354 -0.971343 0.435295 31.000000 5 361.034072
-0.647749 -0.949569 0.309705 9.000000 3 361.034074
-0.642707 -0.941824 0.195113 12.000000 1 361.034077
-0.731225 -1.069543 1.234693 40.000000 14 361.034085
-0.710941 -1.039868 1.000763 42.000000 12 361.034087
-0.694656 -1.015669 0.808414 44.000000 10 361.034090
-0.692408 -1.012378 0.654450 47.000000 8 361.034092
-0.677650 -0.990429 0.506584 38.000000 6 361.034095
-0.664467 -0.970797 0.374454 18.000000 4 361.034097
-0.643425 -0.939704 0.250858 12.000000 2 361.034100
-0.651859 -0.952020 0.140219 25.000000 0 361.034103
-0.030139 -0.030552 3.364146 57.000000 31 361.034113
-0.303994 -0.419692 3.294909 87.000000 28 361.034116
-0.399333 -0.549918 3.290853 59.000000 27 361.034118
-0.574457 -0.824569 3.257922 49.000000 25 361.034121
-0.753999 -1.095063 3.191769 38.000000 23 361.034123
-0.862741 -1.253448 2.854738 25.000000 21 361.034126
-0.812473 -1.180412 2.177276 36.000000 19 361.034129
-0.773591 -1.123918 1.709624 38.000000 17 361.034131
-0.126980 -0.159003 3.348799 80.000000 30 361.034139
-0.219271 -0.288408 3.330658 83.000000 29 361.034141
-0.484804 -0.685799 3.268789 55.000000 26 361.034144
-0.662616 -0.959125 3.224345 39.000000 24 361.034147
-0.857313 -1.241387 3.181842 38.000000 22 361.034149
-0.835147 -1.209734 2.474661 32.000000 20 361.034152
-0.790890 -1.145623 1.917471 38.000000 18 361.034154
-0.755480 -1.094735 1.520234 39.000000 16 361.034157
-0.747068 -1.088224 1.376934 39.000000 15 361.034114
-0.722189 -1.051980 1.110910 39.000000 13 361.034117
-0.706654 -1.028967 0.903003 42.000000 11 361.034120
-0.695535 -1.012772 0.729409 40.000000 9 361.034122
-0.682828 -0.994269 0.575639 39.000000 7 361.034125
-0.665740 -0.969025 0.435295 31.000000 5 361.034127
-0.651059 -0.947302 0.309705 9.000000 3 361.034130
-0.645990 -0.939575 0.195113 12.000000 1 361.034132
-0.734954 -1.066984 1.234693 42.000000 14 361.034140
-0.714566 -1.037380 1.000763 42.000000 12 361.034143
-0.700466 -1.016911 0.810947 44.000000 10 361.034145
-0.695762 -1.010077 0.654450 49.000000 8 361.034148
-0.680931 -0.988176 0.506584 38.000000 6 361.034150
-0.670441 -0.972590 0.375626 18.000000 4 361.034153
-0.649350 -0.941642 0.251548 11.000000 2 361.034156
-0.655178 -0.949739 0.140219 25.000000 0 361.034158
-0.030240 -0.030451 3.364146 57.000000 31 361.034169
-0.305384 -0.418681 3.294909 89.000000 28 361.034171
-0.401756 -0.549412 3.295749 62.000000 27 361.034174
-0.577189 -0.822660 3.257922 48.000000 25 361.034176
-0.757626 -1.092557 3.191769 38.000000 23 361.034179
-0.866893 -1.250580 2.854738 25.000000 21 361.034182
-0.816383 -1.177711 2.177276 36.000000 19 361.034184
-0.777314 -1.121347 1.709624 38.000000 17 361.034187
-0.127535 -0.158558 3.348799 79.000000 30 361.034194
-0.220276 -0.287641 3.330658 83.000000 29 361.034197
-0.487195 -0.684102 3.268789 55.000000 26 361.034200
-0.665960 -0.956806 3.224345 40.000000 24 361.034202
-0.862668 -1.240325 3.186343 39.000000 22 361.034205
-0.840643 -1.209099 2.478927 32.000000 20 361.034207
-0.794685 -1.142994 1.917471 38.000000 18 361.034210
-0.759297 -1.092091 1.520234 39.000000 16 361.034212
-0.750672 -1.085741 1.376934 39.000000 15 361.034170
-0.725673 -1.049579 1.110910 39.000000 13 361.034173
-0.710063 -1.026618 0.903003 42.000000 11 361.034175
-0.701410 -1.014103 0.731727 40.000000 9 361.034178
-0.686295 -0.991879 0.575639 39.000000 7 361.034180
-0.671849 -0.970640 0.436705 31.000000 5 361.034183
-0.654197 -0.945138 0.309705 9.000000 3 361.034185
-0.649103 -0.937428 0.195113 12.000000 1 361.034188
-0.738489 -1.064541 1.234693 42.000000 14 361.034196
-0.718002 -1.035005 1.000763 42.000000 12 361.034198
-0.704012 -1.014459 0.810947 45.000000 10 361.034201
-0.699283 -1.007642 0.654450 49.000000 8 361.034203
-0.684376 -0.985793 0.506584 38.000000 6 361.034206
-0.673832 -0.970244 0.375626 18.000000 4 361.034208
-0.652632 -0.939369 0.251548 11.000000 2 361.034211
-0.658489 -0.947446 0.140219 25.000000 0 361.034214
-0.030346 -0.030346 3.364146 55.000000 31 361.034225
-0.306843 -0.417613 3.294909 89.000000 28 361.034228
-0.403671 -0.548006 3.295749 65.000000 27 361.034230
-0.580057 -0.820640 3.257922 46.000000 25 361.034233
-0.761435 -1.089905 3.191769 38.000000 23 361.034235
-0.871253 -1.247546 2.854738 25.000000 21 361.034238
-0.820489 -1.174854 2.177276 36.000000 19 361.034240
-0.783059 -1.121255 1.713461 38.000000 17 361.034243
-0.128087 -0.158112 3.348799 79.000000 30 361.034251
-0.221279 -0.286870 3.330658 84.000000 29 361.034253
-0.489580 -0.682398 3.268789 55.000000 26 361.034256
-0.670287 -0.955888 3.229038 40.000000 24 361.034258
-0.866993 -1.237306 3.186343 39.000000 22 361.034261
-0.844858 -1.206157 2.478927 32.000000 20 361.034263
-0.798670 -1.140213 1.917471 38.000000 18 361.034266
-0.763104 -1.089434 1.520234 39.000000 16 361.034269
-0.754458 -1.083114 1.376934 39.000000 15 361.034226
-0.731558 -1.050234 1.114048 40.000000 13 361.034229
-0.716033 -1.027564 0.905744 42.000000 11 361.034231
-0.704946 -1.011649 0.731727 40.000000 9 361.034234
-0.689753 -0.989478 0.575639 39.000000 7 361.034237
-0.675233 -0.968289 0.436705 31.000000 5 361.034239
-0.657492 -0.942848 0.309705 9.000000 3 361.034242
-0.652371 -0.935156 0.195113 12.000000 1 361.034244
-0.742200 -1.061956 1.234693 42.000000 14 361.034252
-0.721611 -1.032492 1.000763 42.000000 12 361.034255
-0.707548 -1.011996 0.810947 45.000000 10 361.034257
-0.705397 -1.008914 0.656548 49.000000 8 361.034260
-0.687813 -0.983399 0.506584 38.000000 6 361.034262
-0.677214 -0.967886 0.375626 18.000000 4 361.034265
-0.658747 -0.941143 0.252238 11.000000 2 361.034267
-0.664658 -0.949234 0.140421 25.000000 0 361.034270
-0.030452 -0.030240 3.364146 55.000000 31 361.034281
-0.308299 -0.416539 3.294909 87.000000 28 361.034283
-0.405582 -0.546594 3.295749 65.000000 27 361.034286
-0.582918 -0.818610 3.257922 45.000000 25 361.034288
-0.765235 -1.087241 3.191769 38.000000 23 361.034291
-0.876981 -1.246457 2.859126 25.000000 21 361.034293
-0.826204 -1.174284 2.181409 36.000000 19 361.034296
-0.786968 -1.118515 1.713461 38.000000 17 361.034298
-0.128639 -0.157664 3.348799 78.000000 30 361.034306
-0.222279 -0.286096 3.330658 84.000000 29 361.034309
-0.491959 -0.680685 3.268789 59.000000 26 361.034311
-0.673620 -0.953543 3.229038 40.000000 24 361.034314
-0.871306 -1.234272 3.186343 38.000000 22 361.034316
-0.850567 -1.205332 2.483193 32.000000 20 361.034319
-0.804383 -1.139881 1.921460 38.000000 18 361.034322
-0.766902 -1.086764 1.520234 39.000000 16 361.034324
-0.760283 -1.083393 1.380438 39.000000 15 361.034282
-0.735219 -1.047674 1.114048 40.000000 13 361.034284
-0.719615 -1.025058 0.905744 42.000000 11 361.034287
-0.708473 -1.009182 0.731727 40.000000 9 361.034289
-0.693202 -0.987064 0.575639 39.000000 7 361.034292
-0.678609 -0.965926 0.436705 31.000000 5 361.034295
-0.663603 -0.944567 0.310638 9.000000 3 361.034297
-0.655631 -0.932873 0.195113 13.000000 1 361.034300
-0.745902 -1.059359 1.234693 40.000000 14 361.034307
-0.725210 -1.029967 1.000763 42.000000 12 361.034310
-0.711077 -1.009520 0.810947 45.000000 10 361.034313
-0.708915 -1.006446 0.656548 50.000000 8 361.034315
-0.691241 -0.980992 0.506584 38.000000 6 361.034318
-0.680589 -0.965516 0.375626 18.000000 4 361.034320
-0.662028 -0.938837 0.252238 11.000000 2 361.034323
-0.667967 -0.946909 0.140421 25.000000 0 361.034325
-0.030557 -0.030133 3.364146 58.000000 31 361.034336
-0.309751 -0.415460 3.294909 89.000000 28 361.034339
-0.407487 -0.545175 3.295749 65.000000 27 361.034341
-0.585772 -0.816570 3.257922 46.000000 25 361.034344
-0.770156 -1.086157 3.196371 36.000000 23 361.034346
-0.881327 -1.243388 2.859126 25.000000 21 361.034349
-0.830298 -1.171393 2.181409 36.000000 19 361.034351
-0.790868 -1.115761 1.713461 38.000000 17 361.034354
-0.129188 -0.157214 3.348799 78.000000 30 361.034362
-0.223276 -0.285319 3.330658 87.000000 29 361.034364
-0.494332 -0.678963 3.268789 57.000000 26 361.034367
-0.677945 -0.952592 3.233731 44.000000 24 361.034369
-0.875610 -1.231223 3.186343 38.000000 22 361.034372
-0.854769 -1.202355 2.483193 31.000000 20 361.034375
-0.808357 -1.137066 1.921460 38.000000 18 361.034377
-0.772655 -1.086843 1.523909 38.000000 16 361.034380
-0.764060 -1.080733 1.380438 39.000000 15 361.034337
-0.738872 -1.045101 1.114048 40.000000 13 361.034340
-0.723189 -1.022540 0.905744 40.000000 11 361.034342
-0.711991 -1.006703 0.731727 40.000000 9 361.034345
-0.696644 -0.984638 0.575639 39.000000 7 361.034348
-0.681977 -0.963551 0.436705 31.000000 5 361.034350
-0.666896 -0.942245 0.310638 9.000000 3 361.034353
-0.658883 -0.930579 0.195113 12.000000 1 361.034355
-0.749596 -1.056749 1.234693 40.000000 14 361.034363
-0.728801 -1.027429 1.000763 42.000000 12 361.034366
-0.714596 -1.007031 0.810947 45.000000 10 361.034368
-0.712423 -1.003965 0.656548 49.000000 8 361.034371
-0.697395 -0.982424 0.508227 38.000000 6 361.034373
-0.683955 -0.963134 0.375626 18.000000 4 361.034376
-0.668169 -0.940558 0.252928 11.000000 2 361.034378
-0.671269 -0.944571 0.140421 26.000000 0 361.034381
-0.030662 -0.030026 3.364146 58.000000 31 361.034392
-0.311200 -0.414377 3.294909 89.000000 28 361.034394
-0.409388 -0.543749 3.295749 65.000000 27 361.034397
-0.588618 -0.814521 3.257922 48.000000 25 361.034399
-0.773942 -1.083462 3.196371 36.000000 23 361.034402
-0.887054 -1.242254 2.863515 25.000000 21 361.034404
-0.834382 -1.168488 2.181409 36.000000 19 361.034407
-0.794758 -1.112994 1.713461 38.000000 17 361.034409
-0.129736 -0.156762 3.348799 78.000000 30 361.034417
-0.224271 -0.284538 3.330658 87.000000 29 361.034420
-0.497443 -0.678248 3.273628 55.000000 26 361.034422
-0.681266 -0.950219 3.233731 44.000000 24 361.034425
-0.879902 -1.228159 3.186343 38.000000 22 361.034427
-0.860480 -1.201484 2.487459 31.000000 20 361.034430
-0.814076 -1.136687 1.925450 38.000000 18 361.034433
-0.776445 -1.084140 1.523909 39.000000 16 361.034435
-0.769896 -1.080964 1.383943 39.000000 15 361.034393
-0.742515 -1.042516 1.114048 40.000000 13 361.034395
-0.726754 -1.020009 0.905744 42.000000 11 361.034398
-0.715501 -1.004211 0.731727 40.000000 9 361.034401
-0.700077 -0.982201 0.575639 39.000000 7 361.034403
-0.685336 -0.961165 0.436705 31.000000 5 361.034406
-0.670181 -0.939911 0.310638 9.000000 3 361.034408
-0.665020 -0.932328 0.195560 12.000000 1 361.034411
-0.753280 -1.054126 1.234693 40.000000 14 361.034419
-0.734733 -1.028168 1.003707 42.000000 12 361.034421
-0.718107 -1.004531 0.810947 45.000000 10 361.034424
-0.715924 -1.001472 0.656548 47.000000 8 361.034426
-0.700820 -0.979983 0.508227 38.000000 6 361.034429
-0.687313 -0.960741 0.375626 18.000000 4 361.034431
-0.671449 -0.938220 0.252928 11.000000 2 361.034434
-0.674562 -0.942222 0.140421 25.000000 0 361.034436
-0.030767 -0.029919 3.364146 59.000000 31 361.034447
-0.313113 -0.413907 3.299848 89.000000 28 361.034450
-0.411283 -0.542317 3.295749 65.000000 27 361.034452
-0.591458 -0.812461 3.257922 48.000000 25 361.034455
-0.777719 -1.080754 3.196371 39.000000 23 361.034457
-0.891385 -1.239150 2.863515 24.000000 21 361.034460
-0.838456 -1.165568 2.181409 35.000000 19 361.034462
-0.800510 -1.112815 1.717298 38.000000 17 361.034465
-0.130283 -0.156308 3.348799 78.000000 30 361.034473
-0.225263 -0.283753 3.330658 87.000000 29 361.034475
-0.499808 -0.676507 3.273628 57.000000 26 361.034478
-0.684578 -0.947835 3.233731 39.000000 24 361.034480
-0.884184 -1.225080 3.186343 38.000000 22 361.034483
-0.864668 -1.198473 2.487459 31.000000 20 361.034486
-0.818039 -1.133839 1.925450 38.000000 18 361.034488
-0.782208 -1.084172 1.527584 39.000000 16 361.034491
-0.773665 -1.078270 1.383943 39.000000 15 361.034448
-0.746150 -1.039917 1.114048 40.000000 13 361.034451
-0.730310 -1.017466 0.905744 42.000000 11 361.034453
-0.719002 -1.001708 0.731727 40.000000 9 361.034456
-0.703501 -0.979751 0.575639 39.000000 7 361.034459
-0.688687 -0.958767 0.436705 31.000000 5 361.034461
-0.673458 -0.937566 0.310638 9.000000 3 361.034464
-0.668270 -0.930001 0.195560 12.000000 1 361.034466
-0.759137 -1.054521 1.238018 40.000000 14 361.034474
-0.738318 -1.025597 1.003707 42.000000 12 361.034477
-0.721609 -1.002018 0.810947 45.000000 10 361.034479
-0.719415 -0.998967 0.656548 50.000000 8 361.034482
-0.704237 -0.977531 0.508227 38.000000 6 361.034484
-0.690662 -0.958336 0.375626 18.000000 4 361.034487
-0.674720 -0.935870 0.252928 11.000000 2 361.034489
-0.677847 -0.939862 0.140421 25.000000 0 361.034492
-0.030871 -0.029811 3.364146 59.000000 31 361.034503
-0.314556 -0.412812 3.299848 87.000000 28 361.034505
-0.413174 -0.540878 3.295749 65.000000 27 361.034508
-0.595174 -0.811596 3.262694 46.000000 25 361.034510
-0.781487 -1.078032 3.196371 38.000000 23 361.034513
-0.897110 -1.237971 2.867904 24.000000 21 361.034515
-0.842519 -1.162634 2.181409 35.000000 19 361.034518
-0.804390 -1.110014 1.717298 38.000000 17 361.034521
-0.130827 -0.155853 3.348799 79.000000 30 361.034528
-0.226252 -0.282965 3.330658 86.000000 29 361.034531
-0.502166 -0.674758 3.273628 57.000000 26 361.034533
-0.687883 -0.945440 3.233731 39.000000 24 361.034536
-0.888455 -1.221986 3.186343 38.000000 22 361.034539
-0.870380 -1.197558 2.491725 31.000000 20 361.034541
-0.823763 -1.133415 1.929439 38.000000 18 361.034544
-0.785987 -1.081435 1.527584 39.000000 16 361.034546
-0.777424 -1.075563 1.383943 39.000000 15 361.034504
-0.752056 -1.040461 1.117185 40.000000 13 361.034506
-0.733857 -1.014911 0.905744 42.000000 11 361.034509
-0.725090 -1.002782 0.734045 44.000000 9 361.034512
-0.706916 -0.977289 0.575639 39.000000 7 361.034514
-0.692029 -0.956357 0.436705 30.000000 5 361.034517
-0.676727 -0.935209 0.310638 9.000000 3 361.034519
-0.671512 -0.927662 0.195560 12.000000 1 361.034522
-0.762813 -1.051864 1.238018 42.000000 14 361.034530
-0.741893 -1.023013 1.003707 42.000000 12 361.034532
-0.727634 -1.002983 0.813479 45.000000 10 361.034535
-0.722898 -0.996450 0.656548 50.000000 8 361.034537
-0.710418 -0.978889 0.509869 38.000000 6 361.034540
-0.694003 -0.955919 0.375626 19.000000 4 361.034542
-0.677982 -0.933509 0.252928 11.000000 2 361.034545
-0.681123 -0.937490 0.140421 25.000000 0 361.034547
-0.030975 -0.029703 3.364146 58.000000 31 361.034558
-0.315995 -0.411711 3.299848 87.000000 28 361.034561
-0.415059 -0.539432 3.295749 65.000000 27 361.034563
-0.598003 -0.809513 3.262694 46.000000 25 361.034566
-0.786398 -1.076875 3.200974 38.000000 23 361.034568
-0.902839 -1.236767 2.872293 25.000000 21 361.034571
-0.846572 -1.159686 2.181409 35.000000 19 361.034573
-0.808259 -1.107199 1.717298 38.000000 17 361.034576
-0.131371 -0.155395 3.348799 80.000000 30 361.034584
-0.227574 -0.282589 3.335630 86.000000 29 361.034586
-0.504518 -0.673001 3.273628 57.000000 26 361.034589
-0.690159 -0.941641 3.229038 40.000000 24 361.034591
-0.892715 -1.218878 3.186343 38.000000 22 361.034594
-0.874555 -1.194512 2.491725 32.000000 20 361.034597
-0.827715 -1.130532 1.929439 38.000000 18 361.034599
-0.789758 -1.078685 1.527584 39.000000 16 361.034602
-0.781174 -1.072842 1.383943 39.000000 15 361.034559
-0.755683 -1.037830 1.117185 40.000000 13 361.034562
-0.737395 -1.012343 0.905744 42.000000 11 361.034565
-0.728586 -1.000244 0.734045 42.000000 9 361.034567
-0.713054 -0.978562 0.577513 39.000000 7 361.034570
-0.698189 -0.957812 0.438114 30.000000 5 361.034572
-0.679987 -0.932841 0.310638 9.000000 3 361.034575
-0.674746 -0.925313 0.195560 12.000000 1 361.034577
-0.766480 -1.049195 1.238018 40.000000 14 361.034585
-0.745460 -1.020417 1.003707 42.000000 12 361.034588
-0.731131 -1.000437 0.813479 45.000000 10 361.034590
-0.726371 -0.993920 0.656548 49.000000 8 361.034593
-0.713831 -0.976403 0.509869 38.000000 6 361.034595
-0.697336 -0.953491 0.375626 19.000000 4 361.034598
-0.681237 -0.931137 0.252928 11.000000 2 361.034600
-0.684392 -0.935107 0.140421 25.000000 0 361.034603
-0.031078 -0.029595 3.364146 58.000000 31 361.034614
-0.317431 -0.410606 3.299848 87.000000 28 361.034616
-0.416940 -0.537980 3.295749 65.000000 27 361.034619
-0.600825 -0.807421 3.262694 49.000000 25 361.034621
-0.790152 -1.074124 3.200974 39.000000 23 361.034624
-0.907151 -1.233608 2.872293 25.000000 21 361.034626
-0.852282 -1.158991 2.185542 35.000000 19 361.034629
-0.812119 -1.104371 1.717298 38.000000 17 361.034632
-0.132101 -0.155155 3.353790 82.000000 30 361.034639
-0.228559 -0.281792 3.335630 86.000000 29 361.034642
-0.506864 -0.671236 3.273628 58.000000 26 361.034644
-0.693441 -0.939226 3.229038 40.000000 24 361.034647
-0.896964 -1.215754 3.186343 38.000000 22 361.034650
-0.878719 -1.191452 2.491725 32.000000 20 361.034652
-0.833445 -1.130062 1.933429 38.000000 18 361.034655
-0.793518 -1.075922 1.527584 39.000000 16 361.034657
-0.784914 -1.070109 1.383943 39.000000 15 361.034615
-0.759301 -1.035186 1.117185 40.000000 13 361.034617
-0.740924 -1.009763 0.905744 42.000000 11 361.034620
-0.732073 -0.997695 0.734045 42.000000 9 361.034623
