# .PCD v.7 - Point Cloud Data file format
VERSION .7
FIELDS x y z intensity ring timestamp
SIZE 4 4 4 4 2 8
TYPE F F F F U D
COUNT 1 1 1 1 1 1
WIDTH 909
HEIGHT 1
VIEWPOINT 0 0 0 1 0 0 0
POINTS 909
DATA ascii
-1.632399 -0.752897 1.531372 37.000000 13 362.142550
-1.581675 -0.729168 1.226496 38.000000 11 362.142552
-1.538193 -0.709120 0.972802 40.000000 9 362.142555
-1.495444 -0.689095 0.753578 40.000000 7 362.142558
-1.460016 -0.672462 0.562123 40.000000 5 362.142560
-1.432213 -0.659656 0.390843 39.000000 3 362.142563
-1.669413 -0.766794 1.716796 36.000000 14 362.142573
-1.603827 -0.736666 1.368658 37.000000 12 362.142576
-1.561017 -0.716673 1.094578 39.000000 10 362.142578
-1.531241 -0.703000 0.866353 47.000000 8 362.142581
-1.485580 -0.681723 0.657711 49.000000 6 362.142583
-1.449251 -0.664746 0.475273 48.000000 4 362.142586
-1.417896 -0.650065 0.309493 32.000000 2 362.142588
-0.039582 -0.010366 3.134154 3.000000 31 362.142602
-0.524520 -0.223827 3.625839 5.000000 28 362.142604
-0.682554 -0.290306 3.589462 8.000000 27 362.142607
-1.002726 -0.449917 3.558541 88.000000 25 362.142609
-1.364703 -0.621378 3.592188 95.000000 23 362.142612
-1.945073 -0.886028 3.982624 82.000000 21 362.142614
-1.931481 -0.879834 3.189849 15.000000 19 362.142617
-1.801819 -0.820768 2.446317 24.000000 17 362.142620
-0.210835 -0.078319 3.718178 13.000000 30 362.142627
-0.332973 -0.133019 3.295859 16.000000 29 362.142630
-0.782468 -0.344499 3.326859 10.000000 26 362.142632
-1.179675 -0.534653 3.576303 86.000000 24 362.142635
-1.732835 -0.786428 3.182806 9.000000 20 362.142640
-1.865973 -0.846847 2.787181 23.000000 18 362.142643
-1.751456 -0.794873 2.163388 30.000000 16 362.142645
-1.709798 -0.781371 1.927148 33.000000 15 362.142603
-1.642098 -0.750431 1.537648 37.000000 13 362.142605
-1.591818 -0.727117 1.231978 38.000000 11 362.142608
-1.544689 -0.705587 0.975120 40.000000 9 362.142611
-1.502057 -0.685797 0.755451 40.000000 7 362.142613
-1.466719 -0.669353 0.563532 40.000000 5 362.142616
-1.438976 -0.656692 0.391776 39.000000 3 362.142618
-1.408927 -0.642682 0.231703 12.000000 1 362.142621
-1.678877 -0.764056 1.723446 36.000000 14 362.142629
-1.610067 -0.732738 1.371602 37.000000 12 362.142631
-1.567433 -0.713005 1.097111 40.000000 10 362.142634
-1.537816 -0.699530 0.868451 47.000000 8 362.142636
-1.492250 -0.678488 0.659354 47.000000 6 362.142639
-1.451563 -0.659683 0.475273 50.000000 4 362.142641
-1.424666 -0.647159 0.310182 32.000000 2 362.142644
-0.039532 -0.010214 3.124155 3.000000 31 362.142657
-0.513843 -0.217163 3.546811 6.000000 28 362.142660
-0.682624 -0.287527 3.584567 7.000000 27 362.142662
-1.004291 -0.446415 3.558541 88.000000 25 362.142665
-1.366864 -0.616611 3.592188 94.000000 23 362.142667
-1.950338 -0.880219 3.987012 87.000000 21 362.142670
-1.939671 -0.875401 3.198114 15.000000 19 362.142672
-1.810517 -0.817111 2.453991 24.000000 17 362.142675
-0.211107 -0.077583 3.718178 13.000000 30 362.142683
-0.333435 -0.131856 3.295859 16.000000 29 362.142685
-0.782513 -0.341263 3.322020 10.000000 26 362.142688
-1.181534 -0.530532 3.576303 87.000000 24 362.142690
-1.389967 -0.624696 3.213348 4.000000 22 362.142693
-1.740327 -0.782513 3.191338 11.000000 20 362.142696
-1.877164 -0.844036 2.799150 23.000000 18 362.142698
-1.763496 -0.792925 2.174413 30.000000 16 362.142701
-1.719012 -0.778340 1.934157 33.000000 15 362.142658
-1.651800 -0.747905 1.543923 36.000000 13 362.142661
-1.598156 -0.723280 1.234720 38.000000 11 362.142664
-1.551178 -0.702017 0.977438 40.000000 9 362.142666
-1.512890 -0.684371 0.759197 40.000000 7 362.142669
-1.473418 -0.666205 0.564941 40.000000 5 362.142671
-1.445735 -0.653689 0.392708 39.000000 3 362.142674
-1.415700 -0.639811 0.232149 11.000000 1 362.142676
-1.688343 -0.761260 1.730095 36.000000 14 362.142684
-1.619985 -0.730436 1.377488 38.000000 12 362.142687
-1.577774 -0.711072 1.102176 40.000000 10 362.142689
-1.544387 -0.696023 0.870549 47.000000 8 362.142692
-1.503221 -0.677154 0.662639 47.000000 6 362.142694
-1.458289 -0.656608 0.476445 48.000000 4 362.142697
-1.435948 -0.646247 0.311562 33.000000 2 362.142699
-0.039395 -0.010050 3.104155 3.000000 31 362.142713
-0.511013 -0.213871 3.522115 6.000000 28 362.142715
-0.682684 -0.284751 3.579672 7.000000 27 362.142718
-1.007210 -0.443508 3.563313 87.000000 25 362.142720
-1.370791 -0.612633 3.596791 94.000000 23 362.142723
-1.955586 -0.874383 3.991401 87.000000 21 362.142725
-1.950421 -0.872071 3.210513 13.000000 19 362.142728
-1.822138 -0.814712 2.465502 24.000000 17 362.142731
-0.211377 -0.076845 3.718178 13.000000 30 362.142738
-0.333893 -0.130691 3.295859 16.000000 29 362.142741
-0.782544 -0.338031 3.317181 10.000000 26 362.142743
-1.184956 -0.527106 3.580995 87.000000 24 362.142746
-1.398108 -0.622497 3.226851 6.000000 22 362.142749
-1.750195 -0.779617 3.204136 12.000000 20 362.142751
-1.888358 -0.841158 2.811118 23.000000 18 362.142754
-1.772447 -0.789523 2.181763 30.000000 16 362.142756
-1.728226 -0.775254 1.941166 33.000000 15 362.142714
-1.661505 -0.745322 1.550199 36.000000 13 362.142716
-1.608301 -0.721119 1.240203 38.000000 11 362.142719
-1.561704 -0.700223 0.982074 39.000000 9 362.142722
-1.519500 -0.680981 0.761070 40.000000 7 362.142724
-1.480112 -0.663019 0.566351 42.000000 5 362.142727
-1.452492 -0.650647 0.393641 39.000000 3 362.142729
-1.417925 -0.634865 0.232149 8.000000 1 362.142732
-1.697809 -0.758409 1.736745 35.000000 14 362.142740
-1.629905 -0.728074 1.383374 37.000000 12 362.142742
-1.584183 -0.707318 1.104708 39.000000 10 362.142745
-1.555095 -0.694328 0.874746 45.000000 8 362.142747
-1.509888 -0.673828 0.664282 47.000000 6 362.142750
-1.465011 -0.653494 0.477618 50.000000 4 362.142752
-1.442718 -0.643248 0.312252 33.000000 2 362.142755
-0.039559 -0.009932 3.119155 3.000000 31 362.142768
-0.498833 -0.206740 3.433208 5.000000 28 362.142771
-0.682732 -0.281978 3.574776 8.000000 27 362.142773
-1.008752 -0.439989 3.563313 87.000000 25 362.142776
-1.372921 -0.607844 3.596791 94.000000 23 362.142778
-1.960816 -0.868522 3.995790 87.000000 21 362.142781
-1.943162 -0.860699 3.193982 9.000000 19 362.142784
-1.833765 -0.812241 2.477013 23.000000 17 362.142786
-0.211644 -0.076107 3.718178 13.000000 30 362.142794
-0.334347 -0.129525 3.295859 16.000000 29 362.142796
-0.782563 -0.334803 3.312341 10.000000 26 362.142799
-1.186788 -0.522967 3.580995 86.000000 24 362.142802
-1.414220 -0.623765 3.258356 11.000000 22 362.142804
-1.750520 -0.772450 3.199870 9.000000 20 362.142807
-1.899555 -0.838211 2.823087 23.000000 18 362.142809
-1.781395 -0.786069 2.189114 30.000000 16 362.142812
-1.737440 -0.772114 1.948175 33.000000 15 362.142769
-1.667654 -0.741098 1.553337 37.000000 13 362.142772
-1.614630 -0.717198 1.242944 38.000000 11 362.142775
-1.568188 -0.696566 0.984392 39.000000 9 362.142777
-1.526105 -0.677554 0.762943 40.000000 7 362.142780
-1.486803 -0.659795 0.567760 40.000000 5 362.142782
-1.459244 -0.647565 0.394574 39.000000 3 362.142785
-1.707276 -0.755500 1.743395 35.000000 14 362.142795
-1.639830 -0.725651 1.389261 38.000000 12 362.142798
-1.594527 -0.705272 1.109773 39.000000 10 362.142800
-1.561660 -0.690731 0.876844 47.000000 8 362.142803
-1.516550 -0.670462 0.665924 47.000000 6 362.142805
-1.476175 -0.652305 0.479962 50.000000 4 362.142808
-1.449484 -0.640208 0.312942 33.000000 2 362.142810
-0.039680 -0.009806 3.129154 4.000000 31 362.142824
-0.488046 -0.200286 3.354180 5.000000 28 362.142826
-0.682770 -0.279208 3.569881 9.000000 27 362.142829
-1.011653 -0.437058 3.568084 86.000000 25 362.142831
-1.376824 -0.603833 3.601393 94.000000 23 362.142834
-1.966030 -0.862634 4.000178 84.000000 21 362.142836
-1.935847 -0.849389 3.177450 5.000000 19 362.142839
-1.845396 -0.809699 2.488523 23.000000 17 362.142842
-0.212181 -0.075463 3.723169 13.000000 30 362.142849
-0.335296 -0.128547 3.300830 16.000000 29 362.142852
-0.782569 -0.331579 3.307502 10.000000 26 362.142854
-1.190188 -0.519511 3.585688 86.000000 24 362.142857
-1.422376 -0.621440 3.271859 7.000000 22 362.142860
-1.750816 -0.765291 3.195604 4.000000 20 362.142862
-1.913516 -0.836404 2.839045 23.000000 18 362.142865
-1.793448 -0.783919 2.200139 30.000000 16 362.142867
-1.746652 -0.768918 1.955184 33.000000 15 362.142825
-1.677356 -0.738409 1.559612 35.000000 13 362.142828
-1.624779 -0.714925 1.248427 38.000000 11 362.142830
-1.578720 -0.694656 0.989028 39.000000 9 362.142833
-1.532704 -0.674089 0.764816 40.000000 7 362.142835
-1.493488 -0.656531 0.569169 42.000000 5 362.142838
-1.465992 -0.644444 0.395506 39.000000 3 362.142840
-1.716743 -0.752534 1.750044 36.000000 14 362.142851
-1.649757 -0.723168 1.395147 37.000000 12 362.142853
-1.604877 -0.703162 1.114838 40.000000 10 362.142856
-1.572376 -0.688919 0.881040 45.000000 8 362.142858
-1.523207 -0.667059 0.667567 45.000000 6 362.142861
-1.482896 -0.649097 0.481135 51.000000 4 362.142863
-1.460784 -0.639115 0.314321 34.000000 2 362.142866
-0.039714 -0.009668 3.129154 4.000000 31 362.142879
-0.482262 -0.195954 3.309727 6.000000 28 362.142882
-0.683740 -0.276823 3.569881 7.000000 27 362.142884
-1.013172 -0.433524 3.568084 87.000000 25 362.142887
-1.378923 -0.599023 3.601393 94.000000 23 362.142889
-1.971226 -0.856721 4.004567 83.000000 21 362.142892
-1.857032 -0.807086 2.500035 23.000000 17 362.142897
-0.212443 -0.074722 3.723169 13.000000 30 362.142905
-0.335743 -0.127376 3.300830 16.000000 29 362.142907
-0.783721 -0.328845 3.307502 10.000000 26 362.142910
-1.191994 -0.515353 3.585688 84.000000 24 362.142913
-1.424536 -0.616472 3.271859 7.000000 22 362.142915
-1.924722 -0.833312 2.851013 22.000000 18 362.142920
-1.802395 -0.780348 2.207490 29.000000 16 362.142923
-1.759133 -0.767092 1.965698 33.000000 15 362.142880
-1.687060 -0.735662 1.565888 35.000000 13 362.142883
-1.634931 -0.712591 1.253910 38.000000 11 362.142886
-1.585196 -0.690911 0.991346 39.000000 9 362.142888
-1.543548 -0.672438 0.768562 40.000000 7 362.142891
-1.504568 -0.655144 0.571987 42.000000 5 362.142893
-1.472737 -0.641284 0.396439 39.000000 3 362.142896
-1.726210 -0.749512 1.756694 36.000000 14 362.142906
-1.659686 -0.720625 1.401033 37.000000 12 362.142909
-1.611277 -0.699272 1.117370 40.000000 10 362.142911
-1.583098 -0.687040 0.885236 45.000000 8 362.142914
-1.529858 -0.663617 0.669210 47.000000 6 362.142916
-1.489612 -0.645850 0.482307 51.000000 4 362.142919
-1.467550 -0.635981 0.315011 33.000000 2 362.142922
-0.040007 -0.009565 3.159153 4.000000 31 362.142935
-0.475732 -0.191375 3.260334 6.000000 28 362.142937
-0.683757 -0.274056 3.564986 7.000000 27 362.142940
-1.014679 -0.429984 3.568084 86.000000 25 362.142942
-1.382801 -0.594978 3.605996 93.000000 23 362.142945
-1.974205 -0.849835 4.004567 81.000000 21 362.142948
-1.868672 -0.804402 2.511545 22.000000 17 362.142953
-0.212977 -0.074074 3.728161 12.000000 30 362.142960
-0.336186 -0.126203 3.300830 16.000000 29 362.142963
-0.783703 -0.325625 3.302663 10.000000 26 362.142966
-1.195372 -0.511869 3.590381 87.000000 24 362.142968
-1.436688 -0.615785 3.294363 12.000000 22 362.142971
-1.938699 -0.831339 2.866971 23.000000 18 362.142976
-1.811340 -0.776724 2.214840 29.000000 16 362.142978
-1.768347 -0.763775 1.972707 33.000000 15 362.142936
-1.696765 -0.732856 1.572163 36.000000 13 362.142939
-1.641247 -0.708537 1.256652 37.000000 11 362.142941
-1.595733 -0.688885 0.995982 39.000000 9 362.142944
-1.550143 -0.668883 0.770435 39.000000 7 362.142946
-1.511251 -0.651788 0.573397 43.000000 5 362.142949
-1.479477 -0.638085 0.397372 39.000000 3 362.142951
-1.735677 -0.746432 1.763344 35.000000 14 362.142962
-1.665904 -0.716424 1.403976 37.000000 12 362.142964
-1.621630 -0.697048 1.122435 39.000000 10 362.142967
-1.589656 -0.683302 0.887334 45.000000 8 362.142969
-1.540843 -0.662001 0.672495 47.000000 6 362.142972
-1.500790 -0.644483 0.484652 50.000000 4 362.142974
-1.474312 -0.632808 0.315701 34.000000 2 362.142977
-0.039780 -0.009390 3.129154 4.000000 31 362.142990
-0.474231 -0.188852 3.245517 6.000000 28 362.142993
-0.683763 -0.271293 3.560091 8.000000 27 362.142995
-1.016174 -0.426440 3.568084 86.000000 25 362.142998
-1.384869 -0.590148 3.605996 93.000000 23 362.143000
-1.979363 -0.843879 4.008956 87.000000 21 362.143003
-1.877367 -0.800389 2.519219 23.000000 17 362.143008
-0.213234 -0.073330 3.728161 13.000000 30 362.143016
-0.336624 -0.125029 3.300830 16.000000 29 362.143018
-0.783671 -0.322409 3.297824 11.000000 26 362.143021
-1.197152 -0.507693 3.590381 89.000000 24 362.143023
-1.458874 -0.619275 3.339371 24.000000 22 362.143026
-1.746731 -0.741817 3.174274 3.000000 20 362.143028
-1.949912 -0.828101 2.878940 23.000000 18 362.143031
-1.823401 -0.774372 2.225865 28.000000 16 362.143034
-1.777560 -0.760403 1.979716 33.000000 15 362.142991
-1.706471 -0.729990 1.578439 36.000000 13 362.142994
-1.651400 -0.706091 1.262135 37.000000 11 362.142996
-1.606275 -0.686794 1.000618 39.000000 9 362.142999
-1.560994 -0.667112 0.774181 40.000000 7 362.143002
-1.522340 -0.650278 0.576215 45.000000 5 362.143004
-1.486212 -0.634846 0.398304 39.000000 3 362.143007
-0.782998 -0.334303 0.169233 6.000000 1 362.143009
-1.745144 -0.743295 1.769994 36.000000 14 362.143017
-1.675833 -0.713772 1.409863 38.000000 12 362.143020
-1.628020 -0.693072 1.124967 39.000000 10 362.143022
-1.600383 -0.681304 0.891530 43.000000 8 362.143025
-1.547490 -0.658468 0.674138 47.000000 6 362.143027
-1.507503 -0.641142 0.485824 50.000000 4 362.143030
-1.481070 -0.629595 0.316391 34.000000 2 362.143032
-0.039770 -0.009246 3.124155 4.000000 31 362.143046
-0.474164 -0.186911 3.240577 5.000000 28 362.143048
-0.683758 -0.268533 3.555196 8.000000 27 362.143051
-1.017656 -0.422890 3.568084 84.000000 25 362.143053
-1.388721 -0.586070 3.610599 93.000000 23 362.143056
-1.984504 -0.837896 4.013344 82.000000 21 362.143058
-1.810119 -0.764266 2.958403 3.000000 19 362.143061
-1.889010 -0.797572 2.530730 22.000000 17 362.143063
-0.213214 -0.072493 3.723169 12.000000 30 362.143071
-0.337058 -0.123853 3.300830 16.000000 29 362.143074
-0.784792 -0.319672 3.297824 11.000000 26 362.143076
-1.200508 -0.504179 3.595074 89.000000 24 362.143079
-1.459020 -0.613335 3.334870 29.000000 22 362.143081
-1.756522 -0.738749 3.187072 5.000000 20 362.143084
-1.963903 -0.825963 2.894898 26.000000 18 362.143087
-1.832343 -0.770631 2.233216 28.000000 16 362.143089
-1.786771 -0.756976 1.986725 32.000000 15 362.143047
-1.716178 -0.727066 1.584714 37.000000 13 362.143049
-1.661555 -0.703583 1.267617 37.000000 11 362.143052
-1.612742 -0.682911 1.002936 39.000000 9 362.143054
-1.567582 -0.663465 0.776054 40.000000 7 362.143057
-1.529019 -0.646829 0.577624 45.000000 5 362.143060
-1.492944 -0.631568 0.399237 39.000000 3 362.143062
-0.779574 -0.329628 0.168787 9.000000 1 362.143065
-1.754609 -0.740102 1.776643 35.000000 14 362.143072
-1.685762 -0.711060 1.415749 38.000000 12 362.143075
-1.638374 -0.690735 1.130032 39.000000 10 362.143078
-1.606934 -0.677476 0.893628 43.000000 8 362.143080
-1.554131 -0.654896 0.675780 45.000000 6 362.143083
-1.518691 -0.639650 0.488169 50.000000 4 362.143085
-1.487822 -0.626343 0.317080 34.000000 2 362.143088
-0.039715 -0.009095 3.114155 4.000000 31 362.143101
-0.474814 -0.185255 3.240577 6.000000 28 362.143104
-0.683742 -0.265776 3.550300 8.000000 27 362.143106
-1.019126 -0.419335 3.568084 87.000000 25 362.143109
-1.390758 -0.581219 3.610599 83.000000 23 362.143111
-1.991837 -0.832812 4.022122 71.000000 21 362.143114
-1.900655 -0.794683 2.542241 22.000000 17 362.143119
-0.213191 -0.071658 3.718178 12.000000 30 362.143127
-0.337489 -0.122676 3.300830 16.000000 29 362.143129
-0.784737 -0.316460 3.292984 11.000000 26 362.143132
-1.202261 -0.499985 3.595074 87.000000 24 362.143134
-1.511414 -0.629160 3.447391 30.000000 22 362.143137
-1.768720 -0.736623 3.204136 5.000000 20 362.143140
-1.977904 -0.823738 2.910856 27.000000 18 362.143142
-1.841281 -0.766837 2.240566 27.000000 16 362.143145
-1.799268 -0.754873 1.997239 32.000000 15 362.143102
-1.725885 -0.724083 1.590990 36.000000 13 362.143105
-1.667857 -0.699396 1.270359 37.000000 11 362.143107
-1.623287 -0.680704 1.007573 39.000000 9 362.143110
-1.578440 -0.661574 0.779800 40.000000 7 362.143113
-1.535692 -0.643342 0.579033 45.000000 5 362.143115
-1.499670 -0.628251 0.400169 39.000000 3 362.143118
-0.771532 -0.323058 0.167895 10.000000 1 362.143120
-1.764074 -0.736851 1.783293 35.000000 14 362.143128
-1.691964 -0.706729 1.418692 38.000000 12 362.143131
-1.644754 -0.686672 1.132565 39.000000 10 362.143133
-1.617665 -0.675360 0.897824 43.000000 8 362.143136
-1.565124 -0.653104 0.679066 45.000000 6 362.143138
-1.525400 -0.636216 0.489341 50.000000 4 362.143141
-1.494571 -0.623051 0.317770 34.000000 2 362.143143
-0.039660 -0.008946 3.104155 5.000000 31 362.143157
-0.475458 -0.183597 3.240577 6.000000 28 362.143159
-0.683715 -0.263023 3.545405 9.000000 27 362.143162
-1.021967 -0.416339 3.572856 87.000000 25 362.143164
-1.394583 -0.577107 3.615201 83.000000 23 362.143167
-1.992519 -0.824937 4.017733 33.000000 21 362.143169
-2.044211 -0.846336 3.322103 11.000000 19 362.143172
-1.912304 -0.791722 2.553752 21.000000 17 362.143174
-0.213440 -0.070913 3.718178 12.000000 30 362.143182
-0.337412 -0.121318 3.295859 16.000000 29 362.143185
-0.785836 -0.313719 3.292984 12.000000 26 362.143187
-1.205594 -0.496443 3.599766 89.000000 24 362.143190
-1.604204 -0.661225 3.649929 33.000000 22 362.143192
-1.805036 -0.744365 3.263859 4.000000 20 362.143195
-1.991912 -0.821425 2.926814 22.000000 18 362.143198
-1.853349 -0.764282 2.251591 27.000000 16 362.143200
-1.808479 -0.751325 2.004248 32.000000 15 362.143158
-1.735592 -0.721042 1.597265 37.000000 13 362.143160
-1.678012 -0.696777 1.275842 37.000000 11 362.143163
-1.629745 -0.676732 1.009891 39.000000 9 362.143166
-1.585021 -0.657837 0.781673 40.000000 7 362.143168
-1.546791 -0.641654 0.581852 45.000000 5 362.143171
-1.506391 -0.624895 0.401102 39.000000 3 362.143173
-0.754254 -0.312734 0.166110 10.000000 1 362.143176
-1.773536 -0.733544 1.789943 35.000000 14 362.143184
-1.701891 -0.703908 1.424579 37.000000 12 362.143186
-1.655109 -0.684221 1.137630 39.000000 10 362.143189
-1.624207 -0.671443 0.899922 43.000000 8 362.143191
-1.571759 -0.649440 0.680709 45.000000 6 362.143194
-1.532105 -0.632742 0.490513 50.000000 4 362.143196
-1.501314 -0.619720 0.318460 34.000000 2 362.143199
-0.039691 -0.008807 3.104155 5.000000 31 362.143212
-0.475370 -0.181659 3.235638 6.000000 28 362.143215
-0.683677 -0.260273 3.540510 9.000000 27 362.143217
-1.023414 -0.412769 3.572856 87.000000 25 362.143220
-1.396589 -0.572236 3.615201 92.000000 23 362.143222
-1.988736 -0.815251 4.004567 3.000000 21 362.143225
-2.047153 -0.839195 3.322103 11.000000 19 362.143227
-1.923955 -0.788690 2.565263 21.000000 17 362.143230
-0.213411 -0.070079 3.713186 12.000000 30 362.143238
-0.337834 -0.120139 3.295859 16.000000 29 362.143240
-0.785757 -0.310512 3.288145 12.000000 26 362.143243
-1.207320 -0.492231 3.599766 89.000000 24 362.143245
-1.703285 -0.695117 3.865969 34.000000 22 362.143248
-1.867986 -0.762705 3.370507 5.000000 20 362.143251
-2.005929 -0.819024 2.942772 21.000000 18 362.143253
-1.862283 -0.760371 2.258942 27.000000 16 362.143256
-1.817687 -0.747721 2.011257 32.000000 15 362.143213
-1.745299 -0.717941 1.603541 36.000000 13 362.143216
-1.688168 -0.694096 1.281325 37.000000 11 362.143218
-1.640292 -0.674408 1.014527 39.000000 9 362.143221
-1.591596 -0.654062 0.783546 40.000000 7 362.143224
-1.553459 -0.638073 0.583261 45.000000 5 362.143226
-1.517651 -0.623365 0.402967 39.000000 3 362.143229
-0.759948 -0.311990 0.166556 10.000000 1 362.143231
-1.782998 -0.730179 1.796592 35.000000 14 362.143239
-1.711819 -0.701027 1.430465 37.000000 12 362.143242
-1.661478 -0.680073 1.140162 39.000000 10 362.143244
-1.630741 -0.667489 0.902020 42.000000 8 362.143247
-1.578387 -0.645738 0.682351 46.000000 6 362.143249
-1.538803 -0.629230 0.491686 50.000000 4 362.143252
-1.508052 -0.616349 0.319150 34.000000 2 362.143254
-0.772124 -0.315415 0.127321 16.000000 0 362.143257
-0.039722 -0.008669 3.104155 5.000000 31 362.143268
-0.475274 -0.179724 3.230699 7.000000 28 362.143270
-0.683628 -0.257526 3.535615 9.000000 27 362.143273
-1.026236 -0.409748 3.577628 86.000000 25 362.143275
-1.400389 -0.568092 3.619804 92.000000 23 362.143278
-2.076144 -0.842627 3.363432 13.000000 19 362.143283
-1.935608 -0.785587 2.576773 21.000000 17 362.143286
-0.213654 -0.069333 3.713186 12.000000 30 362.143293
-0.337747 -0.118783 3.290887 16.000000 29 362.143296
-0.786836 -0.307767 3.288145 13.000000 26 362.143298
-1.209031 -0.488014 3.599766 87.000000 24 362.143301
-1.746084 -0.705483 3.955986 30.000000 22 362.143304
-2.093088 -0.846101 3.762973 10.000000 20 362.143306
-2.017159 -0.815406 2.954740 20.000000 18 362.143309
-1.874355 -0.757678 2.269968 27.000000 16 362.143311
-1.830195 -0.745407 2.021770 31.000000 15 362.143269
-1.755005 -0.714781 1.609816 36.000000 13 362.143271
-1.698327 -0.691352 1.286808 37.000000 11 362.143274
-1.646739 -0.670349 1.016845 39.000000 9 362.143277
-1.602457 -0.651997 0.787292 40.000000 7 362.143279
-1.564564 -0.636261 0.586079 40.000000 5 362.143282
-1.524368 -0.619914 0.403900 39.000000 3 362.143284
-0.761033 -0.309336 0.166556 10.000000 1 362.143287
-1.795918 -0.728160 1.806567 35.000000 14 362.143295
-1.721747 -0.698084 1.436351 37.000000 12 362.143297
-1.671833 -0.677507 1.145227 39.000000 10 362.143300
-1.641474 -0.665202 0.906216 43.000000 8 362.143302
-1.585009 -0.641997 0.683994 46.000000 6 362.143305
-1.545495 -0.625679 0.492858 48.000000 4 362.143307
-1.514785 -0.612938 0.319840 34.000000 2 362.143310
-0.787115 -0.318337 0.127926 26.000000 0 362.143312
-0.039752 -0.008530 3.104155 6.000000 31 362.143323
-0.474442 -0.177521 3.220820 5.000000 28 362.143326
-0.683569 -0.254783 3.530720 9.000000 27 362.143328
-1.027660 -0.406163 3.577628 86.000000 25 362.143331
-1.402363 -0.563200 3.619804 92.000000 23 362.143333
-2.086906 -0.838522 3.375831 13.000000 19 362.143338
-1.950238 -0.783606 2.592121 21.000000 17 362.143341
-0.213895 -0.068587 3.713186 12.000000 30 362.143349
-0.338159 -0.117603 3.290887 16.000000 29 362.143351
-0.787905 -0.305019 3.288145 15.000000 26 362.143354
-1.210726 -0.483791 3.599766 87.000000 24 362.143356
-1.748536 -0.699384 3.955986 30.000000 22 362.143359
-2.117821 -0.847511 3.801367 12.000000 20 362.143362
-2.031186 -0.812839 2.970698 19.000000 18 362.143364
-1.886431 -0.754909 2.280993 27.000000 16 362.143367
-1.839400 -0.741681 2.028780 31.000000 15 362.143324
-1.764710 -0.711562 1.616092 36.000000 13 362.143327
-1.704608 -0.686982 1.289549 37.000000 11 362.143330
-1.657287 -0.667909 1.021481 39.000000 9 362.143332
-1.609024 -0.648131 0.789165 42.000000 7 362.143335
-1.571226 -0.632587 0.587488 40.000000 5 362.143337
-1.531080 -0.616424 0.404833 39.000000 3 362.143340
-0.762108 -0.306677 0.166556 14.000000 1 362.143342
-1.805380 -0.724669 1.813217 35.000000 14 362.143350
-1.731675 -0.695082 1.442237 37.000000 12 362.143353
-1.678189 -0.673272 1.147759 39.000000 10 362.143355
-1.647998 -0.661158 0.908314 43.000000 8 362.143358
-1.596006 -0.639976 0.687279 44.000000 6 362.143360
-1.556694 -0.623897 0.495203 50.000000 4 362.143363
-1.521512 -0.609489 0.320530 34.000000 2 362.143365
-0.783583 -0.313731 0.127724 25.000000 0 362.143368
-0.039825 -0.008396 3.109155 6.000000 31 362.143379
-0.478704 -0.177209 3.245517 4.000000 28 362.143381
-0.684454 -0.252396 3.530720 9.000000 27 362.143384
-1.030462 -0.403117 3.582400 87.000000 25 362.143386
-1.406136 -0.559023 3.624406 91.000000 23 362.143389
-2.102894 -0.836432 3.396496 12.000000 19 362.143394
-1.961898 -0.780348 2.603632 21.000000 17 362.143397
-0.214133 -0.067840 3.713186 12.000000 30 362.143404
-0.338568 -0.116422 3.290887 15.000000 29 362.143407
-0.788965 -0.302267 3.288145 17.000000 26 362.143409
-1.214013 -0.480196 3.604459 89.000000 24 362.143412
-1.763237 -0.697778 3.982990 42.000000 22 362.143415
-2.042558 -0.808717 2.982667 18.000000 18 362.143420
-1.895489 -0.750486 2.288343 27.000000 16 362.143422
-1.851914 -0.739222 2.039293 31.000000 15 362.143380
-1.774414 -0.708284 1.622368 36.000000 13 362.143382
-1.714763 -0.684127 1.295032 37.000000 11 362.143385
-1.663723 -0.663761 1.023799 39.000000 9 362.143388
-1.619889 -0.645945 0.792911 40.000000 7 362.143390
-1.582337 -0.630651 0.590307 42.000000 5 362.143393
-1.542456 -0.614444 0.406698 39.000000 3 362.143395
-0.763227 -0.303882 0.166556 22.000000 1 362.143398
-1.814965 -0.720803 1.819866 35.000000 14 362.143406
-1.741725 -0.691714 1.448124 37.000000 12 362.143408
-1.688659 -0.670298 1.152824 39.000000 10 362.143411
-1.658847 -0.658462 0.912510 42.000000 8 362.143413
-1.602731 -0.635863 0.688922 44.000000 6 362.143416
-1.563488 -0.619979 0.496375 51.000000 4 362.143418
-1.528340 -0.605733 0.321219 34.000000 2 362.143421
-0.770740 -0.305472 0.127120 32.000000 0 362.143424
-0.039855 -0.008250 3.109155 6.000000 31 362.143434
-0.472051 -0.172789 3.196124 3.000000 28 362.143437
-0.684417 -0.249537 3.525824 8.000000 27 362.143439
-1.031933 -0.399338 3.582400 90.000000 25 362.143442
-1.408175 -0.553866 3.624406 92.000000 23 362.143444
-1.531896 -0.602829 3.082948 5.000000 21 362.143447
-2.103327 -0.827688 3.392363 11.000000 19 362.143450
-1.976678 -0.777848 2.618980 19.000000 17 362.143452
-0.214380 -0.067055 3.713186 12.000000 30 362.143460
-0.338992 -0.115180 3.290887 15.000000 29 362.143462
-0.788892 -0.298928 3.283306 20.000000 26 362.143465
-1.215765 -0.475744 3.604459 87.000000 24 362.143468
-1.775801 -0.695590 4.005495 75.000000 22 362.143470
-1.737745 -0.681029 3.123083 13.000000 20 362.143473
-2.053787 -0.804881 2.994635 18.000000 18 362.143475
-1.907567 -0.747576 2.299369 26.000000 16 362.143478
-1.861245 -0.735049 2.046302 31.000000 15 362.143435
-1.784239 -0.704635 1.628643 36.000000 13 362.143438
-1.721148 -0.679372 1.297774 37.000000 11 362.143441
-1.674387 -0.660912 1.028435 39.000000 9 362.143443
-1.626558 -0.641705 0.794784 42.000000 7 362.143446
-1.589101 -0.626607 0.591716 43.000000 5 362.143448
-1.549161 -0.610858 0.407630 39.000000 3 362.143451
-0.759650 -0.299390 0.166110 25.000000 1 362.143453
-1.824421 -0.717196 1.826516 35.000000 14 362.143461
-1.751652 -0.688587 1.454010 37.000000 12 362.143464
-1.695001 -0.665976 1.155357 39.000000 10 362.143466
-1.665359 -0.654327 0.914608 42.000000 8 362.143469
-1.613732 -0.633717 0.692207 46.000000 6 362.143471
-1.570167 -0.616293 0.497547 50.000000 4 362.143474
-1.539665 -0.604011 0.322599 34.000000 2 362.143476
-0.771855 -0.302645 0.127120 33.000000 0 362.143479
-0.039884 -0.008111 3.109155 7.000000 31 362.143490
-0.467536 -0.169292 3.161549 2.000000 28 362.143492
-0.685284 -0.247147 3.525824 8.000000 27 362.143495
-1.034715 -0.396267 3.587171 90.000000 25 362.143497
-1.411921 -0.549655 3.629009 91.000000 23 362.143500
-1.529526 -0.595739 3.074171 13.000000 21 362.143502
-2.087848 -0.813192 3.363432 8.000000 19 362.143505
-1.988343 -0.774434 2.630491 19.000000 17 362.143508
-0.214613 -0.066306 3.713186 12.000000 30 362.143515
-0.339392 -0.113996 3.290887 14.000000 29 362.143518
-0.789930 -0.296172 3.283306 22.000000 26 362.143520
-1.219027 -0.472120 3.609152 89.000000 24 362.143523
-1.778218 -0.689388 4.005495 92.000000 22 362.143526
-1.742543 -0.675902 3.127349 15.000000 20 362.143528
-2.065014 -0.800977 3.006604 17.000000 18 362.143531
-1.919647 -0.744590 2.310394 26.000000 16 362.143533
-1.870443 -0.731144 2.053311 30.000000 15 362.143491
-1.793940 -0.701237 1.634919 36.000000 13 362.143494
-1.731299 -0.676404 1.303257 37.000000 11 362.143496
-1.680810 -0.656675 1.030753 39.000000 9 362.143499
-1.637425 -0.639396 0.798530 42.000000 7 362.143501
-1.595748 -0.622801 0.593125 43.000000 5 362.143504
-1.555860 -0.607233 0.408563 40.000000 3 362.143506
-0.760690 -0.296736 0.166110 26.000000 1 362.143509
-1.837354 -0.714885 1.836491 35.000000 14 362.143517
-1.761579 -0.685400 1.459896 37.000000 12 362.143519
-1.705352 -0.663181 1.160421 39.000000 10 362.143522
-1.671863 -0.650155 0.916707 40.000000 8 362.143524
-1.620336 -0.629791 0.693850 46.000000 6 362.143527
-1.576840 -0.612569 0.498720 50.000000 4 362.143529
-1.546381 -0.600425 0.323289 35.000000 2 362.143532
-0.763591 -0.296334 0.126716 38.000000 0 362.143535
-0.039955 -0.007976 3.114155 7.000000 31 362.143545
-0.685184 -0.244411 3.520929 7.000000 27 362.143550
-1.036092 -0.392653 3.587171 90.000000 25 362.143553
-1.415654 -0.545426 3.633611 91.000000 23 362.143555
-1.527126 -0.588673 3.065393 16.000000 21 362.143558
-2.040786 -0.786669 3.284906 5.000000 19 362.143561
-2.002999 -0.772101 2.645838 19.000000 17 362.143563
-0.214843 -0.065557 3.713186 12.000000 30 362.143571
-0.339788 -0.112811 3.290887 14.000000 29 362.143573
-0.789780 -0.292976 3.278467 24.000000 26 362.143576
-1.220668 -0.467862 3.609152 89.000000 24 362.143579
-1.782647 -0.683956 4.009995 92.000000 22 362.143581
-1.744892 -0.669815 3.127349 15.000000 20 362.143584
-2.076238 -0.797004 3.018572 17.000000 18 362.143586
-1.931729 -0.741530 2.321420 25.000000 16 362.143589
-1.879635 -0.727184 2.060320 30.000000 15 362.143546
-1.803638 -0.697780 1.641194 36.000000 13 362.143549
-1.741449 -0.673372 1.308739 37.000000 11 362.143552
-1.691356 -0.654000 1.035389 39.000000 9 362.143554
-1.643971 -0.635347 0.800403 42.000000 7 362.143557
-1.606862 -0.620684 0.595944 42.000000 5 362.143559
-1.562552 -0.603568 0.409496 40.000000 3 362.143562
-0.757075 -0.292286 0.165664 26.000000 1 362.143564
-1.846808 -0.711151 1.843140 35.000000 14 362.143572
-1.771505 -0.682152 1.465783 37.000000 12 362.143575
-1.715704 -0.660321 1.165486 38.000000 10 362.143577
-1.682594 -0.647575 0.920903 40.000000 8 362.143580
-1.631340 -0.627522 0.697135 47.000000 6 362.143582
-1.588042 -0.610549 0.501064 50.000000 4 362.143585
-1.557712 -0.598576 0.324668 35.000000 2 362.143588
-0.764621 -0.293666 0.126716 37.000000 0 362.143590
-0.039983 -0.007837 3.114155 7.000000 31 362.143601
-0.685072 -0.241680 3.516034 6.000000 27 362.143606
-1.037457 -0.389034 3.587171 88.000000 25 362.143608
-1.423026 -0.542569 3.647419 90.000000 23 362.143611
-1.524694 -0.581631 3.056616 15.000000 21 362.143614
-1.985677 -0.757476 3.193982 3.000000 19 362.143616
-2.014668 -0.768532 2.657349 18.000000 17 362.143619
-0.215070 -0.064806 3.713186 12.000000 30 362.143626
-0.340180 -0.111624 3.290887 14.000000 29 362.143629
-0.789617 -0.289784 3.273628 25.000000 26 362.143632
-1.223907 -0.464210 3.613845 90.000000 24 362.143634
-1.787059 -0.678503 4.014497 93.000000 22 362.143637
-1.725277 -0.655385 3.088956 29.000000 20 362.143639
-2.087460 -0.792963 3.030541 17.000000 18 362.143642
-1.943813 -0.738394 2.332445 25.000000 16 362.143644
-1.892154 -0.724444 2.070834 30.000000 15 362.143602
-1.813333 -0.694264 1.647470 36.000000 13 362.143605
-1.751600 -0.670278 1.314222 37.000000 11 362.143607
-1.697766 -0.649675 1.037707 39.000000 9 362.143610
-1.654838 -0.632917 0.804149 40.000000 7 362.143612
-1.613500 -0.616784 0.597353 42.000000 5 362.143615
-1.573826 -0.601618 0.411361 40.000000 3 362.143617
-0.758091 -0.289641 0.165664 28.000000 1 362.143620
-1.859748 -0.708690 1.853115 35.000000 14 362.143628
-1.781429 -0.678842 1.471669 37.000000 12 362.143630
-1.726056 -0.657397 1.170551 39.000000 10 362.143633
-1.689085 -0.643313 0.923001 40.000000 8 362.143635
-1.637934 -0.623504 0.698778 47.000000 6 362.143638
-1.594707 -0.606731 0.502236 51.000000 4 362.143640
-1.564421 -0.594896 0.325358 35.000000 2 362.143643
-0.760971 -0.289221 0.126515 38.000000 0 362.143646
-0.040010 -0.007697 3.114155 8.000000 31 362.143657
-0.683989 -0.238617 3.506243 6.000000 27 362.143662
-1.038808 -0.385410 3.587171 88.000000 25 362.143665
-1.522233 -0.574613 3.047839 13.000000 21 362.143670
-1.988309 -0.750540 3.193982 3.000000 19 362.143672
-2.029336 -0.766024 2.672697 18.000000 17 362.143675
-0.215017 -0.063974 3.708194 12.000000 30 362.143683
-0.340567 -0.110436 3.290887 13.000000 29 362.143685
-0.791806 -0.287455 3.278467 23.000000 26 362.143688
-1.225520 -0.459935 3.613845 89.000000 24 362.143690
-1.791456 -0.673026 4.018998 93.000000 22 362.143693
-1.729995 -0.650276 3.093222 38.000000 20 362.143695
-2.101501 -0.789913 3.046499 17.000000 18 362.143698
-1.955899 -0.735182 2.343471 25.000000 16 362.143701
-1.901341 -0.720362 2.077843 30.000000 15 362.143658
-1.826667 -0.692068 1.656883 35.000000 13 362.143661
-1.761750 -0.667121 1.319705 37.000000 11 362.143663
-1.708310 -0.646882 1.042343 38.000000 9 362.143666
-1.661373 -0.628778 0.806022 40.000000 7 362.143669
-1.620130 -0.612845 0.598762 42.000000 5 362.143671
-1.580511 -0.597859 0.412293 40.000000 3 362.143674
-0.754439 -0.285232 0.165217 30.000000 1 362.143676
-1.869199 -0.704829 1.859764 35.000000 14 362.143684
-1.791352 -0.675472 1.477555 37.000000 12 362.143687
-1.736409 -0.654409 1.175616 38.000000 10 362.143689
-1.699814 -0.640614 0.927197 40.000000 8 362.143692
-1.648939 -0.621112 0.702063 48.000000 6 362.143694
-1.605913 -0.604586 0.504581 51.000000 4 362.143697
-1.575758 -0.592919 0.326738 36.000000 2 362.143699
-0.757300 -0.284804 0.126313 37.000000 0 362.143702
-0.040036 -0.007557 3.114155 8.000000 31 362.143713
-0.683855 -0.235897 3.501348 6.000000 27 362.143718
-1.041549 -0.382296 3.591943 88.000000 25 362.143720
-1.521985 -0.568458 3.043450 12.000000 21 362.143725
-1.951374 -0.728826 3.131987 4.000000 19 362.143728
-2.044011 -0.763422 2.688045 18.000000 17 362.143730
-0.215239 -0.063223 3.708194 11.000000 30 362.143738
-0.340951 -0.109247 3.290887 13.000000 29 362.143741
-0.793988 -0.285114 3.283306 23.000000 26 362.143743
-1.227118 -0.455654 3.613845 89.000000 24 362.143746
-1.795835 -0.667528 4.023498 92.000000 22 362.143748
-1.734699 -0.645142 3.097488 40.000000 20 362.143751
-2.115545 -0.786775 3.062457 18.000000 18 362.143754
-1.967986 -0.731896 2.354496 24.000000 16 362.143756
-1.913862 -0.717476 2.088357 29.000000 15 362.143714
-1.836362 -0.688420 1.663159 35.000000 13 362.143716
-1.767983 -0.662435 1.322447 36.000000 11 362.143719
-1.714706 -0.642470 1.044661 38.000000 9 362.143721
-1.672241 -0.626226 0.809769 40.000000 7 362.143724
-1.626752 -0.608868 0.600171 42.000000 5 362.143727
-1.591790 -0.595782 0.414159 40.000000 3 362.143729
-0.755430 -0.282597 0.165217 31.000000 1 362.143732
-1.878645 -0.700910 1.866414 34.000000 14 362.143739
-1.797486 -0.670628 1.480499 37.000000 12 362.143742
-1.746761 -0.651356 1.180681 38.000000 10 362.143745
-1.706293 -0.636263 0.929295 40.000000 8 362.143747
-1.655522 -0.617002 0.703706 46.000000 6 362.143750
-1.612568 -0.600673 0.505753 52.000000 4 362.143752
-1.582459 -0.589143 0.327428 36.000000 2 362.143755
-0.758290 -0.282159 0.126313 36.000000 0 362.143757
-0.040063 -0.007417 3.114155 8.000000 31 362.143768
-0.682746 -0.232852 3.491558 6.000000 27 362.143773
-1.042878 -0.378658 3.591943 90.000000 25 362.143776
-1.521713 -0.562311 3.039062 12.000000 21 362.143781
-1.988221 -0.734690 3.185716 5.000000 19 362.143783
-2.058692 -0.760728 2.703393 18.000000 17 362.143786
-0.215737 -0.062551 3.713186 11.000000 30 362.143794
-0.341330 -0.108056 3.290887 13.000000 29 362.143796
-0.796164 -0.282761 3.288145 20.000000 26 362.143799
-1.230321 -0.451963 3.618537 89.000000 24 362.143801
-1.798154 -0.661255 4.023498 92.000000 22 362.143804
-1.732045 -0.637282 3.088956 32.000000 20 362.143807
-2.129593 -0.783549 3.078415 20.000000 18 362.143809
-1.980074 -0.728534 2.365522 24.000000 16 362.143812
-1.926386 -0.714512 2.098870 29.000000 15 362.143769
-1.846053 -0.684713 1.669434 35.000000 13 362.143772
-1.778126 -0.659166 1.327930 36.000000 11 362.143774
-1.725246 -0.639560 1.049297 38.000000 9 362.143777
-1.678764 -0.621996 0.811642 40.000000 7 362.143780
-1.637865 -0.606517 0.602990 42.000000 5 362.143782
-1.598466 -0.591928 0.415091 40.000000 3 362.143785
-0.751742 -0.278230 0.164771 35.000000 1 362.143787
-1.888087 -0.696935 1.873064 34.000000 14 362.143795
-1.807400 -0.667149 1.486385 37.000000 12 362.143798
-1.753069 -0.646747 1.183213 38.000000 10 362.143800
-1.717019 -0.633445 0.933491 40.000000 8 362.143803
-1.666527 -0.614487 0.706991 46.000000 6 362.143805
-1.619216 -0.596721 0.506926 52.000000 4 362.143808
-1.593800 -0.587039 0.328807 36.000000 2 362.143810
-0.759270 -0.279510 0.126313 35.000000 0 362.143813
-0.040088 -0.007278 3.114155 9.000000 31 362.143824
-0.681625 -0.229818 3.481767 6.000000 27 362.143829
-1.044193 -0.375016 3.591943 91.000000 25 362.143831
-1.521416 -0.556174 3.034673 12.000000 21 362.143836
-2.017203 -0.737407 3.227045 6.000000 19 362.143839
-2.070368 -0.756839 2.714903 18.000000 17 362.143841
-0.215954 -0.061797 3.713186 11.000000 30 362.143849
-0.341705 -0.106864 3.290887 12.000000 29 362.143852
-0.801894 -0.281647 3.307502 19.000000 26 362.143854
-1.231891 -0.447666 3.618537 89.000000 24 362.143857
-1.802498 -0.655719 4.027999 92.000000 22 362.143859
-1.736710 -0.632124 3.093222 14.000000 20 362.143862
-2.143643 -0.780233 3.094373 22.000000 18 362.143865
-1.992162 -0.725096 2.376547 24.000000 16 362.143867
-1.938912 -0.711469 2.109384 30.000000 15 362.143825
-1.855742 -0.680947 1.675710 35.000000 13 362.143827
-1.788268 -0.655835 1.333413 36.000000 11 362.143830
-1.735787 -0.636585 1.053933 38.000000 9 362.143833
-1.685278 -0.617728 0.813515 40.000000 7 362.143835
-1.644477 -0.602447 0.604399 40.000000 5 362.143838
-1.605135 -0.588034 0.416024 40.000000 3 362.143840
-0.752708 -0.275604 0.164771 33.000000 1 362.143843
-1.897524 -0.692902 1.879714 34.000000 14 362.143851
-1.817311 -0.663609 1.492271 37.000000 12 362.143853
-1.763416 -0.643580 1.188278 38.000000 10 362.143856
-1.723483 -0.629003 0.935589 39.000000 8 362.143858
-1.673099 -0.610284 0.708634 46.000000 6 362.143861
-1.630422 -0.594395 0.509270 53.000000 4 362.143863
-1.600492 -0.583167 0.329497 36.000000 2 362.143866
-0.755547 -0.275149 0.126112 37.000000 0 362.143868
-0.040113 -0.007138 3.114155 9.000000 31 362.143879
-0.681457 -0.227116 3.476872 6.000000 27 362.143884
-1.046903 -0.371868 3.596715 91.000000 25 362.143887
-1.525601 -0.551674 3.039062 12.000000 21 362.143892
-2.122971 -0.767680 3.388230 10.000000 19 362.143894
-2.085057 -0.753968 2.730251 18.000000 17 362.143897
-0.216169 -0.061043 3.713186 11.000000 30 362.143905
-0.342076 -0.105670 3.290887 12.000000 29 362.143907
-0.796931 -0.276784 3.283306 15.000000 26 362.143910
-1.233446 -0.443363 3.618537 87.000000 24 362.143912
-1.804776 -0.649423 4.027999 93.000000 22 362.143915
-2.157697 -0.776830 3.110331 22.000000 18 362.143920
-2.004250 -0.721583 2.387573 24.000000 16 362.143923
-1.948088 -0.707130 2.116393 29.000000 15 362.143880
-1.865426 -0.677122 1.681985 35.000000 13 362.143883
-1.798408 -0.652440 1.338896 36.000000 11 362.143885
-1.746328 -0.633544 1.058569 38.000000 9 362.143888
-1.696140 -0.615002 0.817261 40.000000 7 362.143891
-1.651080 -0.598337 0.605808 40.000000 5 362.143893
-1.616415 -0.585775 0.417889 40.000000 3 362.143896
-0.753666 -0.272975 0.164771 35.000000 1 362.143898
-1.910468 -0.690080 1.889688 34.000000 14 362.143906
-1.827220 -0.660007 1.498158 37.000000 12 362.143909
-1.773762 -0.640348 1.193343 38.000000 10 362.143911
-1.734206 -0.626065 0.939785 39.000000 8 362.143914
-1.684103 -0.607646 0.711920 46.000000 6 362.143916
-1.637060 -0.590349 0.510443 55.000000 4 362.143919
-1.607177 -0.579256 0.330187 36.000000 2 362.143921
-0.756503 -0.272510 0.126112 35.000000 0 362.143924
-0.040138 -0.006997 3.114155 9.000000 31 362.143935
-0.681278 -0.224418 3.471977 6.000000 27 362.143940
-1.048195 -0.368212 3.596715 88.000000 25 362.143942
-1.527518 -0.546345 3.039062 12.000000 21 362.143947
-2.215726 -0.792486 3.528750 13.000000 19 362.143950
-2.096732 -0.749924 2.741762 18.000000 17 362.143953
-0.216380 -0.060288 3.713186 11.000000 30 362.143960
-0.342443 -0.104476 3.290887 11.000000 29 362.143963
-0.796702 -0.273592 3.278467 12.000000 26 362.143965
-1.236612 -0.439633 3.623230 87.000000 24 362.143968
-1.809084 -0.643849 4.032500 96.000000 22 362.143971
-2.168913 -0.772326 3.122299 22.000000 18 362.143976
-2.016338 -0.717994 2.398598 24.000000 16 362.143978
-1.960614 -0.703941 2.126907 28.000000 15 362.143936
-1.878769 -0.674553 1.691399 35.000000 13 362.143938
-1.808546 -0.648983 1.344379 36.000000 11 362.143941
-1.756868 -0.630437 1.063205 38.000000 9 362.143944
-1.702641 -0.610642 0.819134 39.000000 7 362.143946
-1.657675 -0.594189 0.607217 40.000000 5 362.143949
-1.623074 -0.581787 0.418822 40.000000 3 362.143951
-0.749926 -0.268663 0.164325 35.000000 1 362.143954
-1.919899 -0.685920 1.896338 33.000000 14 362.143962
-1.840932 -0.657705 1.506987 37.000000 12 362.143964
-1.784107 -0.637052 1.198408 38.000000 10 362.143967
-1.744929 -0.623060 0.943981 39.000000 8 362.143969
-1.690662 -0.603351 0.713562 46.000000 6 362.143972
-1.648267 -0.587897 0.512787 53.000000 4 362.143974
-1.613854 -0.575305 0.330877 36.000000 2 362.143977
-0.752743 -0.268191 0.125910 37.000000 0 362.143979
-0.040162 -0.006857 3.114155 9.000000 31 362.143990
-0.681089 -0.221724 3.467082 6.000000 27 362.143995
-1.049474 -0.364550 3.596715 88.000000 25 362.143998
-1.327183 -0.469220 3.375870 4.000000 23 362.144000
-1.531674 -0.541809 3.043450 13.000000 21 362.144003
-2.263579 -0.800700 3.599010 14.000000 19 362.144005
-2.108404 -0.745808 2.753273 18.000000 17 362.144008
-0.216589 -0.059532 3.713186 11.000000 30 362.144016
-0.342806 -0.103280 3.290887 11.000000 29 362.144018
-0.796461 -0.270405 3.273628 10.000000 26 362.144021
-1.238139 -0.435314 3.623230 89.000000 24 362.144023
-1.811320 -0.637530 4.032500 96.000000 22 362.144026
-2.180125 -0.767754 3.134268 20.000000 18 362.144031
-2.028425 -0.714329 2.409624 23.000000 16 362.144034
-1.969781 -0.699479 2.133916 28.000000 15 362.143991
-1.888449 -0.670596 1.697674 35.000000 13 362.143994
-1.818681 -0.645464 1.349862 36.000000 11 362.143997
-1.767408 -0.627264 1.067841 38.000000 9 362.143999
-1.713500 -0.607795 0.822880 39.000000 7 362.144002
-1.664260 -0.590002 0.608626 40.000000 5 362.144004
-1.629725 -0.577759 0.419754 40.000000 3 362.144007
-0.746165 -0.264380 0.163879 34.000000 1 362.144009
-1.932844 -0.682946 1.906312 34.000000 14 362.144017
-1.850838 -0.653968 1.512873 36.000000 12 362.144020
-1.794450 -0.633692 1.203473 38.000000 10 362.144022
-1.755653 -0.619988 0.948177 39.000000 8 362.144025
-1.701664 -0.600589 0.716848 44.000000 6 362.144027
-1.654893 -0.583757 0.513960 53.000000 4 362.144030
-1.620522 -0.571315 0.331567 36.000000 2 362.144032
-0.748962 -0.263901 0.125709 40.000000 0 362.144035
-0.040229 -0.006720 3.119155 10.000000 31 362.144046
-0.679920 -0.218722 3.457291 6.000000 27 362.144051
-1.052152 -0.361370 3.601486 90.000000 25 362.144053
-1.395204 -0.487795 3.541561 8.000000 23 362.144056
-1.535817 -0.537250 3.047839 14.000000 21 362.144058
-2.279641 -0.797439 3.619675 12.000000 19 362.144061
-2.120073 -0.741619 2.764784 17.000000 17 362.144064
-0.216796 -0.058776 3.713186 11.000000 30 362.144071
-0.343164 -0.102082 3.290887 10.000000 29 362.144074
-0.796208 -0.267224 3.268789 8.000000 26 362.144076
-1.239651 -0.430989 3.623230 89.000000 24 362.144079
-1.815591 -0.631920 4.037001 96.000000 22 362.144082
-2.314310 -0.805942 4.078653 4.000000 20 362.144084
-2.191330 -0.763113 3.146236 20.000000 18 362.144087
-2.040511 -0.710589 2.420649 23.000000 16 362.144089
-1.982305 -0.696144 2.144429 28.000000 15 362.144047
-1.898125 -0.666579 1.703950 34.000000 13 362.144049
-1.824869 -0.640496 1.352603 36.000000 11 362.144052
-1.782128 -0.625492 1.074795 38.000000 9 362.144055
-1.724360 -0.604879 0.826626 39.000000 7 362.144057
-1.675364 -0.587363 0.611445 40.000000 5 362.144060
-1.641003 -0.575317 0.421620 40.000000 3 362.144062
-0.747083 -0.261774 0.163879 35.000000 1 362.144065
-1.942267 -0.678658 1.912962 33.000000 14 362.144073
-1.860741 -0.650170 1.518760 36.000000 12 362.144075
-1.804791 -0.630267 1.208538 38.000000 10 362.144078
-1.762091 -0.615352 0.950275 39.000000 8 362.144080
-1.712667 -0.597758 0.720133 44.000000 6 362.144083
-1.666099 -0.581178 0.516304 51.000000 4 362.144085
-1.627183 -0.567285 0.332256 36.000000 2 362.144088
-0.749879 -0.261285 0.125709 40.000000 0 362.144091
-0.040253 -0.006580 3.119155 10.000000 31 362.144101
-0.487757 -0.155698 3.255395 2.000000 28 362.144104
-0.678738 -0.215732 3.447501 6.000000 27 362.144106
-1.053407 -0.357695 3.601486 91.000000 25 362.144109
-1.579695 -0.546114 3.997211 21.000000 23 362.144111
-1.542212 -0.533452 3.056616 21.000000 21 362.144114
-2.287730 -0.791317 3.627941 11.000000 19 362.144117
-2.131738 -0.737358 2.776294 17.000000 17 362.144119
-0.217000 -0.058019 3.713186 11.000000 30 362.144127
-0.344031 -0.101033 3.295859 10.000000 29 362.144129
-0.795942 -0.264047 3.263949 6.000000 26 362.144132
-1.242780 -0.427220 3.627923 89.000000 24 362.144135
-1.819845 -0.626287 4.041502 95.000000 22 362.144137
-2.363962 -0.813991 4.159706 4.000000 20 362.144140
-2.202530 -0.758403 3.158205 15.000000 18 362.144142
-2.052595 -0.706773 2.431674 23.000000 16 362.144145
-1.994829 -0.692730 2.154943 28.000000 15 362.144102
-1.907795 -0.662504 1.710225 34.000000 13 362.144105
-1.834994 -0.636864 1.358086 35.000000 11 362.144108
-1.792671 -0.622173 1.079431 39.000000 9 362.144110
-1.735221 -0.601895 0.830372 40.000000 7 362.144113
-1.681937 -0.583083 0.612854 39.000000 5 362.144115
-1.647642 -0.571194 0.422552 39.000000 3 362.144118
-0.743287 -0.257534 0.163433 43.000000 1 362.144120
-1.955213 -0.675533 1.922937 33.000000 14 362.144128
-1.874461 -0.647631 1.527589 36.000000 12 362.144131
-1.815131 -0.626777 1.213603 38.000000 10 362.144133
-1.772808 -0.612161 0.954471 39.000000 8 362.144136
-1.719208 -0.593316 0.721776 44.000000 6 362.144138
-1.672712 -0.576944 0.517477 53.000000 4 362.144141
-1.638517 -0.564829 0.333636 36.000000 2 362.144143
-0.746063 -0.257039 0.125507 40.000000 0 362.144146
-0.040275 -0.006439 3.119155 10.000000 31 362.144157
-0.677544 -0.212752 3.437710 6.000000 27 362.144162
-1.056065 -0.354491 3.606258 90.000000 25 362.144164
-1.579744 -0.539965 3.992608 25.000000 23 362.144167
-1.546331 -0.528841 3.061005 32.000000 21 362.144169
-2.306454 -0.788790 3.652739 10.000000 19 362.144172
-2.140366 -0.731987 2.783968 16.000000 17 362.144175
-0.217201 -0.057261 3.713186 11.000000 30 362.144182
-0.344381 -0.099832 3.295859 10.000000 29 362.144185
-0.796858 -0.261267 3.263949 4.000000 26 362.144187
-1.244264 -0.422879 3.627923 89.000000 24 362.144190
-1.824082 -0.620632 4.046002 94.000000 22 362.144193
-2.216576 -0.754595 3.174163 15.000000 18 362.144198
-2.067887 -0.703974 2.446375 23.000000 16 362.144200
-2.007354 -0.689237 2.165457 27.000000 15 362.144158
-1.921141 -0.659633 1.719639 34.000000 13 362.144161
-1.845116 -0.633169 1.363569 36.000000 11 362.144163
-1.803213 -0.618787 1.084067 39.000000 9 362.144166
-1.741697 -0.597338 0.832245 39.000000 7 362.144168
-1.693038 -0.580320 0.615672 39.000000 5 362.144171
-1.654273 -0.567032 0.423485 40.000000 3 362.144173
-0.739470 -0.253324 0.162986 45.000000 1 362.144176
-1.968161 -0.672325 1.932911 32.000000 14 362.144184
-1.884360 -0.643697 1.533475 36.000000 12 362.144186
-1.825468 -0.623224 1.218667 38.000000 10 362.144189
-1.783524 -0.608901 0.958668 39.000000 8 362.144191
-1.730207 -0.590361 0.725061 44.000000 6 362.144194
-1.683917 -0.574239 0.519821 52.000000 4 362.144196
-1.645166 -0.560704 0.334326 36.000000 2 362.144199
-0.746956 -0.254433 0.125507 40.000000 0 362.144202
-0.040298 -0.006298 3.119155 9.000000 31 362.144212
-0.488833 -0.152289 3.255395 3.000000 28 362.144215
-0.675364 -0.209483 3.423024 6.000000 27 362.144217
-1.057296 -0.350802 3.606258 90.000000 25 362.144220
-1.579768 -0.533822 3.988006 50.000000 23 362.144222
-1.550437 -0.524207 3.065393 52.000000 21 362.144225
-2.322522 -0.785241 3.673404 10.000000 19 362.144228
-2.152019 -0.727592 2.795479 16.000000 17 362.144230
-0.217400 -0.056502 3.713186 10.000000 30 362.144238
-0.345241 -0.098775 3.300830 10.000000 29 362.144240
-0.797766 -0.258484 3.263949 3.000000 26 362.144243
-1.247368 -0.419083 3.632616 89.000000 24 362.144246
-1.828301 -0.614955 4.050503 94.000000 22 362.144248
-1.717030 -0.577858 3.033499 4.000000 20 362.144251
-2.227766 -0.749737 3.186131 14.000000 18 362.144253
