# .PCD v.7 - Point Cloud Data file format
VERSION .7
FIELDS x y z intensity ring timestamp
SIZE 4 4 4 4 2 8
TYPE F F F F U D
COUNT 1 1 1 1 1 1
WIDTH 924
HEIGHT 1
VIEWPOINT 0 0 0 1 0 0 0
POINTS 924
DATA ascii
1.025546 -2.027574 3.082404 39.000000 18 362.017372
1.074686 -2.124734 2.659535 18.000000 16 362.017374
1.048640 -2.059832 2.351198 24.000000 15 362.017332
0.990411 -1.945458 1.842012 33.000000 13 362.017334
0.941600 -1.850377 1.445813 36.000000 11 362.017337
0.908816 -1.785957 1.135064 38.000000 9 362.017340
0.874715 -1.719687 0.867833 45.000000 7 362.017342
0.848094 -1.668070 0.639629 46.000000 5 362.017345
0.825955 -1.624525 0.437474 46.000000 3 362.017347
0.800875 -1.575877 0.251336 32.000000 1 362.017350
1.006539 -1.984838 2.062580 29.000000 14 362.017358
0.959114 -1.891324 1.627657 37.000000 12 362.017360
0.918896 -1.812800 1.279446 38.000000 10 362.017363
0.891062 -1.757894 0.998531 43.000000 8 362.017365
0.858284 -1.693963 0.749701 50.000000 6 362.017368
0.830191 -1.639225 0.533889 54.000000 4 362.017370
0.814099 -1.608148 0.343293 40.000000 2 362.017373
0.789370 -1.559974 0.164201 35.000000 0 362.017375
0.011754 -0.038467 3.054157 10.000000 31 362.017386
0.240326 -0.507728 3.571508 12.000000 28 362.017389
0.475377 -1.007910 5.381116 96.000000 27 362.017391
0.716041 -1.443483 5.195242 95.000000 25 362.017394
0.787338 -1.564734 3.276049 45.000000 21 362.017399
0.941344 -1.870812 3.148519 39.000000 19 362.017401
1.094567 -2.175335 2.991163 15.000000 17 362.017404
0.074556 -0.178711 3.179084 16.000000 30 362.017412
0.149276 -0.335382 3.375401 15.000000 29 362.017414
0.597624 -1.226512 5.286737 90.000000 26 362.017417
0.831071 -1.659560 5.101452 96.000000 24 362.017419
1.050697 -2.096325 4.910162 98.000000 22 362.017422
0.861145 -1.717391 3.212668 43.000000 20 362.017425
1.018462 -2.031142 3.082404 39.000000 18 362.017427
1.061184 -2.116350 2.644834 19.000000 16 362.017430
1.033409 -2.047561 2.333675 24.000000 15 362.017387
0.978352 -1.938477 1.832599 33.000000 13 362.017390
0.931368 -1.846186 1.440330 36.000000 11 362.017393
0.898586 -1.781208 1.130428 38.000000 9 362.017395
0.864532 -1.714451 0.864087 45.000000 7 362.017398
0.837948 -1.662452 0.636810 46.000000 5 362.017400
0.815857 -1.618625 0.435609 48.000000 3 362.017403
0.790888 -1.569768 0.250443 32.000000 1 362.017405
0.992895 -1.974993 2.049281 29.000000 14 362.017413
0.947060 -1.883826 1.618827 37.000000 12 362.017416
0.908691 -1.808293 1.274381 38.000000 10 362.017418
0.880845 -1.752883 0.994335 42.000000 8 362.017421
0.848127 -1.688509 0.746416 52.000000 6 362.017423
0.820102 -1.633425 0.531544 55.000000 4 362.017426
0.804038 -1.602127 0.341914 39.000000 2 362.017428
0.781680 -1.558254 0.164000 36.000000 0 362.017431
0.011619 -0.038507 3.054157 10.000000 31 362.017442
0.238222 -0.507860 3.566568 13.000000 28 362.017444
0.471856 -1.009563 5.381116 97.000000 27 362.017447
0.710998 -1.445974 5.195242 95.000000 25 362.017449
0.781872 -1.567472 3.276049 45.000000 21 362.017454
0.934808 -1.874087 3.148519 39.000000 19 362.017457
1.081243 -2.167667 2.975816 14.000000 17 362.017460
0.073931 -0.178970 3.179084 17.000000 30 362.017467
0.148104 -0.335901 3.375401 15.000000 29 362.017470
0.593339 -1.228590 5.286737 95.000000 26 362.017472
0.826041 -1.663996 5.106144 97.000000 24 362.017475
1.043373 -2.099980 4.910162 98.000000 22 362.017478
0.855145 -1.720386 3.212668 45.000000 20 362.017480
1.011366 -2.034684 3.082404 39.000000 18 362.017483
1.047755 -2.107898 2.630133 19.000000 16 362.017485
1.019873 -2.038399 2.319657 24.000000 15 362.017443
0.966354 -1.931436 1.823185 33.000000 13 362.017445
0.921177 -1.841946 1.434847 36.000000 11 362.017448
0.886418 -1.772447 1.123474 38.000000 9 362.017451
0.856470 -1.713311 0.862213 44.000000 7 362.017453
0.827851 -1.656784 0.633992 48.000000 5 362.017456
0.808006 -1.617069 0.434676 48.000000 3 362.017458
0.780953 -1.563609 0.249551 34.000000 1 362.017461
0.980998 -1.968420 2.039306 29.000000 14 362.017469
0.935070 -1.876268 1.609998 37.000000 12 362.017471
0.898529 -1.803735 1.269316 39.000000 10 362.017474
0.870673 -1.747822 0.990138 45.000000 8 362.017476
0.838018 -1.683004 0.743131 48.000000 6 362.017479
0.812229 -1.631927 0.530372 55.000000 4 362.017481
0.794029 -1.596057 0.340534 39.000000 2 362.017484
0.774011 -1.556500 0.163798 36.000000 0 362.017487
0.011485 -0.038548 3.054157 11.000000 31 362.017497
0.236448 -0.508689 3.566568 10.000000 28 362.017500
0.468329 -1.011204 5.381116 98.000000 27 362.017502
0.705946 -1.448447 5.195242 95.000000 25 362.017505
0.776395 -1.570192 3.276049 43.000000 21 362.017510
0.928261 -1.877339 3.148519 39.000000 19 362.017513
1.067986 -2.159933 2.960468 12.000000 17 362.017515
0.073306 -0.179227 3.179084 17.000000 30 362.017523
0.146718 -0.335926 3.370430 15.000000 29 362.017525
0.589046 -1.230654 5.286737 99.000000 26 362.017528
0.820227 -1.666869 5.106144 97.000000 24 362.017531
1.036999 -2.105563 4.914663 98.000000 22 362.017533
0.849134 -1.723361 3.212668 45.000000 20 362.017536
1.004257 -2.038202 3.082404 38.000000 18 362.017538
1.034397 -2.099379 2.615433 20.000000 16 362.017541
1.006413 -2.029167 2.305639 24.000000 15 362.017498
0.954417 -1.924335 1.813772 33.000000 13 362.017501
0.911028 -1.837657 1.429364 36.000000 11 362.017504
0.876290 -1.767592 1.118838 38.000000 9 362.017506
0.846367 -1.707983 0.858467 45.000000 7 362.017509
0.819933 -1.655365 0.632583 46.000000 5 362.017511
0.797996 -1.611076 0.432811 48.000000 3 362.017514
0.773281 -1.561862 0.249105 34.000000 1 362.017516
0.969159 -1.961788 2.029332 29.000000 14 362.017524
0.924934 -1.872273 1.604111 37.000000 12 362.017527
0.886501 -1.795264 1.261719 38.000000 10 362.017529
0.860548 -1.742712 0.985942 45.000000 8 362.017532
0.827957 -1.677449 0.739845 48.000000 6 362.017534
0.802227 -1.626034 0.528027 55.000000 4 362.017537
0.784072 -1.589936 0.339155 39.000000 2 362.017539
0.764155 -1.550230 0.163395 36.000000 0 362.017542
0.011350 -0.038588 3.054157 11.000000 31 362.017553
0.234347 -0.508805 3.561629 10.000000 28 362.017555
0.464796 -1.012832 5.381116 96.000000 27 362.017558
0.700886 -1.450902 5.195242 95.000000 25 362.017560
0.916698 -1.871167 4.968344 5.000000 23 362.017563
0.770910 -1.572893 3.276049 43.000000 21 362.017565
0.921702 -1.880567 3.148519 39.000000 19 362.017568
1.054796 -2.152132 2.945120 12.000000 17 362.017571
0.072680 -0.179482 3.179084 17.000000 30 362.017578
0.145545 -0.336436 3.370430 15.000000 29 362.017581
0.584747 -1.232702 5.286737 99.000000 26 362.017583
0.814404 -1.669722 5.106144 97.000000 24 362.017586
1.029643 -2.109170 4.914663 103.000000 22 362.017589
0.844258 -1.728658 3.216934 45.000000 20 362.017591
0.997136 -2.041695 3.082404 38.000000 18 362.017594
1.021111 -2.090791 2.600732 20.000000 16 362.017596
0.993030 -2.019866 2.291620 25.000000 15 362.017554
0.944259 -1.920668 1.807497 32.000000 13 362.017557
0.899075 -1.829568 1.421139 36.000000 11 362.017559
0.866207 -1.762688 1.114202 39.000000 9 362.017562
0.836312 -1.702604 0.854721 47.000000 7 362.017564
0.809922 -1.649604 0.629764 46.000000 5 362.017567
0.790203 -1.609442 0.431878 46.000000 3 362.017569
0.763436 -1.555611 0.248212 34.000000 1 362.017572
0.957378 -1.955098 2.019357 30.000000 14 362.017580
0.913060 -1.864599 1.595282 37.000000 12 362.017582
0.876438 -1.790603 1.256654 39.000000 10 362.017585
0.850469 -1.737552 0.981746 45.000000 8 362.017587
0.820022 -1.676087 0.738202 50.000000 6 362.017590
0.794411 -1.624458 0.526855 55.000000 4 362.017592
0.776343 -1.588214 0.338465 39.000000 2 362.017595
0.756546 -1.548399 0.163194 36.000000 0 362.017598
0.011207 -0.038584 3.049157 11.000000 31 362.017608
0.232247 -0.508913 3.556690 12.000000 28 362.017611
0.461258 -1.014449 5.381116 94.000000 27 362.017613
0.695817 -1.453340 5.195242 95.000000 25 362.017616
0.914428 -1.883143 4.991356 14.000000 23 362.017618
0.765415 -1.575574 3.276049 43.000000 21 362.017621
0.916361 -1.886304 3.152652 39.000000 19 362.017624
1.041674 -2.144267 2.929772 13.000000 17 362.017626
0.072084 -0.179722 3.179084 17.000000 30 362.017634
0.144219 -0.336425 3.365458 15.000000 29 362.017636
0.580656 -1.234635 5.286737 99.000000 26 362.017639
0.808862 -1.672414 5.106144 97.000000 24 362.017642
1.023222 -2.114712 4.919164 103.000000 22 362.017644
0.838218 -1.731594 3.216934 45.000000 20 362.017647
0.990003 -2.045163 3.082404 38.000000 18 362.017649
1.006784 -2.078910 2.582356 21.000000 16 362.017652
0.981287 -2.013702 2.281107 25.000000 15 362.017609
0.932433 -1.913454 1.798083 32.000000 13 362.017612
0.889021 -1.825177 1.415657 36.000000 11 362.017615
0.856169 -1.757735 1.109566 39.000000 9 362.017617
0.826601 -1.697033 0.850975 47.000000 7 362.017620
0.800247 -1.643655 0.626946 48.000000 5 362.017622
0.780281 -1.603357 0.430013 46.000000 3 362.017625
0.755823 -1.553788 0.247766 34.000000 1 362.017627
0.945656 -1.948349 2.009383 31.000000 14 362.017635
0.903016 -1.860503 1.589396 37.000000 12 362.017638
0.866731 -1.785743 1.251589 39.000000 10 362.017640
0.840739 -1.732197 0.977550 45.000000 8 362.017643
0.810336 -1.670300 0.734917 50.000000 6 362.017645
0.784778 -1.618336 0.524511 57.000000 4 362.017648
0.766752 -1.581867 0.337085 39.000000 2 362.017651
0.747051 -1.541907 0.162791 36.000000 0 362.017653
0.011079 -0.038621 3.049157 11.000000 31 362.017664
0.230238 -0.508972 3.551751 13.000000 28 362.017666
0.457892 -1.015973 5.381116 94.000000 27 362.017669
0.690994 -1.455640 5.195242 96.000000 25 362.017671
0.903093 -1.875604 4.963741 52.000000 23 362.017674
0.760186 -1.578103 3.276049 46.000000 21 362.017677
0.910101 -1.889333 3.152652 39.000000 19 362.017679
1.030384 -2.139044 2.918261 14.000000 17 362.017682
0.071351 -0.179703 3.174092 17.000000 30 362.017689
0.142836 -0.336435 3.360487 15.000000 29 362.017692
0.576343 -1.236654 5.286737 98.000000 26 362.017695
0.803019 -1.675227 5.106144 96.000000 24 362.017697
1.016204 -2.118093 4.919164 99.000000 22 362.017700
0.832472 -1.734364 3.216934 43.000000 20 362.017702
0.984520 -2.051152 3.086394 38.000000 18 362.017705
0.993653 -2.070187 2.567656 21.000000 16 362.017707
0.968397 -2.004101 2.267089 26.000000 15 362.017665
0.921001 -1.906020 1.788670 34.000000 13 362.017668
0.877508 -1.816819 1.407432 36.000000 11 362.017670
0.846481 -1.752586 1.104930 39.000000 9 362.017673
0.816642 -1.691558 0.847229 45.000000 7 362.017675
0.792420 -1.642118 0.625537 50.000000 5 362.017678
0.770690 -1.597087 0.428148 48.000000 3 362.017680
0.748502 -1.551800 0.247320 34.000000 1 362.017683
0.935951 -1.944744 2.002733 31.000000 14 362.017691
0.893336 -1.856203 1.583509 37.000000 12 362.017693
0.856754 -1.780987 1.246524 39.000000 10 362.017696
0.832720 -1.731031 0.975452 47.000000 8 362.017698
0.800408 -1.664606 0.731632 48.000000 6 362.017701
0.777018 -1.616685 0.523338 55.000000 4 362.017703
0.759081 -1.580070 0.336395 39.000000 2 362.017706
0.739501 -1.540002 0.162589 36.000000 0 362.017709
0.010938 -0.038661 3.049157 11.000000 31 362.017720
0.228371 -0.509812 3.551751 13.000000 28 362.017723
0.454165 -1.017644 5.381116 98.000000 27 362.017725
0.685654 -1.458162 5.195242 96.000000 25 362.017728
0.897895 -1.882427 4.972946 64.000000 23 362.017730
0.754396 -1.580879 3.276049 43.000000 21 362.017733
0.903170 -1.892656 3.152652 39.000000 19 362.017735
1.017014 -2.131233 2.902914 14.000000 17 362.017738
0.070692 -0.179963 3.174092 17.000000 30 362.017746
0.141602 -0.336956 3.360487 15.000000 29 362.017748
0.571806 -1.238758 5.286737 99.000000 26 362.017751
0.796874 -1.678159 5.106144 96.000000 24 362.017753
1.008434 -2.121803 4.919164 98.000000 22 362.017756
0.826109 -1.737404 3.216934 43.000000 20 362.017758
0.976996 -2.054747 3.086394 38.000000 18 362.017761
0.980236 -2.061568 2.552955 21.000000 16 362.017764
0.956426 -1.997987 2.256575 26.000000 15 362.017721
0.910648 -1.902360 1.782394 34.000000 13 362.017724
0.867234 -1.812479 1.401949 36.000000 11 362.017726
0.836228 -1.747684 1.100294 39.000000 9 362.017729
0.808436 -1.690357 0.845356 44.000000 7 362.017732
0.782257 -1.636354 0.622718 48.000000 5 362.017734
0.762712 -1.595469 0.427215 46.000000 3 362.017737
0.740663 -1.550040 0.246874 34.000000 1 362.017739
0.923995 -1.938049 1.992758 31.000000 14 362.017747
0.883047 -1.852167 1.577623 37.000000 12 362.017750
0.846511 -1.776331 1.241459 39.000000 10 362.017752
0.822465 -1.725877 0.971256 45.000000 8 362.017755
0.792271 -1.663265 0.729989 50.000000 6 362.017757
0.768998 -1.615133 0.522166 50.000000 4 362.017760
0.751157 -1.578370 0.335706 39.000000 2 362.017762
0.729560 -1.533679 0.162186 36.000000 0 362.017765
0.010795 -0.038656 3.044158 11.000000 31 362.017776
0.226276 -0.509896 3.546811 13.000000 28 362.017778
0.450610 -1.019223 5.381116 97.000000 27 362.017781
0.680560 -1.460547 5.195242 95.000000 25 362.017783
0.892988 -1.889083 4.982151 86.000000 23 362.017786
0.748874 -1.583503 3.276049 43.000000 21 362.017788
0.896558 -1.895797 3.152652 39.000000 19 362.017791
1.005457 -2.126076 2.891403 15.000000 17 362.017793
0.070064 -0.180209 3.174092 17.000000 30 362.017801
0.140221 -0.336955 3.355515 15.000000 29 362.017804
0.567479 -1.240746 5.286737 99.000000 26 362.017806
0.791011 -1.680930 5.106144 96.000000 24 362.017809
1.001022 -2.125311 4.919164 98.000000 22 362.017811
0.820040 -1.740277 3.216934 43.000000 20 362.017814
0.969817 -2.058145 3.086394 38.000000 18 362.017817
0.968699 -2.055777 2.541929 21.000000 16 362.017819
0.943332 -1.988425 2.242557 25.000000 15 362.017777
0.898996 -1.894976 1.772981 34.000000 13 362.017779
0.857319 -1.807939 1.396466 36.000000 11 362.017782
0.826326 -1.742586 1.095657 39.000000 9 362.017784
0.798559 -1.684791 0.841610 45.000000 7 362.017787
0.772433 -1.630404 0.619900 48.000000 5 362.017790
0.752932 -1.589244 0.425350 44.000000 3 362.017792
0.730985 -1.543614 0.245981 34.000000 1 362.017795
0.912439 -1.931133 1.982784 31.000000 14 362.017802
0.871396 -1.844274 1.568793 37.000000 12 362.017805
0.834782 -1.767580 1.233862 39.000000 10 362.017808
0.812559 -1.720530 0.967060 47.000000 8 362.017810
0.782428 -1.657479 0.726704 50.000000 6 362.017813
0.759207 -1.609016 0.519821 50.000000 4 362.017815
0.743530 -1.576503 0.335016 39.000000 2 362.017818
0.722071 -1.531697 0.161984 36.000000 0 362.017820
0.010660 -0.038694 3.044158 12.000000 31 362.017831
0.224494 -0.510683 3.546811 13.000000 28 362.017834
0.447457 -1.021723 5.386011 97.000000 27 362.017836
0.675457 -1.462914 5.195242 95.000000 25 362.017839
0.887217 -1.893958 4.986753 94.000000 23 362.017841
0.743342 -1.586107 3.276049 43.000000 21 362.017844
0.889935 -1.898915 3.152652 39.000000 19 362.017846
0.993948 -2.120863 2.879892 15.000000 17 362.017849
0.069537 -0.180723 3.179084 17.000000 30 362.017857
0.139044 -0.337443 3.355515 15.000000 29 362.017859
0.563144 -1.242720 5.286737 99.000000 26 362.017862
0.785139 -1.683681 5.106144 96.000000 24 362.017864
0.993597 -2.128792 4.919164 98.000000 22 362.017867
0.813960 -1.743129 3.216934 42.000000 20 362.017870
0.962627 -2.061518 3.086394 38.000000 18 362.017872
0.955779 -2.046859 2.527229 21.000000 16 362.017875
0.931833 -1.982023 2.232043 25.000000 15 362.017832
0.889063 -1.891056 1.766705 34.000000 13 362.017835
0.847446 -1.803352 1.390983 36.000000 11 362.017837
0.816470 -1.737441 1.091021 39.000000 9 362.017840
0.788732 -1.679176 0.837864 45.000000 7 362.017843
0.764698 -1.628748 0.618491 50.000000 5 362.017845
0.743205 -1.582969 0.423485 44.000000 3 362.017848
0.723476 -1.541648 0.245535 33.000000 1 362.017850
0.900942 -1.924161 1.972809 31.000000 14 362.017858
0.861526 -1.839984 1.562907 37.000000 12 362.017861
0.824952 -1.762674 1.228797 39.000000 10 362.017863
0.804624 -1.719245 0.964962 47.000000 8 362.017866
0.772636 -1.651645 0.723418 52.000000 6 362.017868
0.751527 -1.607253 0.518649 56.000000 4 362.017871
0.735926 -1.574603 0.334326 39.000000 2 362.017873
0.712491 -1.525156 0.161581 35.000000 0 362.017876
0.010525 -0.038731 3.044158 12.000000 31 362.017887
0.222710 -0.511463 3.546811 13.000000 28 362.017889
0.443888 -1.023278 5.386011 97.000000 27 362.017892
0.670347 -1.465263 5.195242 96.000000 25 362.017894
0.882246 -1.900587 4.995958 94.000000 23 362.017897
0.737800 -1.588692 3.276049 42.000000 21 362.017899
0.883301 -1.902010 3.152652 39.000000 19 362.017902
0.982488 -2.115597 2.868381 16.000000 17 362.017904
0.068905 -0.180965 3.179084 17.000000 30 362.017912
0.137865 -0.337926 3.355515 15.000000 29 362.017915
0.558803 -1.244678 5.286737 99.000000 26 362.017917
0.779257 -1.686412 5.106144 96.000000 24 362.017920
0.986160 -2.132247 4.919164 98.000000 22 362.017922
0.807870 -1.745959 3.216934 40.000000 20 362.017925
0.955425 -2.064865 3.086394 38.000000 18 362.017928
0.942934 -2.037875 2.512528 21.000000 16 362.017930
0.918885 -1.972334 2.218025 25.000000 15 362.017888
0.877525 -1.883562 1.757292 34.000000 13 362.017890
0.835850 -1.794927 1.382759 36.000000 11 362.017893
0.806660 -1.732248 1.086385 39.000000 9 362.017896
0.778953 -1.673513 0.834118 45.000000 7 362.017898
0.754961 -1.622708 0.615672 48.000000 5 362.017901
0.735603 -1.581100 0.422552 44.000000 3 362.017903
0.715991 -1.539648 0.245089 34.000000 1 362.017906
0.891076 -1.920519 1.966160 31.000000 14 362.017914
0.849994 -1.831980 1.554078 37.000000 12 362.017916
0.815167 -1.757720 1.223732 39.000000 10 362.017919
0.794800 -1.713809 0.960766 47.000000 8 362.017921
0.764880 -1.650048 0.721776 52.000000 6 362.017924
0.741826 -1.601046 0.516304 58.000000 4 362.017926
0.728344 -1.572668 0.333636 39.000000 2 362.017929
0.705065 -1.523100 0.161380 36.000000 0 362.017931
0.010390 -0.038767 3.044158 12.000000 31 362.017942
0.220924 -0.512238 3.546811 13.000000 28 362.017945
0.440314 -1.024822 5.386011 98.000000 27 362.017947
0.665845 -1.468954 5.200014 96.000000 25 362.017950
0.875606 -1.903655 4.995958 98.000000 23 362.017952
0.732250 -1.591258 3.276049 37.000000 21 362.017955
0.876657 -1.905082 3.152652 39.000000 19 362.017957
0.971076 -2.110277 2.856870 16.000000 17 362.017960
0.068273 -0.181204 3.179084 17.000000 30 362.017968
0.136684 -0.338405 3.355515 15.000000 29 362.017970
0.554966 -1.247770 5.291576 98.000000 26 362.017973
0.773366 -1.689122 5.106144 96.000000 24 362.017975
0.978711 -2.135677 4.919164 98.000000 22 362.017978
0.801771 -1.748769 3.216934 40.000000 20 362.017981
0.949468 -2.070927 3.090383 38.000000 18 362.017983
0.931576 -2.031909 2.501503 21.000000 16 362.017986
0.907510 -1.965815 2.207511 25.000000 15 362.017943
0.866050 -1.876011 1.747879 34.000000 13 362.017946
0.826076 -1.790240 1.377276 36.000000 11 362.017948
0.798752 -1.731031 1.084067 39.000000 9 362.017951
0.771165 -1.672012 0.832245 44.000000 7 362.017954
0.747283 -1.620977 0.614263 50.000000 5 362.017956
0.725966 -1.574736 0.420687 44.000000 3 362.017959
0.708528 -1.537615 0.244643 34.000000 1 362.017961
0.879687 -1.913438 1.956185 32.000000 14 362.017969
0.838529 -1.823919 1.545248 37.000000 12 362.017972
0.805426 -1.752720 1.218667 39.000000 10 362.017974
0.785022 -1.708325 0.956570 47.000000 8 362.017977
0.755173 -1.644125 0.718490 50.000000 6 362.017979
0.734204 -1.599208 0.515132 58.000000 4 362.017982
0.720784 -1.570700 0.332946 39.000000 2 362.017984
0.697661 -1.521011 0.161178 36.000000 0 362.017987
0.010254 -0.038803 3.044158 12.000000 31 362.017998
0.218830 -0.512291 3.541872 13.000000 28 362.018000
0.436734 -1.026352 5.386011 97.000000 27 362.018003
0.660713 -1.471269 5.200014 96.000000 25 362.018005
0.869766 -1.908478 5.000561 98.000000 23 362.018008
0.725697 -1.591624 3.271661 34.000000 21 362.018010
0.870001 -1.908130 3.152652 39.000000 19 362.018013
0.959714 -2.104903 2.845360 16.000000 17 362.018016
0.067640 -0.181441 3.179084 18.000000 30 362.018023
0.135502 -0.338880 3.355515 15.000000 29 362.018026
0.550607 -1.249700 5.291576 98.000000 26 362.018028
0.767465 -1.691811 5.106144 96.000000 24 362.018031
0.972150 -2.141063 4.923665 98.000000 22 362.018034
0.795662 -1.751557 3.216934 42.000000 20 362.018036
0.942233 -2.074229 3.090383 38.000000 18 362.018039
0.918869 -2.022802 2.486802 22.000000 16 362.018041
0.896192 -1.959242 2.196998 25.000000 15 362.017999
0.854638 -1.868402 1.738465 34.000000 13 362.018001
0.816344 -1.785508 1.371793 36.000000 11 362.018004
0.789020 -1.725750 1.079431 39.000000 9 362.018007
0.761470 -1.666261 0.828499 44.000000 7 362.018009
0.737634 -1.614848 0.611445 48.000000 5 362.018012
0.718424 -1.572792 0.419754 46.000000 3 362.018014
0.699019 -1.531018 0.243750 34.000000 1 362.018017
0.869907 -1.909701 1.949535 32.000000 14 362.018025
0.828806 -1.819478 1.539362 37.000000 12 362.018027
0.797516 -1.751597 1.216135 39.000000 10 362.018030
0.775293 -1.702794 0.952373 47.000000 8 362.018032
0.747473 -1.642453 0.716848 50.000000 6 362.018035
0.724592 -1.592913 0.512787 58.000000 4 362.018037
0.711198 -1.564190 0.331567 39.000000 2 362.018040
0.688213 -1.514340 0.160775 36.000000 0 362.018042
0.010119 -0.038839 3.044158 11.000000 31 362.018053
0.217040 -0.513052 3.541872 13.000000 28 362.018056
0.433148 -1.027871 5.386011 97.000000 27 362.018058
0.656180 -1.474931 5.204786 96.000000 25 362.018061
0.863099 -1.911502 5.000561 97.000000 23 362.018063
0.722110 -1.598514 3.280438 29.000000 21 362.018066
0.863335 -1.911155 3.152652 39.000000 19 362.018068
0.948402 -2.099475 2.833849 17.000000 17 362.018071
0.066908 -0.181404 3.174092 17.000000 30 362.018079
0.134319 -0.339351 3.355515 15.000000 29 362.018081
0.546241 -1.251614 5.291576 99.000000 26 362.018084
0.761555 -1.694479 5.106144 96.000000 24 362.018086
0.964671 -2.144443 4.923665 99.000000 22 362.018089
0.789543 -1.754323 3.216934 43.000000 20 362.018092
0.934987 -2.077506 3.090383 38.000000 18 362.018094
0.906238 -2.013631 2.472101 22.000000 16 362.018097
0.884932 -1.952614 2.186484 25.000000 15 362.018054
0.843290 -1.860737 1.729052 34.000000 13 362.018057
0.806656 -1.780728 1.366310 37.000000 11 362.018060
0.781163 -1.724459 1.077113 39.000000 9 362.018062
0.751825 -1.660462 0.824753 44.000000 7 362.018065
0.730015 -1.613043 0.610036 48.000000 5 362.018067
0.708879 -1.566340 0.417889 48.000000 3 362.018070
0.691618 -1.528912 0.243304 33.000000 1 362.018072
0.860163 -1.905918 1.942886 32.000000 14 362.018080
0.817462 -1.811307 1.530532 37.000000 12 362.018083
0.787852 -1.746511 1.211070 39.000000 10 362.018085
0.767478 -1.701353 0.950275 49.000000 8 362.018088
0.737853 -1.636442 0.713562 51.000000 6 362.018090
0.717031 -1.591001 0.511615 58.000000 4 362.018093
0.703699 -1.562148 0.330877 39.000000 2 362.018095
0.680872 -1.512178 0.160574 36.000000 0 362.018098
0.009977 -0.038831 3.039158 11.000000 31 362.018109
0.214948 -0.513089 3.536933 13.000000 28 362.018111
0.429950 -1.030316 5.390906 98.000000 27 362.018114
0.651028 -1.477213 5.204786 96.000000 25 362.018116
0.856421 -1.914503 5.000561 97.000000 23 362.018119
0.718483 -1.605399 3.289215 25.000000 21 362.018121
0.856659 -1.914157 3.152652 39.000000 19 362.018124
0.937139 -2.093994 2.822338 17.000000 17 362.018127
0.066274 -0.181637 3.174092 17.000000 30 362.018134
0.132939 -0.339320 3.350544 16.000000 29 362.018137
0.541869 -1.253513 5.291576 99.000000 26 362.018139
0.755635 -1.697127 5.106144 96.000000 24 362.018142
0.958066 -2.149787 4.928166 99.000000 22 362.018145
0.783414 -1.757069 3.216934 42.000000 20 362.018147
0.928957 -2.083509 3.094373 38.000000 18 362.018150
0.895062 -2.007493 2.461076 22.000000 16 362.018152
0.873728 -1.945931 2.175971 26.000000 15 362.018110
0.832006 -1.853015 1.719639 34.000000 13 362.018112
0.797011 -1.775904 1.360827 36.000000 11 362.018115
0.771511 -1.719091 1.072477 39.000000 9 362.018118
0.744127 -1.658847 0.822880 44.000000 7 362.018120
0.722417 -1.611204 0.608626 48.000000 5 362.018123
0.701397 -1.564322 0.416957 46.000000 3 362.018125
0.682204 -1.522228 0.242412 34.000000 1 362.018128
0.848932 -1.898682 1.932911 33.000000 14 362.018136
0.807834 -1.806770 1.524646 37.000000 12 362.018138
0.778232 -1.741378 1.206005 39.000000 10 362.018141
0.757831 -1.695734 0.946079 49.000000 8 362.018143
0.730210 -1.634695 0.711920 51.000000 6 362.018146
0.707509 -1.584618 0.509270 58.000000 4 362.018148
0.694206 -1.555551 0.329497 39.000000 2 362.018151
0.673554 -1.509983 0.160372 35.000000 0 362.018154
0.009841 -0.038865 3.039158 11.000000 31 362.018164
0.213156 -0.513836 3.536933 13.000000 28 362.018167
0.426350 -1.031811 5.390906 98.000000 27 362.018169
0.645867 -1.479476 5.204786 96.000000 25 362.018172
0.850525 -1.919267 5.005164 98.000000 23 362.018174
0.716759 -1.616658 3.306770 18.000000 21 362.018177
0.851113 -1.919709 3.156785 39.000000 19 362.018180
0.924626 -2.085529 2.806990 17.000000 17 362.018182
0.065543 -0.181594 3.169101 17.000000 30 362.018190
0.131754 -0.339782 3.350544 15.000000 29 362.018192
0.537490 -1.255397 5.291576 99.000000 26 362.018195
0.750403 -1.701334 5.110837 96.000000 24 362.018198
0.950556 -2.153118 4.928166 99.000000 22 362.018200
0.777276 -1.759793 3.216934 42.000000 20 362.018203
0.921678 -2.086739 3.094373 34.000000 18 362.018205
0.882570 -1.998201 2.446375 23.000000 16 362.018208
0.864031 -1.942452 2.168962 26.000000 15 362.018165
0.822369 -1.848795 1.713363 34.000000 13 362.018168
0.787410 -1.771033 1.355344 36.000000 11 362.018171
0.761906 -1.713677 1.067841 39.000000 9 362.018173
0.734566 -1.652961 0.819134 44.000000 7 362.018176
0.712894 -1.604947 0.605808 50.000000 5 362.018178
0.693938 -1.562272 0.416024 46.000000 3 362.018181
0.674865 -1.520048 0.241965 33.000000 1 362.018183
0.839275 -1.894805 1.926261 33.000000 14 362.018191
0.798249 -1.802187 1.518760 37.000000 12 362.018194
0.768659 -1.736200 1.200940 39.000000 10 362.018196
0.748233 -1.690069 0.941883 47.000000 8 362.018199
0.720678 -1.628597 0.708634 51.000000 6 362.018201
0.700008 -1.582632 0.508098 60.000000 4 362.018204
0.686769 -1.553435 0.328807 39.000000 2 362.018206
0.666260 -1.507755 0.160171 35.000000 0 362.018209
0.009705 -0.038900 3.039158 11.000000 31 362.018220
0.211066 -0.513858 3.531994 14.000000 28 362.018222
0.422746 -1.033293 5.390906 98.000000 27 362.018225
0.640699 -1.481722 5.204786 96.000000 25 362.018227
0.843820 -1.922225 5.005164 98.000000 23 362.018230
0.844406 -1.922668 3.156785 39.000000 19 362.018235
0.913473 -2.079938 2.795479 17.000000 17 362.018238
0.064909 -0.181822 3.169101 17.000000 30 362.018245
0.130377 -0.339741 3.345573 15.000000 29 362.018248
0.533105 -1.257266 5.291576 99.000000 26 362.018250
0.744460 -1.703943 5.110837 97.000000 24 362.018253
0.943907 -2.158418 4.932667 99.000000 22 362.018256
0.771128 -1.762495 3.216934 42.000000 20 362.018258
0.915597 -2.092705 3.098362 28.000000 18 362.018261
0.871513 -1.991952 2.435350 23.000000 16 362.018263
0.852932 -1.935665 2.158448 27.000000 15 362.018221
0.811201 -1.840967 1.703950 34.000000 13 362.018224
0.777852 -1.766118 1.349862 36.000000 11 362.018226
0.752348 -1.708218 1.063205 40.000000 9 362.018229
0.725056 -1.647029 0.815388 44.000000 7 362.018231
0.705355 -1.603035 0.604399 48.000000 5 362.018234
0.684524 -1.555692 0.414159 48.000000 3 362.018236
0.665546 -1.513277 0.241073 31.000000 1 362.018239
0.828154 -1.887464 1.916287 33.000000 14 362.018247
0.788705 -1.797560 1.512873 37.000000 12 362.018249
0.760862 -1.734924 1.198408 39.000000 10 362.018252
0.738683 -1.684358 0.937687 47.000000 8 362.018254
0.713093 -1.626778 0.706991 53.000000 6 362.018257
0.692528 -1.580614 0.506926 60.000000 4 362.018259
0.677369 -1.546750 0.327428 39.000000 2 362.018262
0.658989 -1.505495 0.159969 35.000000 0 362.018265
0.009569 -0.038933 3.039158 10.000000 31 362.018275
0.209271 -0.514592 3.531994 14.000000 28 362.018278
0.419137 -1.034762 5.390906 98.000000 27 362.018280
0.635523 -1.483949 5.204786 96.000000 25 362.018283
0.837105 -1.925158 5.005164 98.000000 23 362.018285
1.027522 -2.361973 4.785749 35.000000 21 362.018288
0.837690 -1.925604 3.156785 39.000000 19 362.018291
0.902371 -2.074294 2.783968 17.000000 17 362.018293
0.064274 -0.182047 3.169101 17.000000 30 362.018301
0.129190 -0.340194 3.345573 15.000000 29 362.018303
0.528713 -1.259119 5.291576 98.000000 26 362.018306
0.738507 -1.706531 5.110837 96.000000 24 362.018309
0.936367 -2.161700 4.932667 99.000000 22 362.018311
0.766008 -1.767569 3.221200 42.000000 20 362.018314
0.908286 -2.095888 3.098362 17.000000 18 362.018316
0.860510 -1.985650 2.424324 24.000000 16 362.018319
0.843316 -1.932094 2.151439 27.000000 15 362.018276
0.801655 -1.836651 1.697674 34.000000 13 362.018279
0.768338 -1.761157 1.344379 36.000000 11 362.018282
0.742838 -1.702712 1.058569 40.000000 9 362.018284
0.715597 -1.641051 0.811642 44.000000 7 362.018287
0.695922 -1.596692 0.601580 48.000000 5 362.018289
0.677126 -1.553569 0.413226 46.000000 3 362.018292
0.656281 -1.506460 0.240181 31.000000 1 362.018294
0.818584 -1.883493 1.909637 33.000000 14 362.018302
0.777592 -1.789181 1.504044 37.000000 12 362.018305
0.751366 -1.729661 1.193343 39.000000 10 362.018307
0.730991 -1.682763 0.935589 45.000000 8 362.018310
0.703648 -1.620594 0.703706 53.000000 6 362.018312
0.683137 -1.574104 0.504581 60.000000 4 362.018315
0.669995 -1.544562 0.326738 38.000000 2 362.018318
0.651743 -1.503202 0.159768 35.000000 0 362.018320
0.009440 -0.039010 3.044158 10.000000 31 362.018331
0.207184 -0.514598 3.527054 14.000000 28 362.018333
0.415522 -1.036219 5.390906 98.000000 27 362.018336
0.630339 -1.486158 5.204786 97.000000 25 362.018338
0.830380 -1.928069 5.005164 98.000000 23 362.018341
1.024011 -2.376547 4.807692 39.000000 21 362.018344
0.830963 -1.928516 3.156785 39.000000 19 362.018346
0.891319 -2.068599 2.772458 17.000000 17 362.018349
0.063638 -0.182270 3.169101 17.000000 30 362.018356
0.127815 -0.340143 3.340601 15.000000 29 362.018359
0.524315 -1.260957 5.291576 98.000000 26 362.018362
0.733226 -1.710685 5.115530 96.000000 24 362.018364
0.928815 -2.164955 4.932667 99.000000 22 362.018367
0.759834 -1.770232 3.221200 42.000000 20 362.018369
0.900965 -2.099046 3.098362 14.000000 18 362.018372
0.849563 -1.979295 2.413299 24.000000 16 362.018374
0.832322 -1.925205 2.140925 27.000000 15 362.018332
0.792150 -1.832292 1.691399 34.000000 13 362.018335
0.758869 -1.756151 1.338896 36.000000 11 362.018337
0.733375 -1.697162 1.053933 39.000000 9 362.018340
0.708026 -1.639283 0.809769 42.000000 7 362.018342
0.688442 -1.594707 0.600171 48.000000 5 362.018345
0.669752 -1.551413 0.412293 48.000000 3 362.018347
0.649046 -1.504169 0.239734 33.000000 1 362.018350
0.809051 -1.879479 1.902988 33.000000 14 362.018358
0.768146 -1.784459 1.498158 37.000000 12 362.018360
0.741916 -1.724352 1.188278 39.000000 10 362.018363
0.721525 -1.676967 0.931393 47.000000 8 362.018365
0.696121 -1.618701 0.702063 53.000000 6 362.018368
0.675718 -1.572014 0.503409 59.000000 4 362.018370
0.660690 -1.537791 0.325358 38.000000 2 362.018373
0.642549 -1.496287 0.159364 35.000000 0 362.018376
0.009303 -0.039042 3.044158 11.000000 31 362.018386
0.205386 -0.515318 3.527054 12.000000 28 362.018389
0.411903 -1.037663 5.390906 98.000000 27 362.018391
0.625148 -1.488350 5.204786 97.000000 25 362.018394
0.824411 -1.932752 5.009766 98.000000 23 362.018396
1.017590 -2.384514 4.816470 47.000000 21 362.018399
0.824226 -1.931405 3.156785 39.000000 19 362.018401
0.879059 -2.059903 2.757110 17.000000 17 362.018404
0.062940 -0.182206 3.164109 18.000000 30 362.018412
0.126687 -0.340565 3.340601 15.000000 29 362.018414
0.520609 -1.263852 5.296416 99.000000 26 362.018417
0.727549 -1.713107 5.115530 97.000000 24 362.018419
0.922104 -2.170189 4.937168 99.000000 22 362.018422
0.753650 -1.772874 3.221200 42.000000 20 362.018424
0.892453 -2.099404 3.094373 14.000000 18 362.018427
0.839014 -1.972743 2.402273 24.000000 16 362.018430
0.821385 -1.918264 2.130411 27.000000 15 362.018387
0.782685 -1.827889 1.685123 35.000000 13 362.018390
0.749444 -1.751101 1.333413 37.000000 11 362.018392
0.725704 -1.695638 1.051615 40.000000 9 362.018395
0.698938 -1.633098 0.806022 44.000000 7 362.018398
0.679377 -1.588160 0.597353 48.000000 5 362.018400
0.662402 -1.549225 0.411361 48.000000 3 362.018403
0.639877 -1.497267 0.238842 33.000000 1 362.018405
0.799557 -1.875422 1.896338 34.000000 14 362.018413
0.758742 -1.779693 1.492271 38.000000 12 362.018416
0.731121 -1.714906 1.180681 39.000000 10 362.018418
0.712400 -1.671000 0.927197 47.000000 8 362.018421
0.687047 -1.612312 0.698778 55.000000 6 362.018423
0.666692 -1.565302 0.501064 59.000000 4 362.018426
0.653647 -1.535417 0.324668 38.000000 2 362.018428
0.635628 -1.493812 0.159163 35.000000 0 362.018431
0.009174 -0.039073 3.044158 11.000000 31 362.018442
0.203676 -0.515997 3.527054 12.000000 28 362.018444
0.408459 -1.039023 5.390906 97.000000 27 362.018447
0.620209 -1.490415 5.204786 96.000000 25 362.018449
0.817997 -1.935475 5.009766 97.000000 23 362.018452
1.009677 -2.387875 4.816470 47.000000 21 362.018454
0.817817 -1.934127 3.156785 39.000000 19 362.018457
0.868478 -2.053949 2.745599 18.000000 17 362.018459
0.062304 -0.182425 3.164109 18.000000 30 362.018467
0.125314 -0.340504 3.335630 15.000000 29 362.018470
0.516194 -1.265661 5.296416 99.000000 26 362.018472
0.721564 -1.715636 5.115530 97.000000 24 362.018475
0.914523 -2.173394 4.937168 98.000000 22 362.018477
0.748469 -1.777897 3.225466 40.000000 20 362.018480
0.885119 -2.102507 3.094373 14.000000 18 362.018483
0.827832 -1.966431 2.391248 24.000000 16 362.018485
0.812234 -1.914412 2.123402 29.000000 15 362.018443
0.773578 -1.823307 1.678848 34.000000 13 362.018445
0.740368 -1.745878 1.327930 37.000000 11 362.018448
0.716618 -1.689878 1.046979 40.000000 9 362.018450
0.691424 -1.631260 0.804149 44.000000 7 362.018453
0.671958 -1.586104 0.595944 48.000000 5 362.018456
0.655074 -1.547004 0.410428 48.000000 3 362.018458
0.632706 -1.494905 0.238396 32.000000 1 362.018461
0.788648 -1.867880 1.886363 35.000000 14 362.018468
0.749381 -1.774883 1.486385 37.000000 12 362.018471
0.721478 -1.709630 1.175616 39.000000 10 362.018474
0.702742 -1.665237 0.923001 47.000000 8 362.018476
0.679298 -1.610468 0.697135 55.000000 6 362.018479
0.659062 -1.563256 0.499892 59.000000 4 362.018481
0.644169 -1.528676 0.323289 37.000000 2 362.018484
0.628469 -1.491418 0.158961 35.000000 0 362.018486
0.009031 -0.039106 3.044158 11.000000 31 362.018497
0.201502 -0.516016 3.522115 14.000000 28 362.018500
0.404280 -1.039564 5.386011 94.000000 27 362.018502
0.614742 -1.492678 5.204786 96.000000 25 362.018505
0.810898 -1.938460 5.009766 97.000000 23 362.018507
1.000918 -2.391560 4.816470 49.000000 21 362.018510
0.811809 -1.939708 3.160918 39.000000 19 362.018512
0.857231 -2.048246 2.734088 17.000000 17 362.018515
0.061635 -0.182652 3.164109 18.000000 30 362.018523
0.124065 -0.340961 3.335630 15.000000 29 362.018525
0.511552 -1.267545 5.296416 99.000000 26 362.018528
0.715271 -1.718269 5.115530 96.000000 24 362.018530
0.906931 -2.176573 4.937168 98.000000 22 362.018533
0.742258 -1.780499 3.225466 42.000000 20 362.018536
0.877775 -2.105584 3.094373 17.000000 18 362.018538
0.817049 -1.959921 2.380222 24.000000 16 362.018541
0.801069 -1.907511 2.112889 29.000000 15 362.018498
0.763875 -1.818951 1.672572 35.000000 13 362.018501
0.732345 -1.744724 1.325188 37.000000 11 362.018503
0.706990 -1.684323 1.042343 40.000000 9 362.018506
0.683647 -1.629508 0.802276 45.000000 7 362.018509
0.662429 -1.579708 0.593125 47.000000 5 362.018511
0.647771 -1.544751 0.409496 48.000000 3 362.018514
0.625559 -1.492512 0.237950 33.000000 1 362.018516
0.779242 -1.863731 1.879714 35.000000 14 362.018524
0.740062 -1.770030 1.480499 37.000000 12 362.018527
0.712182 -1.704182 1.170551 39.000000 10 362.018529
0.695175 -1.663492 0.920903 45.000000 8 362.018532
0.671852 -1.608472 0.695493 53.000000 6 362.018534
0.651729 -1.561062 0.498720 59.000000 4 362.018537
0.636922 -1.526345 0.322599 37.000000 2 362.018539
0.621076 -1.489100 0.158760 36.000000 0 362.018542
0.008899 -0.039181 3.049157 11.000000 31 362.018553
0.199420 -0.515991 3.517176 14.000000 28 362.018555
0.401014 -1.041919 5.390906 94.000000 27 362.018558
0.609528 -1.494815 5.204786 96.000000 25 362.018560
0.804126 -1.941279 5.009766 97.000000 23 362.018563
0.993481 -2.397252 4.820858 47.000000 21 362.018565
0.805033 -1.942530 3.160918 39.000000 19 362.018568
0.845167 -2.039379 2.718740 18.000000 17 362.018570
0.061087 -0.183141 3.169101 18.000000 30 362.018578
0.122874 -0.341392 3.335630 15.000000 29 362.018581
0.507124 -1.269323 5.296416 99.000000 26 362.018583
0.709269 -1.720755 5.115530 96.000000 24 362.018586
0.899328 -2.179726 4.937168 98.000000 22 362.018588
0.736039 -1.783079 3.225466 40.000000 20 362.018591
0.870420 -2.108635 3.094373 21.000000 18 362.018594
0.806322 -1.953360 2.369197 25.000000 16 362.018596
0.790298 -1.900417 2.102375 28.000000 15 362.018554
0.754532 -1.814418 1.666296 35.000000 13 362.018556
0.723041 -1.739547 1.319705 37.000000 11 362.018559
0.697705 -1.678599 1.037707 40.000000 9 362.018562
0.674397 -1.623322 0.798530 45.000000 7 362.018564
0.655071 -1.577580 0.591716 49.000000 5 362.018567
0.640491 -1.542466 0.408563 48.000000 3 362.018569
0.620345 -1.494686 0.237950 33.000000 1 362.018572
0.768446 -1.856089 1.869739 34.000000 14 362.018580
0.730787 -1.765133 1.474612 37.000000 12 362.018582
0.702932 -1.698691 1.165486 39.000000 10 362.018585
0.685893 -1.657522 0.916707 45.000000 8 362.018587
0.662623 -1.602080 0.692207 55.000000 6 362.018590
0.642562 -1.554343 0.496375 59.000000 4 362.018592
0.629699 -1.523982 0.321909 37.000000 2 362.018595
0.613967 -1.486642 0.158558 35.000000 0 362.018597
0.008763 -0.039212 3.049157 11.000000 31 362.018608
0.197340 -0.515958 3.512237 14.000000 28 362.018611
0.397374 -1.043313 5.390906 97.000000 27 362.018613
0.604306 -1.496933 5.204786 96.000000 25 362.018616
0.798087 -1.945882 5.014369 97.000000 23 362.018618
0.985107 -2.400705 4.820858 47.000000 21 362.018621
0.798248 -1.945328 3.160918 38.000000 19 362.018623
0.834392 -2.033419 2.707230 17.000000 17 362.018626
0.060447 -0.183353 3.169101 18.000000 30 362.018634
0.121681 -0.341818 3.335630 15.000000 29 362.018636
0.502690 -1.271085 5.296416 99.000000 26 362.018639
0.703258 -1.723221 5.115530 96.000000 24 362.018641
0.891714 -2.182852 4.937168 98.000000 22 362.018644
0.730797 -1.788052 3.229732 42.000000 20 362.018647
0.856212 -2.094921 3.070436 21.000000 18 362.018649
0.795651 -1.946748 2.358171 25.000000 16 362.018652
0.780943 -1.896569 2.095366 29.000000 15 362.018609
0.745229 -1.809842 1.660021 36.000000 13 362.018612
0.713782 -1.734327 1.314222 37.000000 11 362.018614
0.690156 -1.676928 1.035389 40.000000 9 362.018617
0.666963 -1.621379 0.796657 45.000000 7 362.018620
0.647736 -1.575420 0.590307 49.000000 5 362.018622
0.633235 -1.540149 0.407630 48.000000 3 362.018625
0.613231 -1.492236 0.237503 32.000000 1 362.018627
0.759129 -1.851849 1.863089 34.000000 14 362.018635
0.721555 -1.760193 1.468726 38.000000 12 362.018638
0.695363 -1.697144 1.162954 39.000000 10 362.018640
0.676661 -1.651506 0.912510 47.000000 8 362.018643
0.655237 -1.600013 0.690565 55.000000 6 362.018645
0.635291 -1.552078 0.495203 58.000000 4 362.018648
0.622501 -1.521587 0.321219 37.000000 2 362.018650
0.606883 -1.484152 0.158357 35.000000 0 362.018653
0.008626 -0.039242 3.049157 11.000000 31 362.018664
0.195263 -0.515917 3.507297 14.000000 28 362.018666
0.393730 -1.044693 5.390906 97.000000 27 362.018669
0.599077 -1.499033 5.204786 95.000000 25 362.018671
0.791289 -1.948656 5.014369 97.000000 23 362.018674
0.976721 -2.404129 4.820858 49.000000 21 362.018676
0.791452 -1.948102 3.160918 38.000000 19 362.018679
0.823669 -2.027409 2.695719 17.000000 17 362.018682
0.059807 -0.183563 3.169101 17.000000 30 362.018689
0.120488 -0.342241 3.335630 16.000000 29 362.018692
0.498250 -1.272832 5.296416 99.000000 26 362.018694
0.697239 -1.725665 5.115530 96.000000 24 362.018697
0.884089 -2.185951 4.937168 98.000000 22 362.018700
0.724551 -1.790592 3.229732 42.000000 20 362.018702
0.844372 -2.086721 3.054478 17.000000 18 362.018705
0.785036 -1.940086 2.347146 25.000000 16 362.018707
0.770279 -1.889377 2.084852 29.000000 15 362.018665
0.735968 -1.805222 1.653745 36.000000 13 362.018667
0.704567 -1.729064 1.308739 37.000000 11 362.018670
0.680954 -1.671121 1.030753 40.000000 9 362.018673
0.659551 -1.619404 0.794784 47.000000 7 362.018675
0.638616 -1.568785 0.587488 47.000000 5 362.018678
0.626003 -1.537801 0.406698 48.000000 3 362.018680
0.606141 -1.489755 0.237057 32.000000 1 362.018683
0.748448 -1.844107 1.853115 34.000000 14 362.018691
0.712366 -1.755211 1.462840 37.000000 12 362.018693
0.686194 -1.691571 1.157889 39.000000 10 362.018696
0.669187 -1.649653 0.910412 47.000000 8 362.018698
0.646099 -1.593537 0.687279 53.000000 6 362.018701
0.628044 -1.549782 0.494030 58.000000 4 362.018703
0.615326 -1.519161 0.320530 37.000000 2 362.018706
0.599824 -1.481630 0.158155 35.000000 0 362.018708
0.008489 -0.039272 3.049157 11.000000 31 362.018719
0.193189 -0.515867 3.502358 14.000000 28 362.018722
0.390081 -1.046062 5.390906 97.000000 27 362.018724
0.593841 -1.501115 5.204786 96.000000 25 362.018727
0.785211 -1.953219 5.018971 95.000000 23 362.018729
0.969217 -2.409747 4.825247 51.000000 21 362.018732
0.785697 -1.953464 3.165051 38.000000 19 362.018734
0.811801 -2.018374 2.680371 17.000000 17 362.018737
0.059166 -0.183771 3.169101 17.000000 30 362.018745
0.119292 -0.342660 3.335630 16.000000 29 362.018747
0.494259 -1.275737 5.301255 99.000000 26 362.018750
0.691211 -1.728088 5.115530 96.000000 24 362.018752
0.876453 -2.189024 4.937168 98.000000 22 362.018755
0.718296 -1.793110 3.229732 42.000000 20 362.018758
0.832600 -2.078465 3.038520 16.000000 18 362.018760
0.774477 -1.933373 2.336120 25.000000 16 362.018763
0.761010 -1.885440 2.077843 29.000000 15 362.018720
0.726748 -1.800560 1.647470 36.000000 13 362.018723
0.695399 -1.723757 1.303257 37.000000 11 362.018726
0.671802 -1.665271 1.026117 40.000000 9 362.018728
0.650427 -1.613097 0.791038 47.000000 7 362.018731
0.631343 -1.566555 0.586079 47.000000 5 362.018733
0.616959 -1.530864 0.404833 48.000000 3 362.018736
0.599077 -1.487242 0.236611 33.000000 1 362.018738
0.737829 -1.836313 1.843140 34.000000 14 362.018746
0.703221 -1.750186 1.456953 37.000000 12 362.018749
0.678678 -1.689956 1.155357 39.000000 10 362.018751
0.660041 -1.643555 0.906216 47.000000 8 362.018754
0.638774 -1.591400 0.685637 53.000000 6 362.018756
0.619011 -1.542942 0.491686 58.000000 4 362.018759
0.608177 -1.516703 0.319840 37.000000 2 362.018761
0.592790 -1.479078 0.157954 35.000000 0 362.018764
0.008352 -0.039301 3.049157 11.000000 31 362.018775
0.191388 -0.516539 3.502358 14.000000 28 362.018777
0.386427 -1.047417 5.390906 97.000000 27 362.018780
0.589142 -1.504570 5.209557 97.000000 25 362.018782
0.778388 -1.955948 5.018971 95.000000 23 362.018785
0.960800 -2.413115 4.825247 62.000000 21 362.018787
0.778874 -1.956195 3.165051 38.000000 19 362.018790
0.801193 -2.012260 2.668860 17.000000 17 362.018793
0.058524 -0.183976 3.169101 18.000000 30 362.018800
0.118095 -0.343074 3.335630 16.000000 29 362.018803
0.489802 -1.277454 5.301255 99.000000 26 362.018805
0.685175 -1.730491 5.115530 96.000000 24 362.018808
0.868806 -2.192070 4.937168 98.000000 22 362.018811
0.712033 -1.795606 3.229732 42.000000 20 362.018813
0.822007 -2.072953 3.026551 16.000000 18 362.018816
0.762725 -1.923459 2.321420 26.000000 16 362.018818
0.750454 -1.878150 2.067329 29.000000 15 362.018776
0.717570 -1.795856 1.641194 36.000000 13 362.018778
0.686276 -1.718407 1.297774 37.000000 11 362.018781
0.664342 -1.663491 1.023799 40.000000 9 362.018784
0.643073 -1.611052 0.789165 47.000000 7 362.018786
0.624093 -1.564294 0.584670 48.000000 5 362.018789
0.609791 -1.528446 0.403900 49.000000 3 362.018791
0.590192 -1.480072 0.235719 33.000000 1 362.018794
0.728654 -1.831937 1.836491 34.000000 14 362.018802
0.694120 -1.745118 1.451067 37.000000 12 362.018804
0.669590 -1.684302 1.150292 39.000000 10 362.018807
0.652624 -1.641632 0.904118 49.000000 8 362.018809
0.631471 -1.589232 0.683994 55.000000 6 362.018812
0.611827 -1.540576 0.490513 56.000000 4 362.018814
0.601052 -1.514214 0.319150 37.000000 2 362.018817
0.585781 -1.476494 0.157752 34.000000 0 362.018820
0.008214 -0.039330 3.049157 11.000000 31 362.018830
0.189316 -0.516474 3.497419 14.000000 28 362.018833
0.382769 -1.048759 5.390906 97.000000 27 362.018835
0.583886 -1.506617 5.209557 97.000000 25 362.018838
0.771556 -1.958653 5.018971 97.000000 23 362.018840
0.953249 -2.418683 4.829636 80.000000 21 362.018843
0.772041 -1.958902 3.165051 39.000000 19 362.018846
0.789462 -2.003114 2.653512 19.000000 17 362.018848
0.057913 -0.184169 3.169101 18.000000 30 362.018856
0.116957 -0.343464 3.335630 16.000000 29 362.018858
0.485563 -1.279071 5.301255 100.000000 26 362.018861
0.679432 -1.732753 5.115530 96.000000 24 362.018864
0.861945 -2.197116 4.941669 98.000000 22 362.018866
0.705760 -1.798081 3.229732 40.000000 20 362.018869
0.811462 -2.067393 3.014583 16.000000 18 362.018871
0.752625 -1.916511 2.310394 26.000000 16 362.018874
0.741270 -1.874125 2.060320 30.000000 15 362.018831
0.708433 -1.791110 1.634919 36.000000 13 362.018834
0.678736 -1.716904 1.295032 37.000000 11 362.018837
0.655274 -1.657561 1.019163 40.000000 9 362.018839
0.636023 -1.608864 0.787292 48.000000 7 362.018842
0.617139 -1.561893 0.583261 48.000000 5 362.018844
0.600843 -1.521428 0.402035 45.000000 3 362.018847
0.583194 -1.477491 0.235272 32.000000 1 362.018849
0.718151 -1.824045 1.826516 34.000000 14 362.018857
0.685062 -1.740008 1.445181 38.000000 12 362.018860
0.662421 -1.682501 1.147759 39.000000 10 362.018862
0.643851 -1.635341 0.899922 47.000000 8 362.018865
0.622739 -1.582528 0.680709 53.000000 6 362.018867
0.604936 -1.538073 0.489341 58.000000 4 362.018870
0.594215 -1.511590 0.318460 37.000000 2 362.018872
0.577227 -1.469128 0.157349 34.000000 0 362.018875
0.008084 -0.039357 3.049157 11.000000 31 362.018886
0.187603 -0.517099 3.497419 14.000000 28 362.018888
0.379289 -1.050023 5.390906 97.000000 27 362.018891
0.578887 -1.508545 5.209557 96.000000 25 362.018893
0.764347 -1.959381 5.014369 97.000000 23 362.018896
0.945223 -2.421831 4.829636 80.000000 21 362.018898
0.765540 -1.961451 3.165051 39.000000 19 362.018901
0.779319 -1.996761 2.642001 19.000000 17 362.018904
0.057270 -0.184370 3.169101 18.000000 30 362.018911
0.115757 -0.343870 3.335630 16.000000 29 362.018914
0.481096 -1.280759 5.301255 100.000000 26 362.018916
0.674004 -1.736723 5.120223 96.000000 24 362.018919
0.854654 -2.199962 4.941669 99.000000 22 362.018922
0.699794 -1.800412 3.229732 40.000000 20 362.018924
0.801327 -2.061645 3.002614 17.000000 18 362.018927
0.742246 -1.909647 2.299369 26.000000 16 362.018929
0.731149 -1.866611 2.049807 30.000000 15 362.018887
0.699650 -1.786200 1.628643 36.000000 13 362.018890
0.669990 -1.711358 1.289549 38.000000 11 362.018892
0.646543 -1.651474 1.014527 40.000000 9 362.018895
0.627025 -1.602440 0.783546 48.000000 7 362.018897
0.608189 -1.555102 0.580442 40.000000 5 362.018900
0.594006 -1.518837 0.401102 47.000000 3 362.018902
0.576478 -1.474779 0.234826 33.000000 1 362.018905
0.709385 -1.819458 1.819866 35.000000 14 362.018913
0.676352 -1.734738 1.439294 38.000000 12 362.018915
0.653413 -1.676769 1.142694 39.000000 10 362.018918
0.636491 -1.633350 0.897824 47.000000 8 362.018920
0.615497 -1.580292 0.679066 55.000000 6 362.018923
0.597800 -1.535646 0.488169 56.000000 4 362.018925
0.587139 -1.509040 0.317770 37.000000 2 362.018928
0.570285 -1.466478 0.157148 35.000000 0 362.018931
0.007946 -0.039385 3.049157 11.000000 31 362.018941
0.185797 -0.517751 3.497419 14.000000 28 362.018944
0.375621 -1.051340 5.390906 97.000000 27 362.018946
0.573618 -1.510557 5.209557 96.000000 25 362.018949
0.757502 -1.962037 5.014369 97.000000 23 362.018951
0.936764 -2.425116 4.829636 81.000000 21 362.018954
0.759703 -1.966736 3.169184 38.000000 19 362.018957
0.767723 -1.987507 2.626654 19.000000 17 362.018959
0.056543 -0.184292 3.164109 18.000000 30 362.018967
0.114556 -0.344272 3.335630 16.000000 29 362.018969
0.476622 -1.282430 5.301255 99.000000 26 362.018972
0.667938 -1.739065 5.120223 96.000000 24 362.018975
0.846969 -2.202932 4.941669 98.000000 22 362.018977
0.694441 -1.805277 3.233997 42.000000 20 362.018980
