# .PCD v.7 - Point Cloud Data file format
VERSION .7
FIELDS x y z intensity ring timestamp
SIZE 4 4 4 4 2 8
TYPE F F F F U D
COUNT 1 1 1 1 1 1
WIDTH 942
HEIGHT 1
VIEWPOINT 0 0 0 1 0 0 0
POINTS 942
DATA ascii
0.901921 1.119373 1.361037 73.000000 14 363.485516
0.917138 1.138255 1.147921 76.000000 12 363.485519
1.654211 2.052292 1.633985 19.000000 10 363.485521
1.125726 1.396627 0.916707 29.000000 8 363.485524
1.135657 1.408445 0.718490 30.000000 6 363.485526
1.162763 1.441547 0.537406 27.000000 4 363.485529
1.200298 1.487549 0.358469 18.000000 2 363.485532
1.201668 1.488716 0.170852 12.000000 0 363.485534
0.081436 0.063246 10.273881 95.000000 31 363.485545
0.468592 0.550029 4.593934 99.000000 28 363.485547
0.619203 0.725103 4.607670 93.000000 27 363.485550
0.905493 1.103709 4.608320 10.000000 25 363.485552
0.801899 0.988530 3.058296 11.000000 23 363.485555
0.990115 1.220971 2.946900 19.000000 21 363.485558
1.393551 1.718458 3.322103 12.000000 19 363.485560
1.533828 1.891435 2.991163 13.000000 17 363.485563
0.380800 0.403769 9.408610 6.000000 30 363.485570
0.333569 0.373250 4.618254 98.000000 29 363.485573
0.760964 0.914279 4.614088 10.000000 26 363.485576
0.782832 0.961596 3.426134 10.000000 24 363.485578
0.883352 1.085831 2.956800 18.000000 22 363.485581
1.243428 1.528968 3.293721 15.000000 20 363.485583
1.509682 1.856355 3.241984 13.000000 18 363.485586
1.555791 1.913048 2.751414 15.000000 16 363.485588
1.574777 1.946783 2.540443 16.000000 15 363.485546
0.939603 1.161564 1.286625 29.000000 13 363.485549
1.647954 2.036515 1.802203 17.000000 11 363.485551
1.107270 1.368346 1.007573 28.000000 9 363.485554
1.120586 1.384306 0.807896 29.000000 7 363.485556
1.153486 1.424440 0.628355 23.000000 5 363.485559
1.177810 1.454478 0.446800 24.000000 3 363.485561
1.194195 1.474186 0.262937 14.000000 1 363.485564
0.905823 1.116218 1.361037 73.000000 14 363.485572
0.921105 1.135046 1.147921 76.000000 12 363.485574
1.661364 2.046505 1.633985 19.000000 10 363.485577
1.130594 1.392689 0.916707 29.000000 8 363.485579
1.140566 1.404472 0.718490 30.000000 6 363.485582
1.167788 1.437479 0.537406 27.000000 4 363.485584
1.208606 1.487193 0.359159 18.000000 2 363.485587
1.206857 1.484512 0.170852 12.000000 0 363.485590
0.081657 0.062962 10.273881 97.000000 31 363.485600
0.470509 0.548390 4.593934 99.000000 28 363.485603
0.621066 0.722165 4.602775 93.000000 27 363.485605
0.908389 1.099390 4.603549 10.000000 25 363.485608
0.806581 0.987238 3.062898 13.000000 23 363.485610
0.992855 1.215652 2.942511 18.000000 21 363.485613
1.399541 1.713583 3.322103 12.000000 19 363.485615
1.542449 1.888553 2.995000 13.000000 17 363.485618
0.382406 0.402647 9.413603 6.000000 30 363.485626
0.334512 0.371687 4.613283 98.000000 29 363.485628
0.764151 0.911617 4.614088 10.000000 26 363.485631
0.787278 0.960192 3.430827 10.000000 24 363.485633
0.887137 1.082741 2.956800 19.000000 22 363.485636
1.248758 1.524618 3.293721 15.000000 20 363.485638
1.518062 1.853405 3.245974 13.000000 18 363.485641
1.564607 1.910228 2.755089 15.000000 16 363.485644
1.583815 1.944039 2.543948 16.000000 15 363.485601
0.943652 1.158277 1.286625 30.000000 13 363.485604
1.657695 2.033992 1.804945 17.000000 11 363.485606
1.114839 1.367906 1.009891 28.000000 9 363.485609
1.128340 1.383979 0.809769 29.000000 7 363.485612
1.158451 1.420405 0.628355 24.000000 5 363.485614
1.182880 1.450358 0.446800 24.000000 3 363.485617
1.199333 1.470008 0.262937 15.000000 1 363.485619
0.912077 1.115941 1.364362 73.000000 14 363.485627
0.927620 1.134954 1.150865 76.000000 12 363.485630
1.671227 2.044031 1.636518 19.000000 10 363.485632
1.135449 1.388734 0.916707 28.000000 8 363.485635
1.148452 1.404137 0.720133 26.000000 6 363.485637
1.172799 1.433394 0.537406 27.000000 4 363.485640
1.213790 1.482966 0.359159 19.000000 2 363.485642
1.215197 1.484156 0.171053 12.000000 0 363.485645
0.081876 0.062676 10.273881 97.000000 31 363.485656
0.472421 0.546744 4.593934 100.000000 28 363.485658
0.623583 0.719993 4.602775 93.000000 27 363.485661
0.912221 1.096213 4.603549 11.000000 25 363.485663
0.811263 0.985925 3.067501 13.000000 23 363.485666
0.997093 1.212179 2.942511 18.000000 21 363.485668
1.405514 1.708687 3.322103 12.000000 19 363.485671
1.549032 1.883157 2.995000 13.000000 17 363.485673
0.383810 0.401309 9.413603 6.000000 30 363.485681
0.335807 0.370517 4.613283 98.000000 29 363.485684
0.766517 0.907983 4.609249 9.000000 26 363.485686
0.790625 0.957438 3.430827 10.000000 24 363.485689
0.889525 1.077958 2.952300 18.000000 22 363.485691
1.254072 1.520250 3.293721 14.000000 20 363.485694
1.526441 1.850420 3.249963 13.000000 18 363.485697
1.571266 1.904755 2.755089 15.000000 16 363.485699
1.592854 1.941255 2.547452 16.000000 15 363.485657
0.950159 1.157986 1.289763 30.000000 13 363.485659
1.664785 2.028193 1.804945 17.000000 11 363.485662
1.119607 1.364006 1.009891 28.000000 9 363.485664
1.136106 1.383615 0.811642 29.000000 7 363.485667
1.163402 1.416353 0.628355 23.000000 5 363.485670
1.191053 1.450016 0.447733 24.000000 3 363.485672
1.207619 1.469661 0.263384 14.000000 1 363.485675
0.915967 1.112750 1.364362 73.000000 14 363.485682
0.931576 1.131709 1.150865 76.000000 12 363.485685
1.681092 2.041513 1.639050 19.000000 10 363.485688
1.143175 1.388266 0.918805 28.000000 8 363.485690
1.156349 1.403765 0.721776 23.000000 6 363.485693
1.180886 1.433043 0.538578 28.000000 4 363.485695
1.222109 1.482541 0.359849 19.000000 2 363.485698
1.220370 1.479905 0.171053 12.000000 0 363.485700
0.082130 0.062415 10.278881 99.000000 31 363.485711
0.474326 0.545092 4.593934 100.000000 28 363.485714
0.625423 0.717045 4.597879 93.000000 27 363.485716
0.915082 1.091877 4.598777 10.000000 25 363.485719
0.814700 0.983087 3.067501 13.000000 23 363.485721
0.999790 1.206846 2.938122 20.000000 21 363.485724
1.411470 1.703771 3.322103 12.000000 19 363.485726
1.557642 1.880207 2.998837 13.000000 17 363.485729
0.385208 0.399967 9.413603 6.000000 30 363.485737
0.337098 0.369342 4.613283 98.000000 29 363.485739
0.769682 0.905302 4.609249 10.000000 26 363.485742
0.795066 0.955999 3.435520 10.000000 24 363.485744
0.893282 1.074846 2.952300 18.000000 22 363.485747
1.259371 1.515863 3.293721 14.000000 20 363.485750
1.532891 1.845081 3.249963 13.000000 18 363.485752
1.580071 1.901866 2.758764 15.000000 16 363.485755
1.599620 1.935684 2.547452 16.000000 15 363.485712
0.954195 1.154662 1.289763 30.000000 13 363.485715
1.674518 2.025592 1.807686 17.000000 11 363.485717
1.127184 1.363505 1.012209 28.000000 9 363.485720
1.140929 1.379641 0.811642 29.000000 7 363.485723
1.171397 1.415979 0.629764 23.000000 5 363.485725
1.196107 1.445849 0.447733 25.000000 3 363.485728
1.212742 1.465436 0.263384 14.000000 1 363.485730
0.919845 1.109546 1.364362 73.000000 14 363.485738
0.935521 1.128450 1.150865 74.000000 12 363.485741
1.690960 2.038951 1.641582 20.000000 10 363.485743
1.148013 1.384267 0.918805 28.000000 8 363.485746
1.167272 1.406989 0.725061 23.000000 6 363.485748
1.185881 1.428912 0.538578 27.000000 4 363.485751
1.227277 1.478266 0.359849 19.000000 2 363.485753
1.228720 1.479479 0.171255 12.000000 0 363.485756
0.082347 0.062128 10.278881 100.000000 31 363.485767
0.476226 0.543433 4.593934 101.000000 28 363.485769
0.627923 0.714857 4.597879 92.000000 27 363.485772
0.917925 1.087535 4.594005 10.000000 25 363.485774
0.819378 0.981737 3.072103 12.000000 23 363.485777
1.003996 1.203349 2.938122 20.000000 21 363.485779
1.415606 1.696673 3.317970 12.000000 19 363.485782
1.566249 1.877220 3.002674 13.000000 17 363.485784
0.385996 0.397998 9.398627 6.000000 30 363.485792
0.338024 0.367771 4.608311 98.000000 29 363.485795
0.772837 0.902610 4.609249 9.000000 26 363.485797
0.799506 0.954541 3.440212 10.000000 24 363.485800
0.897029 1.071722 2.952300 18.000000 22 363.485802
1.264655 1.511458 3.293721 14.000000 20 363.485805
1.541256 1.842030 3.253953 13.000000 18 363.485808
1.588876 1.898939 2.762439 15.000000 16 363.485810
1.608649 1.932829 2.550957 15.000000 15 363.485768
0.958220 1.151324 1.289763 30.000000 13 363.485770
1.681579 2.019735 1.807686 17.000000 11 363.485773
1.131937 1.359562 1.012209 26.000000 9 363.485776
1.148705 1.379212 0.813515 29.000000 7 363.485778
1.176332 1.411882 0.629764 24.000000 5 363.485781
1.204291 1.445439 0.448666 26.000000 3 363.485783
1.217850 1.461194 0.263384 14.000000 1 363.485786
0.926106 1.109195 1.367687 71.000000 14 363.485794
0.942045 1.128280 1.153808 74.000000 12 363.485796
1.700831 2.036345 1.644115 20.000000 10 363.485799
1.155748 1.383735 0.920903 28.000000 8 363.485801
1.175204 1.406530 0.726704 24.000000 6 363.485804
1.193979 1.428493 0.539751 27.000000 4 363.485806
1.232429 1.473973 0.359849 20.000000 2 363.485809
1.233877 1.475181 0.171255 13.000000 0 363.485811
0.082564 0.061840 10.278881 98.000000 31 363.485822
0.477606 0.541185 4.588995 101.000000 28 363.485825
0.630414 0.712661 4.597879 92.000000 27 363.485827
0.919780 1.082048 4.584462 10.000000 25 363.485830
0.822800 0.978871 3.072103 12.000000 23 363.485832
1.006649 1.198002 2.933734 20.000000 21 363.485835
1.421519 1.691721 3.317970 12.000000 19 363.485837
1.574855 1.874196 3.006511 13.000000 17 363.485840
0.388194 0.397475 9.418594 6.000000 30 363.485848
0.339305 0.366589 4.608311 98.000000 29 363.485850
0.775983 0.899907 4.609249 10.000000 26 363.485853
0.803946 0.953063 3.444905 10.000000 24 363.485855
0.899361 1.066919 2.947799 18.000000 22 363.485858
1.269923 1.507034 3.293721 15.000000 20 363.485861
1.549618 1.838944 3.257942 13.000000 18 363.485863
1.597679 1.895974 2.766115 15.000000 16 363.485866
1.617677 1.929935 2.554461 15.000000 15 363.485823
0.964733 1.150956 1.292901 30.000000 13 363.485826
1.691305 2.017057 1.810428 17.000000 11 363.485828
1.136676 1.355602 1.012209 24.000000 9 363.485831
1.156492 1.378746 0.815388 29.000000 7 363.485834
1.184337 1.411442 0.631174 24.000000 5 363.485836
1.209330 1.441227 0.448666 25.000000 3 363.485839
1.222943 1.456934 0.263384 14.000000 1 363.485841
0.929972 1.105956 1.367687 73.000000 14 363.485849
0.945977 1.124985 1.153808 74.000000 12 363.485852
1.707929 2.030396 1.644115 20.000000 10 363.485854
1.163493 1.383165 0.923001 28.000000 8 363.485857
1.183147 1.406033 0.728346 27.000000 6 363.485859
1.198958 1.424317 0.539751 28.000000 4 363.485862
1.237567 1.469662 0.359849 20.000000 2 363.485864
1.242238 1.474686 0.171456 12.000000 0 363.485867
0.082815 0.061576 10.283881 98.000000 31 363.485878
0.479492 0.539515 4.588995 100.000000 28 363.485880
0.632220 0.709696 4.592984 94.000000 27 363.485883
0.921609 1.076562 4.574918 9.000000 25 363.485885
0.826212 0.975993 3.072103 12.000000 23 363.485888
1.009277 1.192652 2.929345 20.000000 21 363.485890
1.427416 1.686749 3.317970 12.000000 19 363.485893
1.583458 1.871135 3.010348 13.000000 17 363.485896
0.391410 0.397972 9.463519 6.000000 30 363.485903
0.340583 0.365402 4.608311 98.000000 29 363.485906
0.778295 0.896243 4.604409 10.000000 26 363.485908
0.808385 0.951567 3.449598 10.000000 24 363.485911
0.903265 1.063615 2.947799 18.000000 22 363.485914
1.275438 1.502369 3.293721 15.000000 20 363.485916
1.556348 1.833252 3.257942 13.000000 18 363.485919
1.604618 1.890105 2.766115 15.000000 16 363.485921
1.626704 1.927002 2.557966 15.000000 15 363.485879
0.968745 1.147581 1.292901 30.000000 13 363.485881
1.698336 2.011141 1.810428 17.000000 11 363.485884
1.141401 1.351626 1.012209 23.000000 9 363.485887
1.161297 1.374700 0.815388 29.000000 7 363.485889
1.189257 1.407299 0.631174 23.000000 5 363.485892
1.214604 1.436785 0.448666 24.000000 3 363.485894
1.231490 1.456245 0.263830 13.000000 1 363.485897
0.934020 1.102540 1.367687 71.000000 14 363.485905
0.952707 1.124594 1.156751 76.000000 12 363.485907
1.718146 2.027411 1.646647 20.000000 10 363.485910
1.168554 1.378891 0.923001 28.000000 8 363.485912
1.191347 1.405289 0.729989 28.000000 6 363.485915
1.207314 1.423620 0.540923 28.000000 4 363.485917
1.242945 1.465116 0.359849 19.000000 2 363.485920
1.250610 1.474151 0.171658 12.000000 0 363.485922
0.083040 0.061272 10.283881 85.000000 31 363.485933
0.481466 0.537754 4.588995 100.000000 28 363.485936
0.634817 0.707374 4.592984 94.000000 27 363.485938
0.923598 1.070915 4.565375 9.000000 25 363.485941
0.831052 0.974445 3.076706 12.000000 23 363.485943
1.013642 1.188945 2.929345 20.000000 21 363.485946
1.433589 1.681506 3.317970 12.000000 19 363.485948
1.590306 1.865318 3.010348 13.000000 17 363.485951
0.394226 0.398040 9.498460 6.000000 30 363.485959
0.341856 0.364211 4.608311 98.000000 29 363.485961
0.781418 0.893521 4.604409 10.000000 26 363.485964
0.812824 0.950050 3.454291 10.000000 24 363.485966
0.905557 1.058801 2.943298 18.000000 22 363.485969
1.278980 1.495926 3.289455 15.000000 20 363.485972
1.564696 1.830099 3.261932 13.000000 18 363.485974
1.613079 1.887351 2.769790 14.000000 16 363.485977
1.633756 1.921027 2.557966 15.000000 15 363.485934
0.975467 1.146988 1.296039 30.000000 13 363.485937
1.705696 2.004902 1.810428 17.000000 11 363.485940
1.160701 1.364305 1.023799 22.000000 9 363.485942
1.169093 1.374169 0.817261 29.000000 7 363.485945
1.197271 1.406793 0.632583 24.000000 5 363.485947
1.222796 1.436277 0.449598 24.000000 3 363.485950
1.236566 1.451937 0.263830 13.000000 1 363.485952
0.937863 1.099273 1.367687 71.000000 14 363.485960
0.956627 1.121262 1.156751 74.000000 12 363.485963
1.724860 2.021702 1.646647 19.000000 10 363.485965
1.176066 1.378461 0.925099 28.000000 8 363.485968
1.199066 1.404923 0.731632 27.000000 6 363.485970
1.212028 1.419608 0.540923 28.000000 4 363.485973
1.251013 1.464752 0.360539 19.000000 2 363.485975
1.255748 1.469776 0.171658 13.000000 0 363.485978
0.083243 0.060997 10.283881 80.000000 31 363.485989
0.483247 0.536154 4.588995 100.000000 28 363.485991
0.637159 0.705265 4.592984 94.000000 27 363.485994
0.925185 1.065591 4.555831 8.000000 25 363.485996
0.834278 0.971684 3.076706 12.000000 23 363.485999
1.016019 1.183759 2.924956 19.000000 21 363.486001
1.437324 1.674607 3.313837 12.000000 19 363.486004
1.598570 1.862467 3.014185 13.000000 17 363.486007
0.397457 0.398503 9.543385 6.000000 30 363.486014
0.343126 0.363015 4.608311 98.000000 29 363.486017
0.783701 0.889844 4.599570 10.000000 26 363.486019
0.816135 0.947207 3.454291 10.000000 24 363.486022
0.907642 1.054142 2.938797 18.000000 22 363.486025
1.283933 1.491676 3.289455 15.000000 20 363.486027
1.572723 1.827184 3.265921 13.000000 18 363.486030
1.619658 1.881709 2.769790 14.000000 16 363.486032
1.642437 1.918308 2.561471 15.000000 15 363.485990
0.981797 1.146704 1.299176 31.000000 13 363.485992
1.712335 1.999235 1.810428 17.000000 11 363.485995
1.179628 1.377272 1.035389 18.000000 9 363.485998
1.176899 1.373600 0.819134 27.000000 7 363.486000
1.202174 1.402605 0.632583 24.000000 5 363.486003
1.227552 1.432214 0.449598 25.000000 3 363.486005
1.244616 1.451609 0.264276 14.000000 1 363.486008
0.943936 1.098989 1.371012 71.000000 14 363.486016
0.962973 1.121150 1.159694 74.000000 12 363.486018
1.734716 2.018939 1.649180 19.000000 10 363.486021
1.180871 1.374348 0.925099 28.000000 8 363.486023
1.203963 1.400728 0.731632 27.000000 6 363.486026
1.220145 1.419054 0.542095 28.000000 4 363.486028
1.256118 1.460376 0.360539 21.000000 2 363.486031
1.260871 1.465384 0.171658 12.000000 0 363.486034
0.083419 0.060681 10.278881 101.000000 31 363.486044
0.485115 0.534464 4.588995 97.000000 28 363.486047
0.639617 0.703037 4.592984 94.000000 27 363.486049
0.926933 1.060106 4.546288 8.000000 25 363.486052
0.838943 0.970243 3.081308 12.000000 23 363.486054
1.020144 1.180206 2.924956 20.000000 21 363.486057
1.443161 1.669580 3.313837 12.000000 19 363.486060
1.607158 1.859301 3.018022 13.000000 17 363.486062
0.397612 0.395890 9.513434 5.000000 30 363.486070
0.344391 0.361815 4.608311 98.000000 29 363.486072
0.786802 0.887103 4.599570 10.000000 26 363.486075
0.819437 0.944352 3.454291 10.000000 24 363.486078
0.911316 1.050967 2.938797 18.000000 22 363.486080
1.289132 1.487186 3.289455 15.000000 20 363.486083
1.581066 1.823961 3.269911 13.000000 18 363.486085
1.628437 1.878605 2.773465 15.000000 16 363.486088
1.649123 1.912563 2.561471 15.000000 15 363.486045
0.985793 1.143270 1.299176 31.000000 13 363.486048
1.719303 1.993246 1.810428 17.000000 11 363.486051
1.198897 1.389920 1.046979 14.000000 9 363.486053
1.184715 1.372994 0.821007 24.000000 7 363.486056
1.210198 1.402032 0.633992 26.000000 5 363.486058
1.235754 1.431639 0.450531 24.000000 3 363.486061
1.249675 1.447256 0.264276 15.000000 1 363.486063
0.947766 1.095688 1.371012 71.000000 14 363.486071
0.969525 1.120839 1.162637 74.000000 12 363.486074
1.741753 2.012871 1.649180 19.000000 10 363.486076
1.185661 1.370217 0.925099 28.000000 8 363.486079
1.211936 1.400088 0.733274 26.000000 6 363.486081
1.225091 1.414787 0.542095 28.000000 4 363.486084
1.261208 1.455983 0.360539 19.000000 2 363.486086
1.269250 1.464749 0.171859 12.000000 0 363.486089
0.083630 0.060390 10.278881 102.000000 31 363.486100
0.486453 0.532194 4.584056 97.000000 28 363.486102
0.642067 0.700800 4.592984 94.000000 27 363.486105
0.924705 1.050139 4.517657 8.000000 25 363.486107
0.842325 0.967309 3.081308 12.000000 23 363.486110
1.022685 1.174830 2.920568 20.000000 21 363.486112
1.448980 1.664532 3.313837 12.000000 19 363.486115
1.615744 1.856098 3.021859 13.000000 17 363.486118
0.398579 0.394093 9.503451 5.000000 30 363.486125
0.345652 0.360611 4.608311 98.000000 29 363.486128
0.789894 0.884351 4.599570 9.000000 26 363.486130
0.822728 0.941486 3.454291 10.000000 24 363.486133
0.913729 1.045980 2.934296 18.000000 22 363.486136
1.292859 1.480486 3.285189 15.000000 20 363.486138
1.589723 1.820424 3.273900 13.000000 18 363.486141
1.637541 1.875177 2.777140 14.000000 16 363.486143
1.655789 1.906794 2.561471 15.000000 15 363.486101
0.992331 1.142762 1.302314 30.000000 13 363.486104
1.731735 1.993546 1.815911 17.000000 11 363.486106
1.195582 1.375849 0.824753 24.000000 7 363.486111
1.215084 1.397799 0.633992 26.000000 5 363.486114
1.240993 1.427100 0.450531 24.000000 3 363.486116
1.258240 1.446423 0.264722 14.000000 1 363.486119
0.954229 1.095022 1.374337 71.000000 14 363.486127
0.976282 1.120325 1.165580 72.000000 12 363.486129
1.751952 2.009724 1.651712 19.000000 10 363.486132
1.193657 1.369284 0.927197 28.000000 8 363.486134
1.217059 1.395637 0.733274 26.000000 6 363.486137
1.230268 1.410287 0.542095 29.000000 4 363.486139
1.266536 1.451350 0.360539 19.000000 2 363.486142
1.274355 1.460310 0.171859 12.000000 0 363.486145
0.083851 0.060083 10.278881 101.000000 31 363.486155
0.488401 0.530408 4.584056 100.000000 28 363.486158
0.643941 0.697694 4.588089 88.000000 27 363.486160
0.917644 1.034454 4.465168 8.000000 25 363.486163
0.847153 0.965684 3.085911 12.000000 23 363.486165
1.026984 1.171074 2.920568 19.000000 21 363.486168
1.455071 1.659210 3.313837 12.000000 19 363.486171
1.624650 1.852574 3.025696 13.000000 17 363.486173
0.400849 0.393440 9.523417 6.000000 30 363.486181
0.346971 0.359342 4.608311 98.000000 29 363.486183
0.793130 0.881450 4.599570 9.000000 26 363.486186
0.827314 0.939760 3.458983 10.000000 24 363.486189
0.917375 1.042784 2.934296 18.000000 22 363.486191
1.298019 1.475964 3.285189 14.000000 20 363.486194
1.598058 1.817127 3.277890 13.000000 18 363.486196
1.644077 1.869450 2.777140 14.000000 16 363.486199
1.665115 1.903397 2.564975 15.000000 15 363.486156
0.996512 1.139117 1.302314 30.000000 13 363.486159
1.730769 1.977745 1.807686 16.000000 11 363.486162
1.203670 1.374945 0.826626 26.000000 7 363.486167
1.220199 1.393336 0.633992 26.000000 5 363.486169
1.245967 1.422759 0.450531 24.000000 3 363.486172
1.266563 1.445768 0.265168 14.000000 1 363.486174
0.958046 1.091685 1.374337 71.000000 14 363.486182
0.982853 1.119948 1.168524 72.000000 12 363.486185
1.761801 2.006836 1.654245 19.000000 10 363.486187
1.198430 1.365109 0.927197 27.000000 8 363.486190
1.225039 1.394928 0.734917 28.000000 6 363.486192
1.238392 1.409636 0.543268 28.000000 4 363.486195
1.274864 1.450640 0.361229 20.000000 2 363.486198
1.282997 1.459381 0.172061 12.000000 0 363.486200
0.084024 0.059766 10.273881 101.000000 31 363.486211
0.490249 0.528699 4.584056 100.000000 28 363.486213
0.646372 0.695442 4.588089 88.000000 27 363.486216
0.911299 1.020107 4.417451 9.000000 25 363.486218
0.850518 0.962721 3.085911 13.000000 23 363.486221
1.029480 1.165686 2.916179 19.000000 21 363.486224
1.460854 1.654121 3.313837 13.000000 19 363.486226
1.631107 1.846891 3.025696 13.000000 17 363.486229
0.404090 0.393853 9.568342 6.000000 30 363.486236
0.347850 0.357746 4.603340 98.000000 29 363.486239
0.795357 0.877744 4.594731 9.000000 26 363.486242
0.830589 0.936866 3.458983 11.000000 24 363.486244
0.921009 1.039576 2.934296 18.000000 22 363.486247
1.301434 1.469472 3.280923 14.000000 20 363.486249
1.606389 1.813794 3.281879 13.000000 18 363.486252
1.652840 1.866238 2.780815 14.000000 16 363.486254
1.671749 1.897573 2.564975 15.000000 15 363.486212
1.000483 1.135631 1.302314 32.000000 13 363.486215
1.704485 1.934048 1.774789 14.000000 11 363.486217
1.793601 2.035161 1.505948 19.000000 9 363.486220
1.211528 1.374213 0.828499 27.000000 7 363.486222
1.228229 1.392666 0.635401 26.000000 5 363.486225
1.254174 1.422085 0.451464 24.000000 3 363.486227
1.271602 1.441338 0.265168 15.000000 1 363.486230
0.964323 1.091132 1.377661 71.000000 14 363.486238
0.989433 1.119539 1.171467 57.000000 12 363.486240
1.771651 2.003904 1.656777 19.000000 10 363.486243
1.206194 1.364317 0.929295 27.000000 8 363.486245
1.233030 1.394181 0.736560 28.000000 6 363.486248
1.243305 1.405304 0.543268 28.000000 4 363.486250
1.279920 1.446181 0.361229 20.000000 2 363.486253
1.288084 1.454894 0.172061 12.000000 0 363.486256
0.084232 0.059472 10.273881 102.000000 31 363.486266
0.492092 0.526985 4.584056 100.000000 28 363.486269
0.648100 0.692438 4.583194 93.000000 27 363.486271
0.905863 1.006927 4.374506 9.000000 25 363.486274
0.853874 0.959746 3.085911 12.000000 23 363.486276
1.033542 1.162086 2.916179 20.000000 21 363.486279
1.466619 1.649011 3.313837 13.000000 19 363.486281
1.639674 1.843582 3.029533 13.000000 17 363.486284
0.406921 0.393847 9.603283 6.000000 30 363.486292
0.349097 0.356530 4.603340 99.000000 29 363.486294
0.798416 0.874963 4.594731 9.000000 26 363.486297
0.835003 0.935248 3.463676 11.000000 24 363.486299
0.923183 1.034729 2.929795 19.000000 22 363.486302
1.306556 1.464920 3.280923 14.000000 20 363.486304
1.614717 1.810425 3.285869 13.000000 18 363.486307
1.661601 1.862987 2.784490 15.000000 16 363.486310
1.680729 1.894394 2.568480 15.000000 15 363.486267
1.004441 1.132132 1.302314 32.000000 13 363.486270
1.686246 1.899940 1.750116 12.000000 11 363.486272
1.803636 2.032202 1.508266 19.000000 9 363.486275
1.219396 1.373442 0.830372 27.000000 7 363.486278
1.233083 1.388370 0.635401 26.000000 5 363.486280
1.259131 1.417699 0.451464 24.000000 3 363.486283
1.279933 1.440614 0.265615 15.000000 1 363.486285
0.968126 1.087759 1.377661 73.000000 14 363.486293
0.998710 1.122117 1.177353 40.000000 12 363.486296
1.781502 2.000927 1.659310 19.000000 10 363.486298
1.210949 1.360098 0.929295 27.000000 8 363.486301
1.237889 1.389868 0.736560 27.000000 6 363.486303
1.251436 1.404585 0.544440 29.000000 4 363.486306
1.288255 1.445402 0.361919 21.000000 2 363.486308
1.293154 1.450389 0.172061 12.000000 0 363.486311
0.084476 0.059202 10.278881 100.000000 31 363.486322
0.493396 0.524698 4.579116 100.000000 28 363.486324
0.650513 0.690172 4.583194 94.000000 27 363.486327
0.905361 0.999332 4.355419 10.000000 25 363.486329
0.858522 0.958215 3.090513 12.000000 23 363.486332
1.035994 1.156687 2.911790 20.000000 21 363.486334
1.472366 1.643882 3.313837 13.000000 19 363.486337
1.646099 1.837847 3.029533 13.000000 17 363.486339
0.409758 0.393826 9.638225 6.000000 30 363.486347
0.350339 0.355309 4.603340 98.000000 29 363.486350
0.801466 0.872170 4.594731 10.000000 26 363.486352
0.838263 0.932328 3.463676 11.000000 24 363.486355
0.926789 1.031500 2.929795 19.000000 22 363.486357
1.309918 1.458410 3.276657 14.000000 20 363.486360
1.621027 1.804777 3.285869 13.000000 18 363.486363
1.670359 1.859698 2.788166 15.000000 16 363.486365
1.692084 1.893834 2.575489 15.000000 15 363.486323
1.010980 1.131522 1.305452 33.000000 13 363.486325
1.810718 2.025893 1.508266 17.000000 9 363.486330
1.227272 1.372633 0.832245 28.000000 7 363.486333
1.241120 1.387633 0.636810 26.000000 5 363.486336
1.267347 1.416956 0.452396 25.000000 3 363.486338
1.284954 1.436137 0.265615 14.000000 1 363.486341
0.974410 1.087154 1.380986 71.000000 14 363.486348
1.008016 1.124644 1.183239 36.000000 12 363.486351
1.791354 1.997907 1.661842 19.000000 10 363.486354
1.218719 1.359242 0.931393 27.000000 8 363.486356
1.245886 1.389054 0.738202 28.000000 6 363.486359
1.256331 1.400208 0.544440 28.000000 4 363.486361
1.296600 1.444581 0.362608 20.000000 2 363.486364
1.301547 1.449584 0.172262 12.000000 0 363.486366
0.084682 0.058906 10.278881 102.000000 31 363.486377
0.495224 0.522973 4.579116 100.000000 28 363.486380
0.652918 0.687897 4.583194 92.000000 27 363.486382
0.903810 0.990649 4.331561 9.000000 25 363.486385
0.861862 0.955212 3.090513 11.000000 23 363.486387
1.040025 1.153063 2.911790 19.000000 21 363.486390
1.476211 1.636643 3.309704 13.000000 19 363.486392
1.654652 1.834471 3.033370 13.000000 17 363.486395
0.412179 0.393391 9.663183 6.000000 30 363.486403
0.351201 0.353706 4.598368 98.000000 29 363.486405
0.803651 0.868444 4.589892 9.000000 26 363.486408
0.842671 0.930675 3.468369 11.000000 24 363.486410
0.928923 1.026644 2.925295 19.000000 22 363.486413
1.315001 1.453829 3.276657 14.000000 20 363.486416
1.629339 1.801343 3.289858 13.000000 18 363.486418
1.679115 1.856370 2.791841 15.000000 16 363.486421
1.701069 1.890567 2.578993 15.000000 15 363.486378
1.014924 1.127986 1.305452 33.000000 13 363.486381
1.785177 1.983340 1.482768 10.000000 9 363.486386
1.232056 1.368341 0.832245 27.000000 7 363.486389
1.245956 1.383292 0.636810 26.000000 5 363.486391
1.272285 1.412524 0.452396 25.000000 3 363.486394
1.293292 1.435343 0.266061 14.000000 1 363.486396
0.978199 1.083746 1.380986 71.000000 14 363.486404
1.017352 1.127120 1.189126 32.000000 12 363.486407
1.798317 1.991641 1.661842 19.000000 10 363.486409
1.226498 1.358348 0.933491 25.000000 8 363.486412
1.250727 1.384697 0.738202 29.000000 6 363.486414
1.264470 1.399420 0.545612 28.000000 4 363.486417
1.301635 1.440047 0.362608 19.000000 2 363.486419
1.306599 1.445032 0.172262 12.000000 0 363.486422
0.084887 0.058610 10.278881 102.000000 31 363.486433
0.497047 0.521241 4.579116 100.000000 28 363.486435
0.654611 0.684878 4.578298 93.000000 27 363.486438
0.907263 0.987488 4.331561 9.000000 25 363.486440
0.866505 0.953644 3.095116 11.000000 23 363.486443
1.044044 1.149426 2.911790 19.000000 21 363.486445
1.481915 1.631480 3.309704 13.000000 19 363.486448
1.663201 1.831056 3.037207 13.000000 17 363.486450
0.415656 0.393937 9.713099 6.000000 30 363.486458
0.352433 0.352478 4.598368 98.000000 29 363.486461
0.806678 0.865634 4.589892 9.000000 26 363.486463
0.845914 0.927728 3.468369 12.000000 24 363.486466
0.931034 1.021786 2.920794 19.000000 22 363.486468
1.320068 1.449230 3.276657 14.000000 20 363.486471
1.637646 1.797873 3.293848 13.000000 18 363.486474
1.687867 1.853004 2.795516 14.000000 16 363.486476
1.710053 1.887261 2.582498 15.000000 15 363.486434
1.018855 1.124436 1.305452 33.000000 13 363.486436
1.023653 1.129336 1.083939 45.000000 11 363.486439
1.684979 1.858928 1.399319 5.000000 9 363.486442
1.239939 1.367466 0.834118 27.000000 7 363.486444
1.254000 1.382488 0.638219 26.000000 5 363.486447
1.280508 1.411713 0.453329 26.000000 3 363.486449
1.298295 1.430819 0.266061 14.000000 1 363.486452
0.981976 1.080325 1.380986 71.000000 14 363.486460
1.026718 1.129544 1.195012 31.000000 12 363.486462
1.808158 1.988542 1.664374 20.000000 10 363.486465
1.234285 1.357417 0.935589 24.000000 8 363.486467
1.255553 1.380323 0.738202 29.000000 6 363.486470
1.269347 1.394998 0.545612 29.000000 4 363.486472
1.309987 1.439157 0.363298 19.000000 2 363.486475
1.314999 1.444156 0.172464 13.000000 0 363.486477
0.085091 0.058314 10.278881 103.000000 31 363.486488
0.498325 0.518943 4.574177 100.000000 28 363.486491
0.656998 0.682589 4.578298 93.000000 27 363.486493
0.909690 0.983219 4.326788 8.000000 25 363.486496
0.871147 0.952054 3.099718 12.000000 23 363.486498
1.046433 1.144007 2.907402 18.000000 21 363.486501
1.487600 1.626297 3.309704 13.000000 19 363.486503
1.671746 1.827605 3.041044 13.000000 17 363.486506
0.419352 0.394662 9.768006 6.000000 30 363.486514
0.353661 0.351245 4.598368 98.000000 29 363.486516
0.809694 0.862813 4.589892 10.000000 26 363.486519
0.850314 0.926041 3.473062 11.000000 24 363.486521
0.933123 1.016925 2.916293 19.000000 22 363.486524
1.325119 1.444613 3.276657 14.000000 20 363.486527
1.643912 1.792145 3.293848 13.000000 18 363.486529
1.696617 1.849599 2.799191 14.000000 16 363.486532
1.716630 1.881280 2.582498 15.000000 15 363.486489
1.022774 1.120873 1.305452 33.000000 13 363.486492
1.021951 1.119579 1.078456 59.000000 11 363.486494
1.691457 1.853035 1.399319 5.000000 9 363.486497
1.247831 1.366553 0.835991 27.000000 7 363.486500
1.258818 1.378102 0.638219 26.000000 5 363.486502
1.285428 1.407234 0.453329 26.000000 3 363.486505
1.303281 1.426279 0.266061 14.000000 1 363.486507
0.988262 1.079645 1.384311 71.000000 14 363.486515
1.036113 1.131916 1.200898 31.000000 12 363.486518
1.818000 1.985397 1.666907 19.000000 10 363.486520
1.245146 1.359794 0.939785 24.000000 8 363.486523
1.263554 1.379414 0.739845 29.000000 6 363.486525
1.277493 1.394142 0.546785 29.000000 4 363.486528
1.318349 1.438226 0.363988 20.000000 2 363.486530
1.320032 1.439557 0.172464 12.000000 0 363.486533
0.085331 0.058039 10.283881 103.000000 31 363.486544
0.500133 0.517200 4.574177 100.000000 28 363.486546
0.659377 0.680291 4.578298 93.000000 27 363.486549
0.913117 0.980038 4.326788 8.000000 25 363.486551
0.875789 0.950444 3.104321 12.000000 23 363.486554
1.050420 1.140347 2.907402 18.000000 21 363.486556
1.491362 1.619025 3.305571 13.000000 19 363.486559
1.680288 1.824117 3.044881 13.000000 17 363.486562
0.423270 0.395564 9.827906 6.000000 30 363.486569
0.354885 0.350008 4.598368 98.000000 29 363.486572
0.812701 0.859981 4.589892 10.000000 26 363.486574
0.854713 0.924334 3.477755 10.000000 24 363.486577
0.936667 1.013662 2.916293 19.000000 22 363.486580
1.330153 1.439979 3.276657 14.000000 20 363.486582
1.652202 1.788610 3.297837 13.000000 18 363.486585
1.705363 1.846156 2.802866 14.000000 16 363.486587
1.725600 1.877902 2.586002 15.000000 15 363.486545
1.026680 1.117296 1.305452 33.000000 13 363.486547
1.020194 1.109848 1.072973 71.000000 11 363.486550
1.252594 1.362189 0.835991 27.000000 7 363.486555
1.266869 1.377231 0.639629 24.000000 5 363.486558
1.293658 1.406354 0.454261 26.000000 3 363.486560
1.311624 1.425385 0.266507 14.000000 1 363.486563
0.997087 1.081680 1.390961 73.000000 14 363.486571
1.042797 1.131264 1.203841 31.000000 12 363.486573
1.827842 1.982209 1.669439 17.000000 10 363.486576
1.252961 1.358776 0.941883 25.000000 8 363.486578
1.268361 1.374995 0.739845 28.000000 6 363.486581
1.282351 1.389675 0.546785 28.000000 4 363.486583
1.326721 1.437254 0.364678 20.000000 2 363.486586
1.328438 1.438611 0.172666 12.000000 0 363.486588
0.085533 0.057741 10.283881 103.000000 31 363.486599
0.501935 0.515451 4.574177 100.000000 28 363.486602
0.661036 0.677257 4.573403 93.000000 27 363.486604
0.915510 0.975755 4.322017 7.000000 25 363.486607
0.880430 0.948814 3.108923 12.000000 23 363.486609
1.052765 1.134917 2.903013 19.000000 21 363.486612
1.497004 1.613809 3.305571 13.000000 19 363.486614
1.688825 1.820590 3.048717 13.000000 17 363.486617
0.426988 0.396246 9.882812 6.000000 30 363.486625
0.356105 0.348768 4.598368 98.000000 29 363.486627
0.815698 0.857139 4.589892 10.000000 26 363.486630
0.859111 0.922608 3.482447 10.000000 24 363.486632
0.938892 1.008628 2.911792 20.000000 22 363.486635
1.335422 1.435094 3.276657 15.000000 20 363.486638
1.660800 1.784749 3.301827 13.000000 18 363.486640
1.714428 1.842374 2.806541 14.000000 16 363.486643
1.734566 1.874485 2.589507 15.000000 15 363.486600
1.030574 1.113706 1.305452 33.000000 13 363.486603
1.026902 1.109349 1.075715 73.000000 11 363.486606
1.260491 1.361210 0.837864 28.000000 7 363.486611
1.271668 1.372800 0.639629 24.000000 5 363.486613
1.298804 1.401603 0.454261 27.000000 3 363.486616
1.316840 1.420568 0.266507 13.000000 1 363.486618
1.008668 1.086228 1.400935 81.000000 14 363.486626
1.046937 1.127435 1.203841 31.000000 12 363.486629
1.758806 1.893371 1.603596 12.000000 10 363.486631
1.261022 1.357500 0.943981 26.000000 8 363.486634
1.276607 1.373796 0.741488 28.000000 6 363.486636
1.290745 1.388525 0.547957 28.000000 4 363.486639
1.331980 1.432381 0.364678 20.000000 2 363.486641
1.333452 1.433965 0.172666 12.000000 0 363.486644
0.085744 0.057427 10.283881 103.000000 31 363.486655
0.503277 0.513053 4.569238 100.000000 28 363.486657
0.663514 0.674830 4.573403 91.000000 27 363.486660
0.919080 0.972393 4.322017 8.000000 25 363.486662
0.885236 0.947008 3.113526 12.000000 23 363.486665
1.056917 1.131051 2.903013 19.000000 21 363.486667
1.502909 1.608311 3.305571 13.000000 19 363.486670
1.697675 1.816731 3.052555 13.000000 17 363.486673
0.430997 0.397027 9.942713 7.000000 30 363.486680
0.357381 0.347460 4.598368 99.000000 29 363.486683
0.818834 0.854143 4.589892 10.000000 26 363.486685
0.862486 0.919453 3.482447 10.000000 24 363.486688
0.940918 1.003756 2.907291 20.000000 22 363.486691
1.342207 1.432327 3.280923 15.000000 20 363.486693
1.669081 1.781140 3.305816 13.000000 18 363.486696
1.723167 1.838853 2.810217 14.000000 16 363.486698
1.743857 1.870723 2.593011 15.000000 15 363.486656
1.034649 1.109921 1.305452 33.000000 13 363.486658
1.033813 1.108636 1.078456 73.000000 11 363.486661
1.390822 1.491477 1.153608 25.000000 9 363.486664
1.265471 1.356581 0.837864 28.000000 7 363.486666
1.279964 1.371637 0.641038 26.000000 5 363.486669
1.307040 1.400652 0.455194 27.000000 3 363.486671
1.325189 1.419604 0.266953 13.000000 1 363.486674
1.035409 1.107249 1.430859 93.000000 14 363.486682
1.053627 1.126726 1.206785 31.000000 12 363.486684
1.268853 1.356404 0.946079 27.000000 8 363.486689
1.281394 1.369332 0.741488 28.000000 6 363.486692
1.295584 1.384011 0.547957 29.000000 4 363.486694
1.340356 1.431338 0.365368 19.000000 2 363.486697
1.342114 1.432714 0.172867 13.000000 0 363.486700
0.085944 0.057128 10.283881 103.000000 31 363.486710
0.505064 0.511294 4.569238 101.000000 28 363.486713
0.665149 0.671786 4.568508 91.000000 27 363.486715
0.922469 0.969179 4.322017 7.000000 25 363.486718
0.889876 0.945334 3.118128 12.000000 23 363.486720
1.059217 1.125610 2.898624 19.000000 21 363.486723
1.508514 1.603056 3.305571 13.000000 19 363.486726
1.706203 1.813129 3.056391 13.000000 17 363.486728
0.434949 0.397861 10.002612 7.000000 30 363.486736
0.358592 0.346210 4.598368 99.000000 29 363.486738
0.820937 0.850375 4.585052 10.000000 26 363.486741
0.866876 0.917691 3.487140 10.000000 24 363.486744
0.942921 0.998881 2.902790 20.000000 22 363.486746
1.347198 1.427633 3.280923 15.000000 20 363.486749
1.677357 1.777495 3.309805 13.000000 18 363.486751
1.731902 1.835292 2.813892 14.000000 16 363.486754
1.752817 1.867225 2.596516 15.000000 15 363.486711
1.038517 1.106302 1.305452 33.000000 13 363.486714
1.037676 1.105021 1.078456 73.000000 11 363.486717
1.396019 1.486613 1.153608 27.000000 9 363.486719
1.273373 1.355534 0.839737 28.000000 7 363.486722
1.284744 1.367161 0.641038 25.000000 5 363.486724
1.311921 1.396081 0.455194 26.000000 3 363.486727
1.330136 1.414969 0.266953 14.000000 1 363.486729
1.085351 1.152563 1.490706 87.000000 14 363.486737
1.057553 1.123041 1.206785 31.000000 12 363.486740
1.381765 1.466814 1.269316 20.000000 10 363.486742
1.276692 1.355271 0.948177 28.000000 8 363.486745
1.286166 1.364850 0.741488 28.000000 6 363.486747
1.303742 1.383017 0.549129 28.000000 4 363.486750
1.345344 1.426651 0.365368 19.000000 2 363.486752
1.350535 1.431654 0.173069 12.000000 0 363.486755
0.086106 0.056805 10.278881 103.000000 31 363.486766
0.506846 0.509527 4.569238 101.000000 28 363.486768
0.667490 0.669460 4.568508 91.000000 27 363.486771
0.926880 0.967031 4.326788 7.000000 25 363.486773
0.893170 0.942222 3.118128 12.000000 23 363.486776
1.063140 1.121906 2.898624 19.000000 21 363.486778
1.514100 1.597780 3.305571 13.000000 19 363.486781
1.714727 1.809489 3.060229 13.000000 17 363.486784
0.439341 0.399060 10.072495 7.000000 30 363.486791
0.359798 0.344957 4.598368 99.000000 29 363.486794
0.823900 0.847504 4.585052 10.000000 26 363.486796
0.871263 0.915910 3.491833 10.000000 24 363.486799
0.946402 0.995584 2.902790 19.000000 22 363.486802
1.352174 1.422921 3.280923 15.000000 20 363.486804
1.683551 1.771629 3.309805 13.000000 18 363.486807
1.740633 1.831693 2.817567 14.000000 16 363.486809
1.761774 1.863686 2.600020 15.000000 15 363.486767
1.042372 1.102671 1.305452 34.000000 13 363.486770
1.044400 1.104430 1.081198 73.000000 11 363.486772
1.395112 1.475293 1.148972 26.000000 9 363.486775
1.278097 1.351081 0.839737 28.000000 7 363.486777
1.292806 1.366153 0.642447 25.000000 5 363.486780
1.320163 1.395061 0.456127 26.000000 3 363.486782
1.338491 1.413934 0.267399 12.000000 1 363.486785
1.089367 1.148768 1.490706 9.000000 14 363.486793
1.064248 1.122275 1.209728 31.000000 12 363.486795
1.383909 1.458854 1.266783 27.000000 10 363.486798
1.284539 1.354099 0.950275 28.000000 8 363.486800
1.294173 1.363778 0.743131 28.000000 6 363.486803
1.308561 1.378458 0.549129 27.000000 4 363.486805
1.350316 1.421946 0.365368 20.000000 2 363.486808
1.355524 1.426932 0.173069 12.000000 0 363.486811
0.086303 0.056504 10.278881 95.000000 31 363.486821
0.508622 0.507755 4.569238 101.000000 28 363.486824
0.669101 0.666408 4.563613 91.000000 27 363.486826
0.930250 0.963790 4.326788 8.000000 25 363.486829
0.896453 0.939099 3.118128 12.000000 23 363.486831
1.065395 1.116454 2.894236 19.000000 21 363.486834
1.517726 1.590449 3.301438 13.000000 19 363.486837
1.723246 1.805811 3.064065 13.000000 17 363.486839
0.443101 0.399653 10.127402 6.000000 30 363.486847
0.361000 0.343699 4.598368 99.000000 29 363.486849
0.826854 0.844623 4.585052 10.000000 26 363.486852
0.875649 0.914109 3.496526 11.000000 24 363.486855
0.948365 0.990701 2.898290 19.000000 22 363.486857
1.357132 1.418193 3.280923 15.000000 20 363.486860
1.691809 1.767919 3.313795 14.000000 18 363.486862
1.747016 1.825606 2.817567 14.000000 16 363.486865
1.770728 1.860108 2.603525 15.000000 15 363.486822
1.046215 1.099025 1.305452 34.000000 13 363.486825
1.048249 1.100777 1.081198 73.000000 11 363.486828
1.403309 1.473623 1.151290 24.000000 9 363.486830
1.286003 1.349968 0.841610 28.000000 7 363.486833
1.297567 1.361631 0.642447 26.000000 5 363.486835
1.325025 1.390444 0.456127 26.000000 3 363.486838
1.346854 1.412858 0.267846 12.000000 1 363.486840
1.359013 1.423132 1.833166 8.000000 14 363.486848
1.068159 1.118554 1.209728 31.000000 12 363.486851
1.386015 1.450897 1.264251 27.000000 10 363.486853
1.292393 1.352888 0.952373 28.000000 8 363.486856
1.298926 1.359252 0.743131 27.000000 6 363.486858
1.316724 1.377395 0.550301 28.000000 4 363.486861
1.355272 1.417224 0.365368 20.000000 2 363.486864
1.363951 1.425801 0.173270 13.000000 0 363.486866
0.086463 0.056180 10.273881 95.000000 31 363.486877
0.510391 0.505977 4.569238 100.000000 28 363.486879
0.671423 0.664068 4.563613 92.000000 27 363.486882
0.934649 0.961608 4.331561 8.000000 25 363.486884
0.901080 0.937372 3.122731 12.000000 23 363.486887
1.069286 1.112729 2.894236 19.000000 21 363.486890
1.523268 1.585142 3.301438 13.000000 19 363.486892
1.731761 1.802097 3.067902 13.000000 17 363.486895
0.448382 0.401574 10.217251 6.000000 30 363.486902
0.361809 0.342070 4.593397 98.000000 29 363.486905
0.828914 0.840836 4.580213 10.000000 26 363.486908
0.878834 0.911047 3.496526 11.000000 24 363.486910
0.951818 0.987385 2.898290 20.000000 22 363.486913
1.362074 1.413447 3.280923 15.000000 20 363.486915
1.697970 1.762003 3.313795 14.000000 18 363.486918
1.755730 1.821937 2.821242 14.000000 16 363.486920
1.779678 1.856491 2.607030 15.000000 15 363.486878
1.050045 1.095367 1.305452 35.000000 13 363.486881
1.054979 1.100130 1.083939 73.000000 11 363.486883
1.293917 1.348816 0.843483 28.000000 7 363.486888
1.305634 1.360555 0.643856 26.000000 5 363.486891
1.333271 1.389355 0.457059 27.000000 3 363.486893
1.355227 1.411741 0.268292 14.000000 1 363.486896
1.371738 1.426454 1.843140 7.000000 14 363.486904
1.074859 1.117732 1.212671 31.000000 12 363.486906
1.397049 1.452264 1.269316 24.000000 10 363.486909
1.297107 1.348369 0.952373 28.000000 8 363.486911
1.306937 1.358113 0.744773 27.000000 6 363.486914
1.321524 1.372791 0.550301 28.000000 4 363.486916
1.360210 1.412484 0.365368 20.000000 2 363.486919
1.368919 1.421031 0.173270 13.000000 0 363.486922
0.086658 0.055878 10.273881 103.000000 31 363.486933
0.512154 0.504192 4.569238 97.000000 28 363.486936
0.673737 0.661721 4.563613 92.000000 27 363.486938
0.939045 0.959407 4.336332 9.000000 25 363.486941
0.904347 0.934221 3.122731 12.000000 23 363.486943
1.071498 1.107268 2.889847 19.000000 21 363.486946
1.526835 1.577793 3.297305 13.000000 19 363.486948
1.740270 1.798345 3.071739 13.000000 17 363.486951
0.451082 0.401158 10.247201 6.000000 30 363.486959
0.363001 0.340805 4.593397 98.000000 29 363.486961
0.831844 0.837938 4.580213 9.000000 26 363.486964
0.883212 0.909212 3.501218 11.000000 24 363.486966
0.953741 0.982494 2.893789 21.000000 22 363.486969
1.365184 1.406812 3.276657 15.000000 20 363.486971
1.704110 1.756065 3.313795 13.000000 18 363.486974
1.764440 1.818231 2.824917 15.000000 16 363.486977
1.786147 1.850267 2.607030 15.000000 15 363.486934
1.051158 1.088894 1.302314 37.000000 13 363.486937
1.058813 1.096440 1.083939 73.000000 11 363.486939
1.298617 1.344292 0.843483 28.000000 7 363.486945
1.310375 1.355989 0.643856 25.000000 5 363.486947
1.338113 1.384693 0.457059 26.000000 3 363.486950
1.363608 1.410582 0.268738 14.000000 1 363.486952
1.384502 1.429705 1.853115 7.000000 14 363.486960
1.078754 1.113973 1.212671 31.000000 12 363.486963
1.304964 1.347093 0.954471 27.000000 8 363.486968
1.311670 1.353542 0.744773 27.000000 6 363.486970
1.329691 1.371659 0.551474 29.000000 4 363.486973
1.365132 1.407728 0.365368 22.000000 2 363.486975
1.377350 1.419830 0.173472 13.000000 0 363.486978
0.086853 0.055575 10.273881 103.000000 31 363.486989
0.513911 0.502401 4.569238 97.000000 28 363.486991
0.676042 0.659365 4.563613 93.000000 27 363.486994
0.944485 0.958250 4.345875 9.000000 25 363.486996
0.908966 0.932458 3.127333 12.000000 23 363.486999
1.075356 1.103521 2.889847 19.000000 21 363.487001
1.532333 1.572453 3.297305 13.000000 19 363.487004
1.748774 1.794555 3.075576 13.000000 17 363.487006
0.452697 0.399773 10.252192 5.000000 30 363.487014
0.364188 0.339536 4.593397 98.000000 29 363.487017
0.833874 0.834139 4.575374 9.000000 26 363.487019
0.887587 0.907357 3.505911 10.000000 24 363.487022
0.957165 0.979159 2.893789 21.000000 22 363.487024
1.370086 1.402038 3.276657 15.000000 20 363.487027
1.710229 1.750106 3.313795 13.000000 18 363.487030
1.773146 1.814485 2.828593 15.000000 16 363.487032
1.795081 1.846578 2.610534 14.000000 15 363.486990
1.054953 1.085218 1.302314 39.000000 13 363.486992
1.062634 1.092738 1.083939 71.000000 11 363.486995
1.928280 1.982898 1.533765 18.000000 9 363.486997
1.306534 1.343073 0.845356 28.000000 7 363.487000
1.318446 1.354845 0.645265 25.000000 5 363.487003
1.346364 1.383534 0.457992 25.000000 3 363.487005
1.371997 1.409382 0.269184 13.000000 1 363.487008
1.373842 1.408822 1.833166 10.000000 14 363.487015
1.085458 1.113094 1.215614 31.000000 12 363.487018
1.798519 1.843662 1.598531 14.000000 10 363.487021
1.315997 1.349026 0.958668 26.000000 8 363.487023
1.319685 1.352335 0.746416 28.000000 6 363.487026
1.337866 1.370487 0.552646 29.000000 4 363.487028
1.373498 1.406497 0.366057 22.000000 2 363.487031
1.382298 1.415014 0.173472 13.000000 0 363.487033
0.087084 0.055293 10.278881 105.000000 31 363.487044
0.515104 0.500063 4.564299 100.000000 28 363.487047
0.678340 0.657001 4.563613 89.000000 27 363.487049
0.948877 0.956008 4.350647 10.000000 25 363.487052
0.913584 0.930673 3.131936 12.000000 23 363.487054
1.077524 1.098050 2.885458 19.000000 21 363.487057
1.537813 1.567095 3.297305 13.000000 19 363.487059
1.757273 1.790728 3.079413 13.000000 17 363.487062
0.455616 0.399523 10.287134 5.000000 30 363.487070
0.365371 0.338263 4.593397 98.000000 29 363.487072
0.836781 0.831224 4.575374 9.000000 26 363.487075
0.890749 0.904253 3.505911 10.000000 24 363.487077
0.959050 0.974260 2.889288 21.000000 22 363.487080
1.374972 1.397247 3.276657 15.000000 20 363.487083
1.716328 1.744125 3.313795 13.000000 18 363.487085
1.781847 1.810701 2.832268 14.000000 16 363.487088
1.791537 1.830107 2.596516 13.000000 15 363.487045
1.056011 1.078747 1.299176 44.000000 13 363.487048
1.069367 1.092009 1.086681 71.000000 11 363.487050
1.941389 1.982485 1.538401 18.000000 9 363.487053
1.311214 1.338504 0.845356 27.000000 7 363.487056
1.323167 1.350235 0.645265 25.000000 5 363.487058
1.351185 1.378826 0.457992 26.000000 3 363.487061
1.380394 1.408140 0.269630 13.000000 1 363.487063
1.378751 1.404018 1.833166 15.000000 14 363.487071
1.089337 1.109299 1.215614 31.000000 12 363.487074
1.886517 1.920412 1.666907 16.000000 10 363.487076
1.349322 1.373564 0.977550 26.000000 8 363.487079
1.327708 1.351089 0.748059 28.000000 6 363.487081
1.346049 1.369275 0.553818 29.000000 4 363.487084
1.378399 1.401694 0.366057 23.000000 2 363.487086
1.390732 1.413741 0.173673 13.000000 0 363.487089
0.087314 0.055011 10.283881 105.000000 31 363.487100
0.516846 0.498262 4.564299 100.000000 28 363.487102
0.680629 0.654629 4.563613 89.000000 27 363.487105
0.954320 0.954802 4.360190 8.000000 25 363.487107
0.918200 0.928868 3.136539 12.000000 23 363.487110
1.079666 1.092579 2.881070 20.000000 21 363.487112
1.541296 1.559716 3.293172 14.000000 19 363.487115
1.765767 1.786863 3.083250 12.000000 17 363.487117
0.458320 0.399069 10.317083 4.000000 30 363.487125
0.366550 0.336985 4.593397 98.000000 29 363.487128
0.838782 0.827415 4.570535 9.000000 26 363.487130
0.895115 0.902363 3.510604 10.000000 24 363.487133
0.962445 0.970906 2.889288 21.000000 22 363.487135
1.378005 1.390587 3.272391 15.000000 20 363.487138
1.722405 1.738124 3.313795 12.000000 18 363.487141
1.792929 1.809286 2.839618 13.000000 16 363.487143
1.745338 1.770508 2.522921 10.000000 15 363.487101
1.059770 1.075055 1.299176 64.000000 13 363.487103
1.073172 1.088270 1.086681 74.000000 11 363.487106
1.945187 1.972542 1.536083 19.000000 9 363.487109
1.319134 1.337220 0.847229 28.000000 7 363.487111
1.331242 1.349022 0.646675 25.000000 5 363.487114
1.359441 1.377597 0.458924 26.000000 3 363.487116
1.385301 1.403313 0.269630 15.000000 1 363.487119
1.378392 1.393886 1.826516 17.000000 14 363.487127
1.096044 1.108363 1.218557 31.000000 12 363.487129
1.923529 1.944464 1.692231 18.000000 10 363.487132
1.370068 1.384978 0.988040 24.000000 8 363.487134
1.332416 1.346446 0.748059 28.000000 6 363.487137
1.350821 1.364568 0.553818 28.000000 4 363.487139
1.386768 1.400392 0.366747 22.000000 2 363.487142
1.399174 1.412428 0.173875 12.000000 0 363.487144
0.087506 0.054706 10.283881 106.000000 31 363.487155
0.518021 0.495918 4.559360 100.000000 28 363.487158
0.682173 0.651546 4.558717 92.000000 27 363.487160
0.959766 0.953570 4.369734 8.000000 25 363.487163
0.922816 0.927042 3.141141 11.000000 23 363.487165
1.083473 1.088803 2.881070 20.000000 21 363.487168
1.546731 1.554326 3.293172 14.000000 19 363.487170
1.769732 1.778416 3.079413 12.000000 17 363.487173
0.367724 0.335704 4.593397 98.000000 29 363.487183
0.841665 0.824482 4.570535 10.000000 26 363.487186
0.898259 0.899233 3.510604 10.000000 24 363.487188
0.967366 0.969082 2.893789 20.000000 22 363.487191
1.382850 1.385768 3.272391 15.000000 20 363.487194
1.728462 1.732101 3.313795 12.000000 18 363.487196
1.756129 1.759822 2.773465 10.000000 16 363.487199
1.063517 1.071349 1.299176 69.000000 13 363.487159
