# .PCD v.7 - Point Cloud Data file format
VERSION .7
FIELDS x y z intensity ring timestamp
SIZE 4 4 4 4 2 8
TYPE F F F F U D
COUNT 1 1 1 1 1 1
WIDTH 930
HEIGHT 1
VIEWPOINT 0 0 0 1 0 0 0
POINTS 930
DATA ascii
-0.707009 1.947763 1.592339 20.000000 12 363.269183
-0.710767 1.959182 1.309835 17.000000 10 363.269185
-0.723204 1.993473 1.067766 20.000000 8 363.269188
-0.203023 0.559921 0.296320 28.000000 6 363.269190
-0.185531 0.511957 0.222053 33.000000 4 363.269193
-0.200645 0.553967 0.174289 33.000000 2 363.269195
-0.743040 2.052617 0.181734 11.000000 0 363.269198
-0.008002 0.052177 4.499102 98.000000 31 363.269209
-0.378780 1.140739 7.641457 8.000000 28 363.269211
-0.415614 1.256152 6.384637 8.000000 27 363.269214
-0.486671 1.378587 4.718070 8.000000 25 363.269216
-0.521505 1.451655 3.693444 9.000000 23 363.269219
-0.557658 1.551457 3.087337 12.000000 21 363.269221
-0.096370 0.268081 0.491033 7.000000 19 363.269224
-0.099333 0.276333 0.428084 8.000000 17 363.269226
-0.161399 0.582883 10.267167 8.000000 30 363.269234
-0.268672 0.879594 8.520811 5.000000 29 363.269237
-0.458990 1.330164 5.451270 8.000000 26 363.269239
-0.500214 1.400053 4.097200 10.000000 24 363.269242
-0.535949 1.498441 3.352874 9.000000 22 363.269244
-0.095484 0.266784 0.533661 10.000000 20 363.269247
-0.098398 0.274936 0.461304 9.000000 18 363.269250
-0.130618 0.364979 0.498538 7.000000 16 363.269252
-0.665867 1.845451 2.007752 4.000000 15 363.269210
-0.702606 1.947281 1.751016 17.000000 13 363.269212
-0.709981 1.968797 1.456779 16.000000 11 363.269215
-0.715853 1.985089 1.190697 18.000000 9 363.269218
-0.721776 2.002609 0.948373 15.000000 7 363.269220
-0.183834 0.510333 0.249282 32.000000 5 363.269223
-0.193114 0.536093 0.199656 37.000000 3 363.269225
-0.222606 0.618305 0.151831 27.000000 1 363.269228
-0.692720 1.929363 1.906312 20.000000 14 363.269236
-0.702937 1.957827 1.598225 19.000000 12 363.269238
-0.706836 1.969767 1.314899 17.000000 10 363.269241
-0.719307 2.004529 1.071962 19.000000 8 363.269243
-0.201067 0.560626 0.296320 28.000000 6 363.269246
-0.185383 0.517177 0.223225 32.000000 4 363.269248
-0.198710 0.554663 0.174289 34.000000 2 363.269251
-0.735870 2.055198 0.181734 12.000000 0 363.269253
-0.007820 0.052204 4.499102 102.000000 31 363.269264
-0.375764 1.145007 7.661213 8.000000 28 363.269267
-0.412176 1.260499 6.399323 8.000000 27 363.269269
-0.483332 1.384508 4.732385 8.000000 25 363.269272
-0.515781 1.451626 3.688842 9.000000 23 363.269274
-0.552239 1.553395 3.087337 13.000000 21 363.269277
-0.095434 0.268416 0.491033 7.000000 19 363.269279
-0.099442 0.279698 0.431921 9.000000 17 363.269282
-0.159742 0.584840 10.292126 8.000000 30 363.269290
-0.265293 0.879504 8.510869 5.000000 29 363.269292
-0.455562 1.335330 5.465788 8.000000 26 363.269295
-0.494174 1.398536 4.087814 10.000000 24 363.269297
-0.529989 1.498250 3.348373 9.000000 22 363.269300
-0.094552 0.267116 0.533661 10.000000 20 363.269303
-0.097438 0.275278 0.461304 9.000000 18 363.269305
-0.133867 0.378216 0.513239 6.000000 16 363.269308
-0.660620 1.851122 2.011257 4.000000 15 363.269265
-0.698421 1.957055 1.757292 17.000000 13 363.269268
-0.704509 1.975202 1.459520 16.000000 11 363.269270
-0.711896 1.995921 1.195333 18.000000 9 363.269273
-0.716338 2.009483 0.950246 11.000000 7 363.269276
-0.182052 0.510971 0.249282 36.000000 5 363.269278
-0.189593 0.532136 0.198723 37.000000 3 363.269281
-0.222117 0.623770 0.152277 25.000000 1 363.269283
-0.685981 1.931769 1.906312 21.000000 14 363.269291
-0.698804 1.967887 1.604111 19.000000 12 363.269294
-0.701398 1.976285 1.317432 17.000000 10 363.269296
-0.715342 2.015582 1.076159 19.000000 8 363.269299
-0.200688 0.565775 0.297963 37.000000 6 363.269301
-0.183576 0.517821 0.223225 32.000000 4 363.269304
-0.196773 0.555354 0.174289 33.000000 2 363.269306
-0.728692 2.057754 0.181734 13.000000 0 363.269309
-0.007638 0.052231 4.499102 102.000000 31 363.269320
-0.372483 1.148530 7.676031 8.000000 28 363.269322
-0.409024 1.265806 6.418904 8.000000 27 363.269325
-0.479958 1.390422 4.746700 8.000000 25 363.269327
-0.509415 1.449731 3.679636 8.000000 23 363.269330
-0.547608 1.557573 3.091726 13.000000 21 363.269332
-0.094496 0.268747 0.491033 7.000000 19 363.269335
-0.099528 0.283068 0.435758 8.000000 17 363.269338
-0.157251 0.583716 10.262176 8.000000 30 363.269345
-0.261765 0.878890 8.495954 5.000000 29 363.269348
-0.452103 1.340488 5.480306 8.000000 26 363.269350
-0.488150 1.396994 4.078429 10.000000 24 363.269353
-0.524756 1.500091 3.348373 9.000000 22 363.269356
-0.092757 0.264983 0.529395 10.000000 20 363.269358
-0.097472 0.278461 0.465293 9.000000 18 363.269361
-0.137026 0.391480 0.527939 5.000000 16 363.269363
-0.655341 1.856780 2.014761 3.000000 15 363.269321
-0.694177 1.966823 1.763567 16.000000 13 363.269323
-0.700392 1.985536 1.465003 16.000000 11 363.269326
-0.707872 2.006750 1.199969 18.000000 9 363.269329
-0.712402 2.020715 0.953992 8.000000 7 363.269331
-0.181861 0.516128 0.250691 51.000000 5 363.269334
-0.189366 0.537428 0.199656 40.000000 3 363.269336
-0.218284 0.619844 0.151831 24.000000 1 363.269339
-0.675522 1.923582 1.896338 24.000000 14 363.269347
-0.693270 1.974128 1.607054 19.000000 12 363.269349
-0.697351 1.986857 1.322497 17.000000 10 363.269352
-0.711308 2.026632 1.080355 19.000000 8 363.269354
-0.198712 0.566473 0.297963 35.000000 6 363.269357
-0.183376 0.523046 0.224397 30.000000 4 363.269359
-0.196471 0.560711 0.174978 33.000000 2 363.269362
-0.724807 2.069715 0.182137 11.000000 0 363.269364
-0.007459 0.052301 4.504102 102.000000 31 363.269375
-0.369182 1.152043 7.690849 8.000000 28 363.269378
-0.405532 1.270136 6.433589 7.000000 27 363.269380
-0.476549 1.396330 4.761015 8.000000 25 363.269383
-0.503711 1.449655 3.675034 8.000000 23 363.269385
-0.542954 1.561738 3.096114 12.000000 21 363.269388
-0.093558 0.269075 0.491033 7.000000 19 363.269390
-0.100645 0.289470 0.443432 8.000000 17 363.269393
-0.154917 0.583141 10.242209 8.000000 30 363.269401
-0.258095 0.877748 8.476068 5.000000 29 363.269403
-0.449012 1.346831 5.499662 7.000000 26 363.269406
-0.482144 1.395428 4.069043 10.000000 24 363.269408
-0.519516 1.501913 3.348373 9.000000 22 363.269411
-0.091832 0.265305 0.529395 10.000000 20 363.269414
-0.096499 0.278799 0.465293 8.000000 18 363.269416
-0.140094 0.404771 0.542640 4.000000 16 363.269419
-0.651206 1.865790 2.021770 2.000000 15 363.269376
-0.687307 1.969234 1.763567 16.000000 13 363.269379
-0.694834 1.991916 1.467744 16.000000 11 363.269382
-0.703781 2.017574 1.204605 17.000000 9 363.269384
-0.706870 2.027567 0.955865 6.000000 7 363.269387
-0.181637 0.521290 0.252100 100.000000 5 363.269389
-0.187489 0.538086 0.199656 41.000000 3 363.269392
-0.219395 0.630008 0.152723 24.000000 1 363.269394
-0.670028 1.929455 1.899663 25.000000 14 363.269402
-0.689027 1.984173 1.612941 19.000000 12 363.269405
-0.693238 1.997425 1.327562 17.000000 10 363.269407
-0.707205 2.037678 1.084551 18.000000 8 363.269410
-0.196733 0.567163 0.297963 21.000000 6 363.269412
-0.181549 0.523683 0.224397 30.000000 4 363.269415
-0.194512 0.561393 0.174978 32.000000 2 363.269417
-0.719212 2.076953 0.182339 11.000000 0 363.269420
-0.007276 0.052327 4.504102 102.000000 31 363.269431
-0.365861 1.155547 7.705667 9.000000 28 363.269433
-0.402014 1.274458 6.448275 7.000000 27 363.269436
-0.473104 1.402230 4.775331 7.000000 25 363.269438
-0.498013 1.449557 3.670431 8.000000 23 363.269441
-0.538278 1.565889 3.100503 12.000000 21 363.269443
-0.092618 0.269400 0.491033 7.000000 19 363.269446
-0.101718 0.295883 0.451106 9.000000 17 363.269449
-0.152662 0.582838 10.227234 8.000000 30 363.269456
-0.254584 0.877105 8.461154 6.000000 29 363.269459
-0.445882 1.353169 5.519019 7.000000 26 363.269461
-0.476154 1.393836 4.059658 10.000000 24 363.269464
-0.514712 1.505868 3.352874 9.000000 22 363.269467
-0.090859 0.265640 0.529395 10.000000 20 363.269469
-0.096452 0.282003 0.469283 8.000000 18 363.269472
-0.141900 0.414905 0.553666 4.000000 16 363.269474
-0.655160 1.898392 2.053311 2.000000 15 363.269432
-0.685509 1.986341 1.776119 17.000000 13 363.269434
-0.689240 1.998283 1.470486 16.000000 11 363.269437
-0.699623 2.028395 1.209241 17.000000 9 363.269440
-0.702810 2.038788 0.959611 6.000000 7 363.269442
-0.179816 0.521921 0.252100 112.000000 5 363.269445
-0.185516 0.538769 0.199656 40.000000 3 363.269447
-0.213843 0.621390 0.151831 30.000000 1 363.269450
-0.670224 1.953091 1.919612 24.000000 14 363.269458
-0.681750 1.986685 1.612941 19.000000 12 363.269460
-0.687311 2.004031 1.330094 17.000000 10 363.269463
-0.702677 2.048842 1.088747 17.000000 8 363.269465
-0.196184 0.572347 0.299606 14.000000 6 363.269468
-0.179628 0.524345 0.224397 29.000000 4 363.269470
-0.194057 0.566788 0.175668 31.000000 2 363.269473
-0.715195 2.088905 0.182742 11.000000 0 363.269476
-0.007084 0.052353 4.504102 102.000000 31 363.269486
-0.362318 1.159105 7.720485 9.000000 28 363.269489
-0.398549 1.279811 6.467856 8.000000 27 363.269491
-0.469378 1.408206 4.789646 7.000000 25 363.269494
-0.491440 1.447673 3.661226 8.000000 23 363.269496
-0.533306 1.570120 3.104891 11.000000 21 363.269499
-0.090725 0.267073 0.486900 7.000000 19 363.269502
-0.103726 0.305361 0.462617 9.000000 17 363.269504
-0.150381 0.582832 10.217251 8.000000 30 363.269512
-0.250928 0.876492 8.446239 6.000000 29 363.269514
-0.442087 1.358382 5.533537 8.000000 26 363.269517
-0.469939 1.392302 4.050272 9.000000 24 363.269520
-0.510150 1.509719 3.357375 9.000000 22 363.269522
-0.089931 0.265955 0.529395 10.000000 20 363.269525
-0.095467 0.282338 0.469283 7.000000 18 363.269527
-0.143708 0.425033 0.564691 5.000000 16 363.269530
-0.653953 1.917658 2.070834 2.000000 15 363.269487
-0.680737 1.996209 1.782394 15.000000 13 363.269490
-0.683260 2.004753 1.473227 16.000000 11 363.269493
-0.695043 2.039333 1.213877 17.000000 9 363.269495
-0.696827 2.045739 0.961484 6.000000 7 363.269498
-0.179448 0.527118 0.253509 111.000000 5 363.269500
-0.183634 0.539414 0.199656 40.000000 3 363.269503
-0.211673 0.622133 0.151831 30.000000 1 363.269505
-0.671801 1.980174 1.942886 23.000000 14 363.269513
-0.678706 2.000536 1.621770 20.000000 12 363.269516
-0.683080 2.014584 1.335159 17.000000 10 363.269518
-0.698435 2.059879 1.092943 17.000000 8 363.269521
-0.194185 0.573029 0.299606 13.000000 6 363.269523
-0.179356 0.529572 0.225570 29.000000 4 363.269526
-0.192078 0.567462 0.175668 31.000000 2 363.269528
-0.710735 2.100977 0.183145 11.000000 0 363.269531
-0.006901 0.052377 4.504102 102.000000 31 363.269542
-0.358499 1.161106 7.725424 9.000000 28 363.269544
-0.394977 1.284115 6.482542 8.000000 27 363.269547
-0.466328 1.415510 4.808733 8.000000 25 363.269549
-0.485141 1.445675 3.652021 8.000000 23 363.269552
-0.529347 1.576514 3.113669 11.000000 21 363.269554
-0.089792 0.267388 0.486900 7.000000 19 363.269557
-0.104701 0.311800 0.470291 7.000000 17 363.269560
-0.148275 0.583073 10.212260 8.000000 30 363.269567
-0.247577 0.876335 8.436296 6.000000 29 363.269570
-0.438882 1.364707 5.552894 8.000000 26 363.269572
-0.463984 1.390660 4.040886 9.000000 24 363.269575
-0.505567 1.513556 3.361875 10.000000 22 363.269578
-0.089829 0.268741 0.533661 10.000000 20 363.269580
-0.094481 0.282669 0.469283 7.000000 18 363.269583
-0.143298 0.428747 0.568366 6.000000 16 363.269585
-0.156234 0.463414 0.560375 4.000000 15 363.269543
-0.671277 1.991195 1.776119 11.000000 13 363.269546
-0.680263 2.019014 1.481452 16.000000 11 363.269548
-0.692163 2.054341 1.220831 17.000000 9 363.269551
-0.692641 2.056946 0.965230 8.000000 7 363.269553
-0.177607 0.527741 0.253509 76.000000 5 363.269556
-0.181750 0.540051 0.199656 42.000000 3 363.269558
-0.209500 0.622868 0.151831 23.000000 1 363.269561
-0.668447 1.993128 1.952860 23.000000 14 363.269569
-0.675575 2.014390 1.630600 16.000000 12 363.269571
-0.678784 2.025131 1.340224 17.000000 10 363.269574
-0.691241 2.062304 1.092943 18.000000 8 363.269576
-0.193684 0.578181 0.301248 10.000000 6 363.269579
-0.177506 0.530195 0.225570 31.000000 4 363.269581
-0.191667 0.572825 0.176358 29.000000 2 363.269584
-0.706566 2.112921 0.183548 11.000000 0 363.269587
-0.006718 0.052401 4.504102 102.000000 31 363.269597
-0.355349 1.165323 7.745181 8.000000 28 363.269600
-0.391675 1.289383 6.502123 8.000000 27 363.269602
-0.462771 1.421390 4.823048 8.000000 25 363.269605
-0.479477 1.445505 3.647419 7.000000 23 363.269607
-0.524595 1.580626 3.118057 10.000000 21 363.269610
-0.088858 0.267700 0.486900 7.000000 19 363.269613
-0.106641 0.321291 0.481801 7.000000 17 363.269615
-0.146271 0.583280 10.207268 8.000000 30 363.269623
-0.244384 0.876122 8.426354 6.000000 29 363.269625
-0.435878 1.370950 5.572250 9.000000 26 363.269628
-0.458829 1.390552 4.036194 9.000000 24 363.269631
-0.501646 1.519447 3.370877 11.000000 22 363.269633
-0.088890 0.269053 0.533661 10.000000 20 363.269636
-0.092548 0.280136 0.465293 8.000000 18 363.269638
-0.142940 0.432439 0.572041 6.000000 16 363.269641
-0.154616 0.463956 0.560375 4.000000 15 363.269598
-0.671890 2.017409 1.478710 13.000000 11 363.269604
-0.684988 2.056744 1.220831 17.000000 9 363.269606
-0.685816 2.059231 0.965230 13.000000 7 363.269609
-0.177371 0.532879 0.254918 39.000000 5 363.269611
-0.179864 0.540682 0.199656 44.000000 3 363.269614
-0.667361 2.013173 1.969484 22.000000 14 363.269624
-0.665995 2.009062 1.624713 11.000000 12 363.269627
-0.674778 2.035556 1.345289 15.000000 10 363.269629
-0.688682 2.077509 1.099237 18.000000 8 363.269632
-0.191765 0.578820 0.301248 19.000000 6 363.269634
-0.177275 0.535395 0.226742 37.000000 4 363.269637
-0.189767 0.573457 0.176358 28.000000 2 363.269640
-0.704262 2.129483 0.184153 12.000000 0 363.269642
-0.006545 0.052423 4.504102 102.000000 31 363.269653
-0.351483 1.166495 7.745181 7.000000 28 363.269655
-0.388274 1.293601 6.516809 8.000000 27 363.269658
-0.459885 1.428603 4.842134 8.000000 25 363.269660
-0.473463 1.443375 3.638214 7.000000 23 363.269663
-0.520845 1.586910 3.126835 10.000000 21 363.269666
-0.087970 0.267993 0.486900 7.000000 19 363.269668
-0.109574 0.333827 0.497149 6.000000 17 363.269671
-0.144234 0.583787 10.207268 8.000000 30 363.269678
-0.241042 0.875940 8.416411 6.000000 29 363.269681
-0.432220 1.376063 5.586768 9.000000 26 363.269684
-0.452902 1.388864 4.026808 9.000000 24 363.269686
-0.497956 1.525243 3.379879 12.000000 22 363.269689
-0.087997 0.269346 0.533661 9.000000 20 363.269691
-0.091619 0.280441 0.465293 9.000000 18 363.269694
-0.141429 0.432935 0.572041 6.000000 16 363.269696
-0.157541 0.478015 0.574393 4.000000 15 363.269654
-0.968415 2.938519 2.576252 12.000000 13 363.269657
-0.669121 2.031540 1.486935 9.000000 11 363.269659
-0.685093 2.080044 1.232421 16.000000 9 363.269662
-0.685871 2.083630 0.974595 13.000000 7 363.269664
-0.175510 0.533495 0.254918 31.000000 5 363.269667
-0.178070 0.541276 0.199656 42.000000 3 363.269669
-0.663008 2.022472 1.976134 17.000000 14 363.269680
-0.670353 2.046093 1.350353 6.000000 10 363.269685
-0.687079 2.097152 1.107629 18.000000 8 363.269687
-0.191213 0.583974 0.302891 20.000000 6 363.269690
-0.176917 0.540630 0.227914 44.000000 4 363.269692
-0.189303 0.578823 0.177048 27.000000 2 363.269695
-0.701480 2.146174 0.184757 12.000000 0 363.269698
-0.006352 0.052447 4.504102 102.000000 31 363.269708
-0.384686 1.298921 6.536389 8.000000 27 363.269713
-0.456456 1.435973 4.861221 8.000000 25 363.269716
-0.466965 1.441383 3.629009 8.000000 23 363.269718
-0.516503 1.593366 3.135612 9.000000 21 363.269721
-0.086987 0.268314 0.486900 7.000000 19 363.269723
-0.112304 0.346425 0.512497 5.000000 17 363.269726
-0.142161 0.584594 10.212260 8.000000 30 363.269734
-0.237551 0.875787 8.406468 6.000000 29 363.269736
-0.428291 1.381242 5.601286 9.000000 26 363.269739
-0.446751 1.387229 4.017423 9.000000 24 363.269741
-0.493031 1.529130 3.384380 13.000000 22 363.269744
-0.087010 0.269667 0.533661 9.000000 20 363.269746
-0.091516 0.283643 0.469283 9.000000 18 363.269749
-0.139842 0.433450 0.572041 7.000000 16 363.269752
-0.156892 0.481980 0.577897 4.000000 15 363.269709
-0.962458 2.956856 2.588803 12.000000 13 363.269712
-0.935897 2.876960 2.068126 10.000000 11 363.269714
-0.670613 2.061476 1.220831 10.000000 9 363.269717
-0.675363 2.077312 0.970849 11.000000 7 363.269720
-0.173554 0.534135 0.254918 18.000000 5 363.269722
-0.176085 0.541925 0.199656 41.000000 3 363.269725
-0.968189 2.990415 2.372276 14.000000 12 363.269738
-0.677990 2.095338 1.105531 15.000000 8 363.269743
-0.189072 0.584671 0.302891 20.000000 6 363.269745
-0.176429 0.545900 0.229087 45.000000 4 363.269748
-0.187180 0.579513 0.177048 25.000000 2 363.269750
-0.698214 2.162994 0.185362 11.000000 0 363.269753
-0.006169 0.052469 4.504102 102.000000 31 363.269764
-0.381005 1.303187 6.551075 8.000000 27 363.269769
-0.453230 1.443257 4.880309 8.000000 25 363.269771
-0.460740 1.439283 3.619804 8.000000 23 363.269774
-0.511669 1.597441 3.140001 9.000000 21 363.269776
-0.086050 0.268616 0.486900 7.000000 19 363.269779
-0.115006 0.359028 0.527845 5.000000 17 363.269781
-0.140254 0.585650 10.222242 8.000000 30 363.269789
-0.234355 0.876095 8.401497 6.000000 29 363.269792
-0.424571 1.386337 5.615803 9.000000 26 363.269794
-0.441382 1.387136 4.012730 9.000000 24 363.269797
-0.488351 1.532917 3.388880 13.000000 22 363.269799
-0.086068 0.269969 0.533661 9.000000 20 363.269802
-0.090525 0.283961 0.469283 10.000000 18 363.269805
-0.138328 0.433936 0.572041 7.000000 16 363.269807
-0.154117 0.479130 0.574393 4.000000 15 363.269765
-0.946171 2.941668 2.573114 12.000000 13 363.269767
-0.951441 2.959826 2.122955 12.000000 11 363.269770
-0.675198 2.101726 0.980215 5.000000 7 363.269775
-0.171688 0.534737 0.254918 16.000000 5 363.269778
-0.174192 0.542536 0.199656 40.000000 3 363.269780
-0.928430 2.902132 2.794047 12.000000 14 363.269790
-0.954050 2.982227 2.363447 14.000000 12 363.269793
-0.974732 3.048709 1.965733 13.000000 10 363.269796
-0.187030 0.585327 0.302891 20.000000 6 363.269801
-0.176001 0.551143 0.230259 46.000000 4 363.269803
-0.186662 0.584881 0.177738 23.000000 2 363.269806
-0.695213 2.179697 0.185967 9.000000 0 363.269808
-0.005986 0.052490 4.504102 102.000000 31 363.269819
-0.455682 1.573213 10.412379 5.000000 28 363.269822
-0.377300 1.307445 6.565760 8.000000 27 363.269824
-0.449516 1.449110 4.894623 8.000000 25 363.269827
-0.454535 1.437157 3.610599 8.000000 23 363.269829
-0.507535 1.603786 3.148778 10.000000 21 363.269832
-0.085961 0.271598 0.491033 7.000000 19 363.269834
-0.117621 0.371653 0.543193 5.000000 17 363.269837
-0.138274 0.586418 10.227234 9.000000 30 363.269845
-0.231159 0.876391 8.396525 6.000000 29 363.269847
-0.420821 1.391423 5.630321 8.000000 26 363.269850
-0.435503 1.385375 4.003345 9.000000 24 363.269852
-0.482997 1.534612 3.388880 12.000000 22 363.269855
-0.084342 0.267780 0.529395 9.000000 20 363.269858
-0.090439 0.287150 0.473272 10.000000 18 363.269860
-0.136812 0.434416 0.572041 7.000000 16 363.269863
-0.152443 0.479665 0.574393 5.000000 15 363.269820
-0.934718 2.941243 2.569976 12.000000 13 363.269823
-0.922118 2.903350 2.081833 13.000000 11 363.269825
-0.983417 3.096365 1.786429 13.000000 9 363.269828
-0.907690 2.859663 1.300503 3.000000 7 363.269831
-0.168370 0.530760 0.253509 16.000000 5 363.269833
-0.173783 0.547823 0.200589 47.000000 3 363.269836
-0.925046 2.926719 2.813996 13.000000 14 363.269846
-0.938762 2.970122 2.351674 14.000000 12 363.269849
-0.961487 3.043871 1.960668 13.000000 10 363.269851
-0.983230 3.112714 1.596476 14.000000 8 363.269854
-0.184985 0.585976 0.302891 15.000000 6 363.269856
-0.175538 0.556389 0.231431 48.000000 4 363.269859
-0.184619 0.585529 0.177738 22.000000 2 363.269861
-0.692105 2.196405 0.186571 9.000000 0 363.269864
-0.005803 0.052510 4.504102 102.000000 31 363.269875
-0.449547 1.572553 10.397561 5.000000 28 363.269877
-0.373848 1.312671 6.585341 8.000000 27 363.269880
-0.446205 1.456382 4.913710 8.000000 25 363.269882
-0.448933 1.436870 3.605996 9.000000 23 363.269885
-0.502648 1.607834 3.153167 10.000000 21 363.269887
-0.085012 0.271896 0.491033 7.000000 19 363.269890
-0.120149 0.384301 0.558540 5.000000 17 363.269892
-0.136746 0.589154 10.267167 9.000000 30 363.269900
-0.227831 0.876159 8.386583 6.000000 29 363.269903
-0.417041 1.396499 5.644838 8.000000 26 363.269905
-0.430152 1.385239 3.998652 8.000000 24 363.269908
-0.477637 1.536289 3.388880 11.000000 22 363.269910
-0.083406 0.268073 0.529395 9.000000 20 363.269913
-0.091226 0.293220 0.481251 11.000000 18 363.269916
-0.136302 0.438128 0.575717 7.000000 16 363.269918
-0.150768 0.480194 0.574393 5.000000 15 363.269876
-0.922113 2.937059 2.563701 12.000000 13 363.269878
-0.890697 2.838727 2.035228 14.000000 11 363.269881
-0.965972 3.078644 1.774839 13.000000 9 363.269884
-0.166516 0.531345 0.253509 31.000000 5 363.269889
-0.171869 0.548427 0.200589 37.000000 3 363.269891
-0.914824 2.929931 2.813996 13.000000 14 363.269902
-0.928388 2.973381 2.351674 14.000000 12 363.269904
-0.948287 3.038977 1.955603 14.000000 10 363.269907
-0.969654 3.107462 1.592279 14.000000 8 363.269909
-0.182939 0.586619 0.302891 9.000000 6 363.269912
-0.175041 0.561639 0.232603 45.000000 4 363.269914
-0.182574 0.586169 0.177738 19.000000 2 363.269917
-0.685919 2.203578 0.186773 9.000000 0 363.269919
-0.005620 0.052530 4.504102 102.000000 31 363.269930
-0.444477 1.575608 10.407440 4.000000 28 363.269933
-0.370090 1.316909 6.600027 8.000000 27 363.269935
-0.442416 1.462220 4.928026 7.000000 25 363.269938
-0.442762 1.434695 3.596791 9.000000 23 363.269940
-0.498447 1.614157 3.161944 10.000000 21 363.269943
-0.084893 0.274880 0.495166 7.000000 19 363.269945
-0.120698 0.390844 0.566214 5.000000 17 363.269948
-0.134241 0.587651 10.232225 9.000000 30 363.269956
-0.224639 0.876432 8.381612 7.000000 29 363.269958
-0.413231 1.401566 5.659356 8.000000 26 363.269961
-0.424302 1.383433 3.989266 8.000000 24 363.269963
-0.472272 1.537947 3.388880 11.000000 22 363.269966
-0.082470 0.268363 0.529395 9.000000 20 363.269969
-0.091087 0.296418 0.485241 11.000000 18 363.269971
-0.134772 0.438601 0.575717 7.000000 16 363.269974
-0.149091 0.480718 0.574393 5.000000 15 363.269931
-0.910702 2.936542 2.560563 13.000000 13 363.269934
-0.905540 2.921699 2.090057 14.000000 11 363.269936
-0.953908 3.077766 1.772521 13.000000 9 363.269939
-0.979605 3.162629 1.425996 6.000000 7 363.269942
-0.166079 0.536506 0.254918 33.000000 5 363.269944
-0.171406 0.553716 0.201521 37.000000 3 363.269947
-0.902390 2.925969 2.807346 13.000000 14 363.269957
-0.915621 2.968879 2.345788 14.000000 12 363.269960
-0.933864 3.029909 1.948006 13.000000 10 363.269962
-0.956128 3.102153 1.588083 15.000000 8 363.269965
-0.180890 0.587254 0.302891 6.000000 6 363.269967
-0.174510 0.566892 0.233776 47.000000 4 363.269970
-0.179071 0.582070 0.177048 17.000000 2 363.269972
-0.682627 2.220285 0.187377 9.000000 0 363.269975
-0.005435 0.052506 4.499102 102.000000 31 363.269986
-0.366578 1.322118 6.619608 8.000000 27 363.269991
-0.438591 1.468048 4.942341 7.000000 25 363.269993
-0.436612 1.432494 3.587586 9.000000 23 363.269996
-0.493508 1.618179 3.166333 10.000000 21 363.269998
-0.083933 0.275175 0.495166 7.000000 19 363.270001
-0.120269 0.394330 0.570051 6.000000 17 363.270004
-0.132252 0.588399 10.237218 9.000000 30 363.270011
-0.221448 0.876693 8.376640 6.000000 29 363.270014
-0.409741 1.407831 5.678713 8.000000 26 363.270016
-0.418971 1.383254 3.984573 9.000000 24 363.270019
-0.466900 1.539586 3.388880 10.000000 22 363.270022
-0.081533 0.268649 0.529395 9.000000 20 363.270024
-0.091803 0.302502 0.493220 10.000000 18 363.270027
-0.133240 0.439069 0.575717 7.000000 16 363.270029
-0.147412 0.481235 0.574393 5.000000 15 363.269987
-0.898166 2.932259 2.554287 12.000000 13 363.269989
-0.897784 2.932839 2.095540 13.000000 11 363.269992
-0.941862 3.076840 1.770203 14.000000 9 363.269995
-0.959066 3.134998 1.412885 13.000000 7 363.269997
-0.164205 0.537082 0.254918 22.000000 5 363.270000
-0.169472 0.554311 0.201521 34.000000 3 363.270002
-0.889995 2.921957 2.800696 13.000000 14 363.270013
-0.904074 2.968190 2.342844 15.000000 12 363.270015
-0.922026 3.029026 1.945474 13.000000 10 363.270018
-0.942650 3.096788 1.583887 15.000000 8 363.270020
-0.178839 0.587881 0.302891 7.000000 6 363.270023
-0.172530 0.567498 0.233776 79.000000 4 363.270025
-0.177038 0.582691 0.177048 16.000000 2 363.270028
-0.677776 2.232215 0.187780 9.000000 0 363.270030
-0.005252 0.052525 4.499102 98.000000 31 363.270041
-0.363034 1.327319 6.639189 9.000000 27 363.270046
-0.435154 1.475301 4.961428 8.000000 25 363.270049
-0.430483 1.430268 3.578381 9.000000 23 363.270051
-0.489238 1.624480 3.175110 11.000000 21 363.270054
-0.082972 0.275466 0.495166 7.000000 19 363.270056
-0.119816 0.397817 0.573888 6.000000 17 363.270059
-0.130073 0.588291 10.227234 9.000000 30 363.270067
-0.218129 0.876424 8.366697 6.000000 29 363.270069
-0.405866 1.412879 5.693231 8.000000 26 363.270072
-0.414140 1.384708 3.984573 9.000000 24 363.270074
-0.460899 1.539120 3.384380 10.000000 22 363.270077
-0.081343 0.271430 0.533661 9.000000 20 363.270080
-0.092476 0.308595 0.501199 10.000000 18 363.270082
-0.131707 0.439532 0.575717 7.000000 16 363.270085
-0.146764 0.485160 0.577897 6.000000 15 363.270042
-0.885671 2.927924 2.548012 12.000000 13 363.270045
-0.900850 2.979983 2.125696 13.000000 11 363.270048
-0.928552 3.071628 1.765567 14.000000 9 363.270050
-0.946776 3.133888 1.411012 17.000000 7 363.270053
-0.163716 0.542245 0.256328 19.000000 5 363.270055
-0.167537 0.554899 0.201521 34.000000 3 363.270058
-0.877639 2.917894 2.794047 13.000000 14 363.270068
-0.891380 2.963587 2.336958 15.000000 12 363.270071
-0.908965 3.023968 1.940409 13.000000 10 363.270073
-0.929222 3.091367 1.579691 14.000000 8 363.270076
-0.176786 0.588502 0.302891 8.000000 6 363.270078
-0.171945 0.572752 0.234948 31.000000 4 363.270081
-0.176426 0.588049 0.177738 16.000000 2 363.270083
-0.671415 2.239353 0.187982 9.000000 0 363.270086
-0.005068 0.052543 4.499102 98.000000 31 363.270097
-0.294218 1.085906 7.152470 3.000000 28 363.270099
-0.359723 1.333493 6.663665 8.000000 27 363.270102
-0.431254 1.481113 4.975743 8.000000 25 363.270104
-0.424932 1.429889 3.573778 9.000000 23 363.270107
-0.484930 1.630770 3.183887 11.000000 21 363.270109
-0.081208 0.273057 0.491033 7.000000 19 363.270112
-0.118426 0.398233 0.573888 6.000000 17 363.270115
-0.127958 0.588459 10.222242 9.000000 30 363.270122
-0.215069 0.877180 8.366697 6.000000 29 363.270125
-0.402303 1.419128 5.712587 8.000000 26 363.270127
-0.408815 1.384490 3.979880 9.000000 24 363.270130
-0.455523 1.540720 3.384380 10.000000 22 363.270133
-0.080395 0.271712 0.533661 9.000000 20 363.270135
-0.090543 0.306026 0.497209 9.000000 18 363.270138
-0.130172 0.439989 0.575717 7.000000 16 363.270140
-0.145069 0.485670 0.577897 6.000000 15 363.270098
-0.873217 2.923537 2.541736 13.000000 13 363.270100
-0.890443 2.983109 2.125696 13.000000 11 363.270103
-0.915290 3.066360 1.760931 14.000000 9 363.270106
-0.933181 3.128289 1.407266 17.000000 7 363.270108
-0.163193 0.547410 0.257737 19.000000 5 363.270111
-0.167002 0.560188 0.202454 35.000000 3 363.270113
-0.865322 2.913779 2.787397 12.000000 14 363.270124
-0.878728 2.958930 2.331072 15.000000 12 363.270126
-0.897178 3.022990 1.937876 14.000000 10 363.270129
-0.917134 3.090241 1.577593 14.000000 8 363.270131
-0.174730 0.589116 0.302891 12.000000 6 363.270134
-0.169945 0.573349 0.234948 31.000000 4 363.270136
-0.174372 0.588661 0.177738 16.000000 2 363.270139
-0.004885 0.052560 4.499102 102.000000 31 363.270152
-0.290226 1.086176 7.147531 4.000000 28 363.270155
-0.356112 1.338677 6.683246 8.000000 27 363.270157
-0.427731 1.488351 4.994830 8.000000 25 363.270160
-0.418838 1.427614 3.564573 9.000000 23 363.270162
-0.479910 1.634752 3.188276 11.000000 21 363.270165
-0.080254 0.273338 0.491033 7.000000 19 363.270168
-0.117036 0.398644 0.573888 7.000000 17 363.270170
-0.125903 0.588902 10.222242 9.000000 30 363.270178
-0.211881 0.877406 8.361726 6.000000 29 363.270180
-0.398701 1.425369 5.731944 8.000000 26 363.270183
-0.403014 1.382595 3.970495 9.000000 24 363.270186
-0.449532 1.540210 3.379879 10.000000 22 363.270188
-0.079446 0.271991 0.533661 8.000000 20 363.270191
-0.092009 0.315019 0.509178 8.000000 18 363.270193
-0.128635 0.440440 0.575717 7.000000 16 363.270196
-0.144382 0.489594 0.581402 6.000000 15 363.270153
-0.860804 2.919100 2.535461 12.000000 13 363.270156
-0.878842 2.982188 2.122955 13.000000 11 363.270159
-0.902076 3.061038 1.756295 13.000000 9 363.270161
-0.920946 3.127081 1.405393 17.000000 7 363.270164
-0.163990 0.557181 0.260555 21.000000 5 363.270166
-0.165046 0.560767 0.202454 35.000000 3 363.270169
-0.853045 2.909615 2.780747 12.000000 14 363.270179
-0.866120 2.954222 2.325186 15.000000 12 363.270182
-0.884196 3.017828 1.932811 14.000000 10 363.270184
-0.903789 3.084713 1.573397 15.000000 8 363.270187
-0.174000 0.594254 0.304534 14.000000 6 363.270189
-0.167943 0.573938 0.234948 30.000000 4 363.270192
-0.173706 0.594020 0.178428 15.000000 2 363.270194
-0.978077 3.346921 0.234334 11.000000 0 363.270197
-0.004701 0.052577 4.499102 102.000000 31 363.270208
-0.285839 1.084928 7.132713 5.000000 28 363.270210
-0.352727 1.344837 6.707722 9.000000 27 363.270213
-0.423755 1.494146 5.009145 8.000000 25 363.270215
-0.413309 1.427191 3.559971 8.000000 23 363.270218
-0.475534 1.641019 3.197053 11.000000 21 363.270220
-0.079299 0.273617 0.491033 7.000000 19 363.270223
-0.114751 0.395971 0.570051 6.000000 17 363.270226
-0.123906 0.589621 10.227234 10.000000 30 363.270233
-0.208817 0.878141 8.361726 6.000000 29 363.270236
-0.395396 1.432815 5.756140 9.000000 26 363.270238
-0.397708 1.382335 3.965802 9.000000 24 363.270241
-0.444153 1.541770 3.379879 10.000000 22 363.270244
-0.079219 0.274773 0.537927 8.000000 20 363.270246
-0.091744 0.318234 0.513167 5.000000 18 363.270249
-0.127097 0.440887 0.575717 7.000000 16 363.270251
-0.142672 0.490095 0.581402 7.000000 15 363.270209
-0.848433 2.914612 2.529185 12.000000 13 363.270212
-0.866091 2.977208 2.117472 12.000000 11 363.270214
-0.890148 3.059914 1.753977 13.000000 9 363.270217
-0.908730 3.125825 1.403520 18.000000 7 363.270219
-0.163382 0.562357 0.261964 24.000000 5 363.270222
-0.163087 0.561340 0.202454 35.000000 3 363.270224
-0.840807 2.905401 2.774098 13.000000 14 363.270235
-0.853555 2.949462 2.319299 14.000000 12 363.270237
-0.871261 3.012613 1.927747 14.000000 10 363.270240
-0.891755 3.083489 1.571299 15.000000 8 363.270242
-0.173236 0.599395 0.306176 11.000000 6 363.270245
-0.167287 0.579191 0.236120 29.000000 4 363.270247
-0.173005 0.599380 0.179117 16.000000 2 363.270250
-0.965003 3.345515 0.234132 11.000000 0 363.270253
-0.004518 0.052593 4.499102 102.000000 31 363.270263
-0.282245 1.086671 7.137652 6.000000 28 363.270266
-0.348030 1.346060 6.707722 8.000000 27 363.270268
-0.419744 1.499931 5.023460 8.000000 25 363.270271
-0.407250 1.424868 3.550766 8.000000 23 363.270273
-0.471120 1.647276 3.205831 11.000000 21 363.270276
-0.079117 0.276597 0.495166 8.000000 19 363.270279
-0.113368 0.396369 0.570051 7.000000 17 363.270281
-0.121905 0.590334 10.232225 9.000000 30 363.270289
-0.205750 0.878864 8.361726 6.000000 29 363.270291
-0.391713 1.439041 5.775497 9.000000 26 363.270294
-0.391938 1.380395 3.956417 10.000000 24 363.270297
-0.438769 1.543311 3.379879 10.000000 22 363.270299
-0.078259 0.275048 0.537927 8.000000 20 363.270302
-0.125557 0.441328 0.575717 7.000000 16 363.270307
-0.140960 0.490590 0.581402 7.000000 15 363.270264
-0.837179 2.913814 2.526047 12.000000 13 363.270267
-0.854540 2.976194 2.114731 12.000000 11 363.270270
-0.877016 3.054486 1.749341 14.000000 9 363.270272
-0.895256 3.120066 1.399774 18.000000 7 363.270275
-0.162741 0.567535 0.263373 65.000000 5 363.270277
-0.161127 0.561906 0.202454 35.000000 3 363.270280
-0.828609 2.901137 2.767448 13.000000 14 363.270290
-0.841034 2.944651 2.313413 14.000000 12 363.270293
-0.859556 3.011491 1.925214 14.000000 10 363.270295
-0.878495 3.077854 1.567103 15.000000 8 363.270298
-0.173733 0.609078 0.309462 7.000000 6 363.270300
-0.165264 0.579771 0.236120 29.000000 4 363.270303
-0.172268 0.604743 0.179807 15.000000 2 363.270306
-0.949216 3.334447 0.233528 11.000000 0 363.270308
-0.004334 0.052608 4.499102 102.000000 31 363.270319
-0.277296 1.083133 7.108016 7.000000 28 363.270321
-0.342827 1.345293 6.697932 6.000000 27 363.270324
-0.415698 1.505706 5.037775 8.000000 25 363.270326
-0.401744 1.424401 3.546163 8.000000 23 363.270329
-0.466669 1.653522 3.214608 11.000000 21 363.270332
-0.078151 0.276872 0.495166 8.000000 19 363.270334
-0.111113 0.393677 0.566214 7.000000 17 363.270337
-0.119900 0.591039 10.237218 10.000000 30 363.270344
-0.202681 0.879577 8.361726 7.000000 29 363.270347
-0.388643 1.447689 5.804533 9.000000 26 363.270350
-0.386651 1.380093 3.951724 10.000000 24 363.270352
-0.433379 1.544833 3.379879 10.000000 22 363.270355
-0.077298 0.275319 0.537927 8.000000 20 363.270357
-0.123099 0.438499 0.572041 7.000000 16 363.270362
-0.139247 0.491079 0.581402 8.000000 15 363.270320
-0.824879 2.909228 2.519772 12.000000 13 363.270323
-0.841866 2.971112 2.109248 12.000000 11 363.270325
-0.863934 3.049004 1.744705 14.000000 9 363.270328
-0.883097 3.118711 1.397901 18.000000 7 363.270330
-0.162065 0.572716 0.264783 89.000000 5 363.270333
-0.160502 0.567192 0.203387 53.000000 3 363.270335
-0.816451 2.896823 2.760798 12.000000 14 363.270346
-0.829654 2.943678 2.310470 15.000000 12 363.270348
-0.846701 3.006173 1.920149 14.000000 10 363.270351
-0.866516 3.076533 1.565005 15.000000 8 363.270353
-0.171606 0.609681 0.309462 6.000000 6 363.270356
-0.163239 0.580344 0.236120 32.000000 4 363.270358
-0.171496 0.610108 0.180497 14.000000 2 363.270361
-0.936220 3.332931 0.233326 11.000000 0 363.270364
-0.004150 0.052623 4.499102 103.000000 31 363.270374
-0.272944 1.081834 7.093199 8.000000 28 363.270377
-0.337882 1.345494 6.693037 6.000000 27 363.270379
-0.411617 1.511471 5.052090 8.000000 25 363.270382
-0.395722 1.422030 3.536958 8.000000 23 363.270384
-0.462180 1.659757 3.223385 11.000000 21 363.270387
-0.077939 0.279854 0.499299 8.000000 19 363.270389
-0.108878 0.390974 0.562377 6.000000 17 363.270392
-0.117949 0.592023 10.247201 10.000000 30 363.270400
-0.199727 0.880800 8.366697 7.000000 29 363.270402
-0.385839 1.457548 5.838407 9.000000 26 363.270405
-0.380912 1.378107 3.942338 10.000000 24 363.270407
-0.427984 1.546336 3.379879 10.000000 22 363.270410
-0.075641 0.273074 0.533661 8.000000 20 363.270412
-0.121568 0.438926 0.572041 7.000000 16 363.270418
-0.138493 0.494996 0.584906 8.000000 15 363.270375
-0.812621 2.904592 2.513496 12.000000 13 363.270378
-0.830364 2.970006 2.106506 12.000000 11 363.270380
-0.852092 3.047734 1.742387 14.000000 9 363.270383
-0.869710 3.112845 1.394155 19.000000 7 363.270386
-0.160065 0.573278 0.264783 37.000000 5 363.270388
-0.159842 0.572480 0.204319 99.000000 3 363.270391
-0.804333 2.892459 2.754149 12.000000 14 363.270401
-0.817208 2.938767 2.304584 15.000000 12 363.270404
-0.833894 3.000803 1.915085 14.000000 10 363.270406
-0.853341 3.070794 1.560809 15.000000 8 363.270409
-0.163159 0.587525 0.301248 4.000000 6 363.270411
-0.162512 0.585594 0.237293 25.000000 4 363.270414
-0.170689 0.615475 0.181187 12.000000 2 363.270416
-0.921911 3.326549 0.232923 12.000000 0 363.270419
-0.003967 0.052637 4.499102 103.000000 31 363.270430
-0.268604 1.080518 7.078381 8.000000 28 363.270432
-0.330740 1.336780 6.644084 6.000000 27 363.270435
-0.407500 1.517226 5.066406 8.000000 25 363.270437
-0.389721 1.419635 3.527753 9.000000 23 363.270440
-0.458287 1.668290 3.236551 11.000000 21 363.270442
-0.077707 0.282838 0.503432 9.000000 19 363.270445
-0.106664 0.388260 0.558540 6.000000 17 363.270447
-0.115936 0.592715 10.252192 10.000000 30 363.270455
-0.196651 0.881492 8.366697 6.000000 29 363.270458
-0.382019 1.463755 5.857763 9.000000 26 363.270460
-0.375645 1.377764 3.937645 10.000000 24 363.270463
-0.422010 1.545720 3.375378 10.000000 22 363.270465
-0.075375 0.275852 0.537927 8.000000 20 363.270468
-0.093646 0.342744 0.545083 5.000000 18 363.270471
-0.119142 0.436078 0.568366 7.000000 16 363.270473
-0.136764 0.495477 0.584906 9.000000 15 363.270431
-0.800406 2.899905 2.507221 12.000000 13 363.270433
-0.817768 2.964824 2.101023 12.000000 11 363.270436
-0.839093 3.042149 1.737751 14.000000 9 363.270438
-0.855143 3.102454 1.388536 19.000000 7 363.270441
-0.159337 0.578458 0.266192 20.000000 5 363.270444
-0.159147 0.577770 0.205252 53.000000 3 363.270446
-0.792256 2.888047 2.747499 13.000000 14 363.270456
-0.805875 2.937704 2.301640 15.000000 12 363.270459
-0.821134 2.995379 1.910020 14.000000 10 363.270462
-0.841417 3.069377 1.558711 15.000000 8 363.270464
-0.162355 0.592646 0.302891 4.000000 6 363.270467
-0.160467 0.586158 0.237293 19.000000 4 363.270469
-0.169846 0.620844 0.181877 11.000000 2 363.270472
-0.908976 3.324928 0.232722 12.000000 0 363.270474
-0.003783 0.052695 4.504102 102.000000 31 363.270485
-0.264277 1.079184 7.063563 8.000000 28 363.270488
-0.326313 1.338916 6.648979 8.000000 27 363.270490
-0.402966 1.521527 5.075949 8.000000 25 363.270493
-0.383232 1.415330 3.513946 7.000000 23 363.270495
-0.454340 1.676817 3.249717 11.000000 21 363.270498
-0.076720 0.283107 0.503432 8.000000 19 363.270500
-0.105308 0.388630 0.558540 6.000000 17 363.270503
-0.113921 0.593400 10.257183 9.000000 30 363.270511
-0.193573 0.882173 8.366697 6.000000 29 363.270513
-0.380979 1.480916 5.920673 11.000000 26 363.270516
-0.369938 1.375733 3.928260 11.000000 24 363.270518
-0.416612 1.547183 3.375378 10.000000 22 363.270521
-0.074411 0.276114 0.537927 8.000000 20 363.270524
-0.090881 0.337248 0.537104 5.000000 18 363.270526
-0.117619 0.436491 0.568366 7.000000 16 363.270529
-0.135034 0.495951 0.584906 9.000000 15 363.270486
-0.789256 2.898926 2.504083 12.000000 13 363.270489
-0.806316 2.963626 2.098282 12.000000 11 363.270491
-0.826142 3.036510 1.733115 14.000000 9 363.270494
-0.841876 3.096473 1.384790 18.000000 7 363.270497
-0.157316 0.579011 0.266192 21.000000 5 363.270499
-0.158417 0.583063 0.206184 34.000000 3 363.270502
-0.780219 2.883585 2.740849 13.000000 14 363.270512
-0.793504 2.932696 2.295754 15.000000 12 363.270515
-0.808423 2.989904 1.904955 14.000000 10 363.270517
-0.828328 3.063533 1.554515 15.000000 8 363.270520
-0.158420 0.586715 0.237293 14.000000 4 363.270525
-0.167678 0.621433 0.181877 10.000000 2 363.270527
-0.894763 3.318434 0.232319 12.000000 0 363.270530
-0.003599 0.052707 4.504102 102.000000 31 363.270541
-0.259963 1.077834 7.048746 9.000000 28 363.270543
-0.320213 1.334106 6.619608 9.000000 27 363.270546
-0.398407 1.525814 5.085493 9.000000 25 363.270548
-0.377281 1.412884 3.504740 7.000000 23 363.270551
-0.449721 1.683022 3.258495 11.000000 21 363.270553
-0.075731 0.283373 0.503432 8.000000 19 363.270556
-0.103123 0.385898 0.554703 6.000000 17 363.270558
-0.111955 0.594364 10.267167 9.000000 30 363.270566
-0.190380 0.882321 8.361726 6.000000 29 363.270569
-0.376117 1.483456 5.925512 11.000000 26 363.270571
-0.364691 1.375348 3.923567 11.000000 24 363.270574
-0.410650 1.546524 3.370877 11.000000 22 363.270576
-0.482652 1.816439 3.144413 3.000000 20 363.270579
-0.088929 0.334650 0.533115 4.000000 18 363.270582
-0.116094 0.436899 0.568366 7.000000 16 363.270584
-0.133302 0.496419 0.584906 9.000000 15 363.270542
-0.776104 2.890384 2.494670 13.000000 13 363.270544
-0.793799 2.958346 2.092799 12.000000 11 363.270547
-0.813242 3.030817 1.728479 14.000000 9 363.270550
-0.828661 3.090437 1.381044 17.000000 7 363.270552
-0.155294 0.579556 0.266192 18.000000 5 363.270555
-0.156381 0.583612 0.206184 33.000000 3 363.270557
-0.769186 2.882683 2.737525 13.000000 14 363.270568
-0.781178 2.927637 2.289868 15.000000 12 363.270570
-0.796871 2.988542 1.902422 14.000000 10 363.270573
-0.815291 3.057635 1.550318 15.000000 8 363.270575
-0.155121 0.582567 0.236120 12.000000 4 363.270580
-0.165508 0.622015 0.181877 15.000000 2 363.270583
-0.880607 3.311880 0.231916 12.000000 0 363.270585
-0.003415 0.052720 4.504102 102.000000 31 363.270596
-0.255840 1.077223 7.038867 9.000000 28 363.270599
-0.312514 1.322333 6.555970 8.000000 27 363.270601
-0.393451 1.528642 5.090264 9.000000 25 363.270604
-0.371352 1.410413 3.495535 9.000000 23 363.270606
-0.445675 1.691532 3.271661 10.000000 21 363.270609
-0.074741 0.283636 0.503432 8.000000 19 363.270611
-0.104226 0.395556 0.566214 6.000000 17 363.270614
-0.109932 0.595036 10.272159 10.000000 30 363.270622
-0.187189 0.882458 8.356754 6.000000 29 363.270624
-0.376726 1.507946 6.017457 12.000000 26 363.270627
-0.359015 1.373274 3.914181 11.000000 24 363.270629
-0.404697 1.545841 3.366376 12.000000 22 363.270632
-0.477630 1.823159 3.152945 3.000000 20 363.270635
-0.114569 0.437301 0.568366 7.000000 16 363.270640
-0.131568 0.496882 0.584906 10.000000 15 363.270597
-0.766010 2.893075 2.494670 13.000000 13 363.270600
-0.782398 2.957056 2.090057 12.000000 11 363.270602
-0.800391 3.025072 1.723843 14.000000 9 363.270605
-0.816683 3.088829 1.379171 16.000000 7 363.270608
-0.153270 0.580095 0.266192 18.000000 5 363.270610
-0.155598 0.588904 0.207117 33.000000 3 363.270613
-0.757219 2.878128 2.730875 13.000000 14 363.270623
-0.769926 2.926437 2.286925 15.000000 12 363.270626
-0.784241 2.982966 1.897358 14.000000 10 363.270628
-0.803459 3.056073 1.548220 15.000000 8 363.270631
-0.153086 0.583105 0.236120 13.000000 4 363.270636
-0.164592 0.627379 0.182566 20.000000 2 363.270638
-0.866507 3.305269 0.231513 11.000000 0 363.270641
-0.003231 0.052731 4.504102 102.000000 31 363.270652
-0.251902 1.077353 7.033927 9.000000 28 363.270654
-0.301674 1.296637 6.423799 7.000000 27 363.270657
-0.388479 1.531454 5.095036 8.000000 25 363.270659
-0.365445 1.407919 3.486330 9.000000 23 363.270662
-0.440972 1.697714 3.280438 10.000000 21 363.270664
-0.074458 0.286619 0.507565 6.000000 19 363.270667
-0.099620 0.383506 0.550866 6.000000 17 363.270670
-0.107956 0.595986 10.282142 9.000000 30 363.270677
-0.184108 0.883106 8.356754 6.000000 29 363.270680
-0.375366 1.525130 6.080367 13.000000 26 363.270682
-0.353358 1.371177 3.904796 11.000000 24 363.270685
-0.398485 1.545205 3.361875 11.000000 22 363.270688
-0.469641 1.819847 3.144413 3.000000 20 363.270690
-0.112965 0.437718 0.568366 6.000000 16 363.270695
-0.128932 0.493887 0.581402 8.000000 15 363.270653
-0.750990 2.876898 2.478981 13.000000 13 363.270655
-0.769960 2.951677 2.084574 12.000000 11 363.270658
-0.788708 3.023561 1.721525 14.000000 9 363.270661
-0.803558 3.082689 1.375424 16.000000 7 363.270663
-0.151245 0.580626 0.266192 29.000000 5 363.270666
-0.153438 0.589470 0.207117 38.000000 3 363.270668
-0.744791 2.873654 2.724225 13.000000 14 363.270679
-0.757167 2.921414 2.281038 15.000000 12 363.270681
-0.771141 2.977473 1.892293 14.000000 10 363.270684
-0.789977 3.050210 1.544024 15.000000 8 363.270686
-0.150948 0.583662 0.236120 19.000000 4 363.270691
-0.162292 0.627978 0.182566 20.000000 2 363.270694
-0.852464 3.298599 0.231109 12.000000 0 363.270696
-0.003038 0.052743 4.504102 102.000000 31 363.270707
-0.247604 1.076754 7.024049 9.000000 28 363.270710
-0.290116 1.267956 6.276942 7.000000 27 363.270712
-0.383226 1.534316 5.099808 8.000000 25 363.270715
-0.359798 1.407356 3.481728 9.000000 23 363.270717
-0.436528 1.706283 3.293604 11.000000 21 363.270720
-0.071315 0.278711 0.495166 5.000000 19 363.270722
-0.099803 0.390080 0.558540 5.000000 17 363.270725
-0.105821 0.596663 10.287134 9.000000 30 363.270733
-0.180870 0.883775 8.356754 6.000000 29 363.270735
-0.375989 1.552168 6.181990 13.000000 26 363.270738
-0.347481 1.369117 3.895411 11.000000 24 363.270740
-0.393089 1.546587 3.361875 11.000000 22 363.270743
-0.460714 1.811365 3.127349 4.000000 20 363.270746
-0.110601 0.434824 0.564691 6.000000 16 363.270751
-0.126233 0.490903 0.577897 8.000000 15 363.270708
-0.737532 2.868321 2.469568 12.000000 13 363.270711
-0.757055 2.946379 2.079092 12.000000 11 363.270714
-0.775416 3.017849 1.716889 14.000000 9 363.270716
-0.789948 3.076633 1.371678 17.000000 7 363.270719
-0.149115 0.581177 0.266192 34.000000 5 363.270721
-0.152600 0.594760 0.208050 33.000000 3 363.270724
-0.732907 2.869000 2.717575 13.000000 14 363.270734
-0.744963 2.916207 2.275152 15.000000 12 363.270737
-0.759677 2.975970 1.889760 15.000000 10 363.270739
-0.777080 3.044154 1.539828 16.000000 8 363.270742
-0.148910 0.584186 0.236120 29.000000 4 363.270747
-0.161321 0.633339 0.183256 19.000000 2 363.270749
-0.837904 3.292018 0.230706 12.000000 0 363.270752
-0.002853 0.052753 4.504102 102.000000 31 363.270763
-0.243673 1.076854 7.019110 9.000000 28 363.270765
-0.279435 1.241145 6.139875 9.000000 27 363.270768
-0.378224 1.537095 5.104579 8.000000 25 363.270770
-0.353929 1.404815 3.472523 9.000000 23 363.270773
-0.432326 1.714765 3.306770 11.000000 21 363.270775
-0.071030 0.281687 0.499299 5.000000 19 363.270778
-0.103885 0.597885 10.302108 10.000000 30 363.270788
-0.177783 0.884401 8.356754 6.000000 29 363.270791
-0.370277 1.552247 6.177151 12.000000 26 363.270793
-0.341862 1.366974 3.886025 11.000000 24 363.270796
-0.387159 1.545837 3.357375 11.000000 22 363.270799
-0.456291 1.820551 3.140147 5.000000 20 363.270801
-0.108258 0.431919 0.561016 6.000000 16 363.270806
-0.123643 0.487883 0.574393 7.000000 15 363.270764
-0.709346 2.799180 2.409950 10.000000 13 363.270766
-0.745739 2.944951 2.076350 13.000000 11 363.270769
-0.762702 3.011948 1.712253 14.000000 9 363.270772
-0.778066 3.074878 1.369805 17.000000 7 363.270774
-0.147086 0.581694 0.266192 35.000000 5 363.270777
-0.149319 0.590527 0.207117 22.000000 3 363.270779
-0.721064 2.864298 2.710926 14.000000 14 363.270790
-0.732806 2.910950 2.269266 15.000000 12 363.270792
-0.747181 2.970242 1.884695 15.000000 10 363.270795
-0.764234 3.038045 1.535632 15.000000 8 363.270797
-0.148054 0.589416 0.237293 25.000000 4 363.270802
-0.160315 0.638702 0.183946 18.000000 2 363.270805
-0.822761 3.280385 0.230102 12.000000 0 363.270808
-0.002669 0.052763 4.504102 102.000000 31 363.270818
-0.239744 1.076940 7.014171 9.000000 28 363.270821
-0.272902 1.232171 6.090924 9.000000 27 363.270823
-0.373208 1.539858 5.109351 8.000000 25 363.270826
-0.348553 1.404145 3.467920 9.000000 23 363.270828
-0.428071 1.723239 3.319936 10.000000 21 363.270831
-0.101941 0.599100 10.317083 10.000000 30 363.270844
-0.174798 0.885540 8.361726 6.000000 29 363.270846
-0.363706 1.548633 6.157794 11.000000 26 363.270849
-0.336676 1.366483 3.881332 11.000000 24 363.270852
-0.381761 1.547179 3.357375 11.000000 22 363.270854
-0.449308 1.819601 3.135881 6.000000 20 363.270857
-0.105125 0.425712 0.553666 6.000000 16 363.270862
-0.121075 0.484852 0.570888 7.000000 15 363.270819
-0.733430 2.939422 2.070867 13.000000 11 363.270825
-0.750039 3.005996 1.707617 14.000000 9 363.270827
-0.765085 3.068578 1.366059 17.000000 7 363.270830
-0.145054 0.582204 0.266192 30.000000 5 363.270832
-0.147257 0.591044 0.207117 14.000000 3 363.270835
-0.801214 3.218268 0.390107 7.000000 1 363.270837
-0.709264 2.859548 2.704276 14.000000 14 363.270845
-0.721667 2.909567 2.266322 15.000000 12 363.270848
-0.735771 2.968647 1.882163 14.000000 10 363.270850
-0.752533 3.036289 1.533534 15.000000 8 363.270853
-0.766443 3.094723 1.198154 3.000000 6 363.270855
-0.145995 0.589929 0.237293 23.000000 4 363.270858
-0.159273 0.644065 0.184636 16.000000 2 363.270860
-0.807710 3.268687 0.229497 11.000000 0 363.270863
-0.002485 0.052772 4.504102 102.000000 31 363.270874
-0.235651 1.076252 7.004292 9.000000 28 363.270876
-0.267734 1.229136 6.071343 9.000000 27 363.270879
-0.367831 1.541151 5.109351 8.000000 25 363.270881
-0.343185 1.403456 3.463318 9.000000 23 363.270884
-0.423761 1.731704 3.333102 10.000000 21 363.270886
-0.100037 0.600596 10.337050 10.000000 30 363.270899
-0.171908 0.887193 8.371669 6.000000 29 363.270902
-0.357449 1.546216 6.143277 11.000000 26 363.270904
-0.331090 1.364296 3.871947 10.000000 24 363.270907
-0.376357 1.548502 3.357375 11.000000 22 363.270910
-0.443570 1.823692 3.140147 7.000000 20 363.270912
-0.102035 0.419488 0.546315 5.000000 16 363.270917
-0.119382 0.485271 0.570888 7.000000 15 363.270875
-0.545653 2.218138 1.923594 13.000000 13 363.270878
