# .PCD v.7 - Point Cloud Data file format
VERSION .7
FIELDS x y z intensity ring timestamp
SIZE 4 4 4 4 2 8
TYPE F F F F U D
COUNT 1 1 1 1 1 1
WIDTH 923
HEIGHT 1
VIEWPOINT 0 0 0 1 0 0 0
POINTS 923
DATA ascii
3.778967 -2.692524 0.738558 85.000000 2 363.809425
4.169780 -2.972077 0.300235 94.000000 0 363.809428
0.077222 -0.088852 11.948818 64.000000 31 363.809439
0.558470 -0.420807 4.445756 97.000000 28 363.809442
0.720240 -0.544009 4.362908 92.000000 27 363.809444
0.969687 -0.702838 3.873475 90.000000 25 363.809447
1.249133 -0.894926 3.679636 76.000000 23 363.809449
1.435789 -1.028284 3.302381 35.000000 21 363.809452
1.984066 -1.420960 3.656872 91.000000 19 363.809454
3.329931 -2.384863 4.978701 98.000000 17 363.809457
0.386683 -0.305993 4.548655 95.000000 29 363.809467
0.833563 -0.613201 4.018865 98.000000 26 363.809470
1.115991 -0.802483 3.792170 92.000000 24 363.809472
1.306512 -0.938802 3.388880 38.000000 22 363.809475
1.611213 -1.157332 3.315050 13.000000 20 363.809477
3.084068 -2.215299 5.101091 95.000000 18 363.809480
3.563900 -2.559969 4.835232 100.000000 16 363.809483
3.825080 -2.732425 4.699244 97.000000 15 363.809440
3.141635 -2.244211 3.194394 34.000000 13 363.809443
3.441251 -2.459148 2.857668 72.000000 11 363.809445
3.731784 -2.666769 2.486474 22.000000 9 363.809448
3.768252 -2.693823 1.959811 75.000000 7 363.809451
4.191193 -2.997278 1.603519 67.000000 5 363.809453
3.887766 -2.780286 0.998912 82.000000 3 363.809456
3.924565 -2.807638 0.525309 74.000000 1 363.809458
2.931902 -2.101349 3.292774 36.000000 14 363.809466
3.349866 -2.400916 3.084521 36.000000 12 363.809469
3.522703 -2.525723 2.631761 79.000000 10 363.809471
3.556553 -2.549996 2.110498 18.000000 8 363.809474
3.960688 -2.840802 1.784593 27.000000 6 363.809476
4.028318 -2.890375 1.286517 86.000000 4 363.809479
3.773568 -2.708586 0.739248 85.000000 2 363.809481
4.171556 -2.995356 0.300839 94.000000 0 363.809484
0.076911 -0.089121 11.948818 67.000000 31 363.809495
0.556998 -0.422754 4.445756 97.000000 28 363.809497
0.718336 -0.546520 4.362908 92.000000 27 363.809500
0.967228 -0.706219 3.873475 90.000000 25 363.809502
1.277684 -0.922148 3.771687 83.000000 23 363.809505
1.430248 -1.031888 3.297992 35.000000 21 363.809507
1.979094 -1.427877 3.656872 91.000000 19 363.809510
3.321585 -2.396472 4.978701 98.000000 17 363.809512
0.385196 -0.307007 4.543683 95.000000 29 363.809523
0.833439 -0.617605 4.028544 98.000000 26 363.809525
1.113183 -0.806374 3.792170 92.000000 24 363.809528
1.303227 -0.943357 3.388880 38.000000 22 363.809530
1.609276 -1.164478 3.319316 14.000000 20 363.809533
3.076316 -2.226051 5.101091 96.000000 18 363.809536
3.554942 -2.572394 4.835232 100.000000 16 363.809538
3.815519 -2.745760 4.699244 97.000000 15 363.809496
3.133782 -2.255164 3.194394 32.000000 13 363.809498
3.436040 -2.473588 2.860409 70.000000 11 363.809501
3.628971 -2.612482 2.426205 10.000000 9 363.809503
3.758826 -2.706960 1.959811 75.000000 7 363.809506
4.188490 -3.017498 1.606337 67.000000 5 363.809509
3.882023 -2.796711 0.999844 82.000000 3 363.809511
3.914741 -2.821321 0.525309 72.000000 1 363.809514
2.924549 -2.111571 3.292774 36.000000 14 363.809521
3.341464 -2.412595 3.084521 36.000000 12 363.809524
3.510371 -2.535480 2.629229 79.000000 10 363.809527
3.543951 -2.559738 2.108400 58.000000 8 363.809529
3.862708 -2.790997 1.746811 17.000000 6 363.809532
4.022144 -2.907266 1.287689 85.000000 4 363.809534
3.772117 -2.727545 0.740627 85.000000 2 363.809537
4.140834 -2.995259 0.299832 23.000000 0 363.809539
0.076572 -0.089355 11.943818 68.000000 31 363.809550
0.555519 -0.424695 4.445756 100.000000 28 363.809553
0.716424 -0.549024 4.362908 89.000000 27 363.809555
0.964757 -0.709591 3.873475 90.000000 25 363.809558
1.288679 -0.936942 3.813110 90.000000 23 363.809560
1.424699 -1.035465 3.293604 35.000000 21 363.809563
1.974098 -1.434777 3.656872 91.000000 19 363.809565
3.313200 -2.408051 4.978701 98.000000 17 363.809568
0.384176 -0.308283 4.543683 96.000000 29 363.809578
0.834410 -0.622622 4.043061 98.000000 26 363.809581
1.110502 -0.810061 3.792170 92.000000 24 363.809583
1.299926 -0.947900 3.388880 50.000000 22 363.809586
1.609417 -1.173161 3.327848 10.000000 20 363.809589
3.068527 -2.236775 5.101091 96.000000 18 363.809591
3.546393 -2.584169 4.835232 100.000000 16 363.809594
3.805911 -2.759062 4.699244 97.000000 15 363.809551
3.125891 -2.266089 3.194394 32.000000 13 363.809554
3.430769 -2.488022 2.863151 70.000000 11 363.809556
3.566034 -2.586120 2.391434 8.000000 9 363.809559
3.749828 -2.719410 1.959811 74.000000 7 363.809562
4.186226 -3.037005 1.609155 68.000000 5 363.809564
3.880188 -2.816016 1.001709 82.000000 3 363.809567
3.908899 -2.837894 0.525755 72.000000 1 363.809569
2.917161 -2.121767 3.292774 36.000000 14 363.809577
3.329754 -2.421866 3.081578 36.000000 12 363.809580
3.501943 -2.547107 2.629229 79.000000 10 363.809582
3.524433 -2.563468 2.102106 78.000000 8 363.809585
3.673957 -2.673204 1.669605 10.000000 6 363.809587
4.020341 -2.926309 1.290034 85.000000 4 363.809590
3.767055 -2.742954 0.741317 88.000000 2 363.809592
4.130878 -3.008974 0.299832 23.000000 0 363.809595
0.076276 -0.089608 11.943818 70.000000 31 363.809606
0.554108 -0.426535 4.445756 100.000000 28 363.809608
0.714600 -0.551397 4.362908 89.000000 27 363.809611
0.962398 -0.712786 3.873475 90.000000 25 363.809613
1.298175 -0.950443 3.849930 93.000000 23 363.809616
1.421258 -1.040184 3.293604 36.000000 21 363.809618
1.969329 -1.441315 3.656872 91.000000 19 363.809621
3.302609 -2.417132 4.974864 98.000000 17 363.809623
0.383097 -0.309622 4.543683 95.000000 29 363.809634
0.835247 -0.627799 4.057579 98.000000 26 363.809636
1.107668 -0.813932 3.792170 92.000000 24 363.809639
1.298530 -0.953494 3.393381 65.000000 22 363.809641
1.611825 -1.183121 3.340646 9.000000 20 363.809644
3.061093 -2.246939 5.101091 95.000000 18 363.809647
3.537351 -2.596532 4.835232 100.000000 16 363.809649
3.799621 -2.773770 4.702748 97.000000 15 363.809607
3.118359 -2.276442 3.194394 34.000000 13 363.809609
3.425876 -2.501851 2.865892 68.000000 11 363.809612
3.500194 -2.556128 2.354346 8.000000 9 363.809615
3.740313 -2.732483 1.959811 74.000000 7 363.809617
4.179473 -3.054430 1.610565 68.000000 5 363.809620
3.874795 -2.831766 1.002642 83.000000 3 363.809622
3.899467 -2.850841 0.525755 65.000000 1 363.809625
2.910109 -2.131428 3.292774 36.000000 14 363.809633
3.321705 -2.432895 3.081578 36.000000 12 363.809635
3.493031 -2.559315 2.629229 82.000000 10 363.809638
3.511802 -2.573072 2.100008 79.000000 8 363.809640
3.565573 -2.613426 1.626895 8.000000 6 363.809643
4.014021 -2.943199 1.291206 86.000000 4 363.809645
3.761450 -2.759015 0.742007 88.000000 2 363.809648
4.059932 -2.979042 0.296809 22.000000 0 363.809650
0.075935 -0.089839 11.938818 72.000000 31 363.809661
0.552615 -0.428467 4.445756 100.000000 28 363.809664
0.712671 -0.553888 4.362908 90.000000 27 363.809666
0.958707 -0.715248 3.868703 89.000000 25 363.809669
1.305856 -0.963086 3.882147 96.000000 23 363.809671
1.415690 -1.043717 3.289215 38.000000 21 363.809674
1.964286 -1.448181 3.656872 90.000000 19 363.809676
3.294152 -2.428645 4.974864 97.000000 17 363.809679
0.677341 -0.583169 15.248792 10.000000 30 363.809687
0.382014 -0.310957 4.543683 95.000000 29 363.809689
0.836059 -0.632989 4.072097 98.000000 26 363.809692
1.104820 -0.817794 3.792170 91.000000 24 363.809694
1.295194 -0.958021 3.393381 52.000000 22 363.809697
1.613976 -1.193392 3.353444 9.000000 20 363.809700
3.053231 -2.257610 5.101091 95.000000 18 363.809702
3.528265 -2.608864 4.835232 101.000000 16 363.809705
3.789916 -2.787017 4.702748 97.000000 15 363.809662
3.107258 -2.285007 3.191256 34.000000 13 363.809665
3.420491 -2.516272 2.868634 68.000000 11 363.809667
3.441291 -2.531577 2.321894 9.000000 9 363.809670
3.730752 -2.745522 1.959811 75.000000 7 363.809673
4.172648 -3.071845 1.611974 68.000000 5 363.809675
3.872798 -2.851099 1.004507 80.000000 3 363.809678
3.897511 -2.870341 0.526647 50.000000 1 363.809680
2.902651 -2.141574 3.292774 36.000000 14 363.809688
3.313192 -2.444475 3.081578 36.000000 12 363.809691
3.487545 -2.574053 2.631761 75.000000 10 363.809693
3.506450 -2.588010 2.102106 80.000000 8 363.809696
3.484245 -2.572560 1.595684 9.000000 6 363.809698
4.011543 -2.962968 1.293551 86.000000 4 363.809701
3.755779 -2.775072 0.742697 85.000000 2 363.809703
4.029421 -2.978348 0.295801 21.000000 0 363.809706
0.075621 -0.090104 11.938818 77.000000 31 363.809717
0.551116 -0.430393 4.445756 100.000000 28 363.809719
0.710733 -0.556372 4.362908 92.000000 27 363.809722
0.956205 -0.718590 3.868703 89.000000 25 363.809724
1.311895 -0.974629 3.909763 97.000000 23 363.809727
1.412038 -1.048653 3.289215 38.000000 21 363.809729
1.956960 -1.453351 3.652739 90.000000 19 363.809732
3.285654 -2.440129 4.974864 98.000000 17 363.809735
0.677487 -0.587429 15.298708 13.000000 30 363.809742
0.380926 -0.312289 4.543683 94.000000 29 363.809745
0.838844 -0.639718 4.096292 98.000000 26 363.809747
1.101959 -0.821645 3.792170 92.000000 24 363.809750
1.293589 -0.963838 3.397882 42.000000 22 363.809753
1.616075 -1.203692 3.366241 13.000000 20 363.809755
3.045332 -2.268255 5.101091 96.000000 18 363.809758
3.521856 -2.623189 4.838908 101.000000 16 363.809760
3.780164 -2.800229 4.702748 98.000000 15 363.809718
3.099263 -2.295840 3.191256 34.000000 13 363.809720
3.418405 -2.533176 2.874116 68.000000 11 363.809723
3.357685 -2.488182 2.273215 10.000000 9 363.809726
3.721146 -2.758528 1.959811 75.000000 7 363.809728
4.169607 -3.092107 1.614792 65.000000 5 363.809731
3.874659 -2.873378 1.007305 78.000000 3 363.809733
3.883468 -2.880961 0.526201 27.000000 1 363.809736
2.895158 -2.151693 3.292774 36.000000 14 363.809744
3.304639 -2.456025 3.081578 36.000000 12 363.809746
3.447400 -2.563061 2.608969 20.000000 10 363.809749
3.497395 -2.600234 2.102106 80.000000 8 363.809751
3.456298 -2.570616 1.587471 9.000000 6 363.809754
4.005075 -2.979855 1.294723 84.000000 4 363.809756
3.754015 -2.794078 0.744076 76.000000 2 363.809759
3.990949 -2.971509 0.294390 17.000000 0 363.809761
0.075279 -0.090333 11.933819 79.000000 31 363.809772
0.550221 -0.432795 4.450696 100.000000 28 363.809775
0.708786 -0.558850 4.362908 92.000000 27 363.809777
0.953691 -0.721924 3.868703 90.000000 25 363.809780
1.320998 -0.988567 3.946583 95.000000 23 363.809782
1.406450 -1.052140 3.284827 37.000000 21 363.809785
1.951875 -1.460173 3.652739 90.000000 19 363.809787
3.274549 -2.449663 4.971027 98.000000 17 363.809790
0.673471 -0.588074 15.253783 12.000000 30 363.809798
0.380245 -0.313957 4.548655 95.000000 29 363.809800
0.840596 -0.645708 4.115649 99.000000 26 363.809803
1.099084 -0.825487 3.792170 91.000000 24 363.809805
1.291958 -0.969655 3.402383 42.000000 22 363.809808
1.618122 -1.214021 3.379039 19.000000 20 363.809811
3.037396 -2.278871 5.101091 95.000000 18 363.809813
3.512678 -2.635467 4.838908 100.000000 16 363.809816
3.767508 -2.811274 4.699244 97.000000 15 363.809773
3.091230 -2.306644 3.191256 34.000000 13 363.809776
3.412893 -2.547594 2.876858 69.000000 11 363.809779
3.295726 -2.460136 2.238445 18.000000 9 363.809781
3.711494 -2.771501 1.959811 75.000000 7 363.809784
4.166475 -3.112384 1.617610 56.000000 5 363.809786
3.872477 -2.892765 1.009170 71.000000 3 363.809789
3.901313 -2.915367 0.529325 10.000000 1 363.809791
2.887629 -2.161786 3.292774 36.000000 14 363.809799
3.296046 -2.467546 3.081578 36.000000 12 363.809802
3.390121 -2.538898 2.573515 14.000000 10 363.809804
3.488297 -2.612426 2.102106 79.000000 8 363.809807
3.443524 -2.579833 1.585828 10.000000 6 363.809809
4.021876 -3.014222 1.302929 72.000000 4 363.809812
3.748201 -2.810136 0.744766 68.000000 2 363.809814
3.920601 -2.940459 0.291367 15.000000 0 363.809817
0.074964 -0.090595 11.933819 81.000000 31 363.809828
0.548098 -0.434230 4.445756 100.000000 28 363.809830
0.706831 -0.561321 4.362908 92.000000 27 363.809833
0.951165 -0.725248 3.868703 91.000000 25 363.809835
1.319100 -0.994348 3.951185 95.000000 23 363.809838
1.402769 -1.057043 3.284827 36.000000 21 363.809840
1.946766 -1.466977 3.652739 88.000000 19 363.809843
3.265978 -2.461079 4.971027 97.000000 17 363.809846
0.673907 -0.592410 15.308692 13.000000 30 363.809853
0.379202 -0.315217 4.548655 94.000000 29 363.809856
0.843424 -0.652340 4.139845 98.000000 26 363.809858
1.094964 -0.828086 3.787477 92.000000 24 363.809861
1.290303 -0.975472 3.406884 38.000000 22 363.809864
1.597229 -1.207083 3.344912 11.000000 20 363.809866
3.029423 -2.289459 5.101091 96.000000 18 363.809869
3.503919 -2.647101 4.838908 100.000000 16 363.809871
3.757672 -2.824408 4.699244 98.000000 15 363.809829
3.083159 -2.317420 3.191256 34.000000 13 363.809831
3.410664 -2.564518 2.882341 70.000000 11 363.809834
3.262332 -2.452988 2.222218 51.000000 9 363.809837
3.702283 -2.783793 1.959811 75.000000 7 363.809839
4.163799 -3.131951 1.620429 37.000000 5 363.809842
3.878056 -2.918079 1.012901 61.000000 3 363.809844
3.891113 -2.928968 0.529325 10.000000 1 363.809847
2.880066 -2.171852 3.292774 36.000000 14 363.809855
3.284185 -2.476602 3.078635 36.000000 12 363.809857
3.336934 -2.516381 2.540594 14.000000 10 363.809860
3.479615 -2.623980 2.102106 79.000000 8 363.809862
3.434950 -2.591238 1.585828 12.000000 6 363.809865
4.007978 -3.024614 1.301757 46.000000 4 363.809867
3.758623 -2.837469 0.748215 34.000000 2 363.809870
3.859000 -2.914303 0.288747 13.000000 0 363.809873
0.074636 -0.090809 11.928819 80.000000 31 363.809883
0.546655 -0.436045 4.445756 100.000000 28 363.809886
0.704966 -0.563662 4.362908 92.000000 27 363.809888
0.948755 -0.728398 3.868703 91.000000 25 363.809891
1.323575 -1.004623 3.974198 97.000000 23 363.809893
1.399256 -1.061689 3.284827 30.000000 21 363.809896
1.939649 -1.471724 3.648606 88.000000 19 363.809899
3.257799 -2.471895 4.971027 97.000000 17 363.809901
0.676599 -0.598987 15.418507 13.000000 30 363.809909
0.378099 -0.316538 4.548655 95.000000 29 363.809911
0.845110 -0.658373 4.159203 98.000000 26 363.809914
1.092067 -0.831903 3.787477 92.000000 24 363.809917
1.288793 -0.981064 3.411385 38.000000 22 363.809919
1.589067 -1.209214 3.336380 7.000000 20 363.809922
3.021814 -2.299493 5.101091 97.000000 18 363.809924
3.491960 -2.657263 4.835232 100.000000 16 363.809927
3.748285 -2.836854 4.699244 98.000000 15 363.809884
3.075458 -2.327632 3.191256 34.000000 13 363.809887
3.405474 -2.578338 2.885082 70.000000 11 363.809890
3.250648 -2.461119 2.219901 72.000000 9 363.809892
3.692543 -2.796700 1.959811 76.000000 7 363.809895
4.164312 -3.155158 1.624656 6.000000 5 363.809897
3.864443 -2.927957 1.011968 32.000000 3 363.809900
3.829784 -2.902749 0.523524 14.000000 1 363.809902
2.872848 -2.181391 3.292774 36.000000 14 363.809910
3.275954 -2.487479 3.078635 35.000000 12 363.809913
3.297232 -2.504544 2.517802 32.000000 10 363.809915
3.470434 -2.636110 2.102106 79.000000 8 363.809918
3.422124 -2.600355 1.584185 14.000000 6 363.809920
4.059309 -3.085649 1.320514 9.000000 4 363.809923
3.744754 -2.847574 0.747526 31.000000 2 363.809925
3.793137 -2.885410 0.285926 15.000000 0 363.809928
0.074319 -0.091069 11.928819 88.000000 31 363.809939
0.545130 -0.437951 4.445756 100.000000 28 363.809941
0.702994 -0.566119 4.362908 90.000000 27 363.809944
0.946206 -0.731706 3.868703 91.000000 25 363.809946
1.321613 -1.010423 3.978800 97.000000 23 363.809949
1.395542 -1.066567 3.284827 30.000000 21 363.809951
1.934500 -1.478485 3.648606 86.000000 19 363.809954
3.249151 -2.483252 4.971027 97.000000 17 363.809957
0.676879 -0.603468 15.473414 14.000000 30 363.809964
0.377400 -0.318201 4.553626 95.000000 29 363.809967
0.847754 -0.665202 4.183399 98.000000 26 363.809969
1.089156 -0.835710 3.787477 92.000000 24 363.809972
1.288817 -0.988207 3.420386 35.000000 22 363.809975
1.576556 -1.208407 3.319316 5.000000 20 363.809977
3.013768 -2.310027 5.101091 98.000000 18 363.809980
3.482663 -2.669436 4.835232 100.000000 16 363.809982
3.738360 -2.849920 4.699244 98.000000 15 363.809940
3.067314 -2.338353 3.191256 35.000000 13 363.809943
3.403103 -2.595281 2.890565 70.000000 11 363.809945
3.242037 -2.472451 2.219901 72.000000 9 363.809948
3.682758 -2.809572 1.959811 74.000000 7 363.809950
4.153274 -3.169675 1.624656 6.000000 5 363.809953
3.901058 -2.977190 1.023160 8.000000 3 363.809955
3.768169 -2.876813 0.517723 15.000000 1 363.809958
2.865216 -2.191406 3.292774 36.000000 14 363.809966
3.267251 -2.498899 3.078635 35.000000 12 363.809968
3.264502 -2.497700 2.500075 51.000000 10 363.809971
3.461211 -2.648208 2.102106 79.000000 8 363.809973
3.413026 -2.612285 1.584185 16.000000 6 363.809976
4.048513 -3.099800 1.320514 9.000000 4 363.809978
3.789831 -2.902786 0.757183 9.000000 2 363.809981
3.727522 -2.856093 0.283104 14.000000 0 363.809984
0.074000 -0.091327 11.928819 87.000000 31 363.809994
0.544202 -0.440340 4.450696 100.000000 28 363.809997
0.701014 -0.568569 4.362908 90.000000 27 363.809999
0.943646 -0.735004 3.868703 90.000000 25 363.810002
1.321173 -1.017415 3.988006 95.000000 23 363.810004
1.395607 -1.074355 3.293604 30.000000 21 363.810007
1.929327 -1.485229 3.648606 81.000000 19 363.810010
3.240463 -2.494579 4.971027 96.000000 17 363.810012
0.673477 -0.604665 15.443465 14.000000 30 363.810020
0.376287 -0.319516 4.553626 95.000000 29 363.810022
0.849373 -0.671278 4.202755 98.000000 26 363.810025
1.086233 -0.839507 3.787477 92.000000 24 363.810028
1.287084 -0.994031 3.424887 35.000000 22 363.810030
1.566136 -1.209121 3.306518 5.000000 20 363.810033
3.005687 -2.320533 5.101091 99.000000 18 363.810035
3.473324 -2.681576 4.835232 100.000000 16 363.810038
3.728389 -2.862952 4.699244 98.000000 15 363.809995
3.059133 -2.349046 3.191256 34.000000 13 363.809998
3.397340 -2.609691 2.893307 70.000000 11 363.810001
3.236900 -2.486451 2.222218 72.000000 9 363.810003
3.672929 -2.822410 1.959811 71.000000 7 363.810006
4.130774 -3.175382 1.620429 8.000000 5 363.810008
3.890642 -2.990789 1.023160 8.000000 3 363.810011
3.730470 -2.868699 0.514600 12.000000 1 363.810013
2.854590 -2.199115 3.289449 36.000000 14 363.810021
3.258509 -2.510289 3.078635 36.000000 12 363.810024
3.259178 -2.511712 2.502608 54.000000 10 363.810026
3.451946 -2.660274 2.102106 81.000000 8 363.810029
3.407627 -2.627066 1.585828 19.000000 6 363.810031
3.995330 -3.081261 1.307618 11.000000 4 363.810034
3.783597 -2.919022 0.757873 9.000000 2 363.810037
3.658205 -2.823301 0.280082 14.000000 0 363.810039
0.073681 -0.091585 11.928819 85.000000 31 363.810050
0.542059 -0.441746 4.445756 100.000000 28 363.810052
0.699025 -0.571013 4.362908 92.000000 27 363.810055
0.941075 -0.738294 3.868703 89.000000 25 363.810057
1.317614 -1.022020 3.988006 92.000000 23 363.810060
1.395635 -1.082156 3.302381 28.000000 21 363.810063
1.924131 -1.491955 3.648606 77.000000 19 363.810065
3.231735 -2.505875 4.971027 90.000000 17 363.810068
0.669646 -0.605456 15.403532 15.000000 30 363.810075
0.375169 -0.320828 4.553626 93.000000 29 363.810078
0.849977 -0.676589 4.217273 97.000000 26 363.810081
1.084657 -0.844353 3.792170 92.000000 24 363.810083
1.285325 -0.999855 3.429388 37.000000 22 363.810086
1.555729 -1.209778 3.293721 5.000000 20 363.810088
2.997568 -2.331010 5.101091 98.000000 18 363.810091
3.463942 -2.693684 4.835232 101.000000 16 363.810093
3.718373 -2.875949 4.699244 98.000000 15 363.810051
3.050915 -2.359710 3.191256 35.000000 13 363.810054
3.394823 -2.626652 2.898790 70.000000 11 363.810056
3.228201 -2.497735 2.222218 74.000000 9 363.810059
3.663054 -2.835214 1.959811 70.000000 7 363.810061
4.093112 -3.169223 1.610565 8.000000 5 363.810064
3.849106 -2.980294 1.015699 9.000000 3 363.810066
3.681062 -2.851207 0.510138 12.000000 1 363.810069
2.846897 -2.209066 3.289449 36.000000 14 363.810077
3.249726 -2.521648 3.078635 36.000000 12 363.810079
3.260608 -2.531004 2.510205 53.000000 10 363.810082
3.442639 -2.672307 2.102106 83.000000 8 363.810084
3.402166 -2.641842 1.587471 23.000000 6 363.810087
3.919295 -3.044498 1.287689 16.000000 4 363.810089
3.714729 -2.886632 0.747526 10.000000 2 363.810092
3.589161 -2.790061 0.277059 15.000000 0 363.810095
0.073335 -0.091807 11.923820 83.000000 31 363.810105
0.541114 -0.444129 4.450696 100.000000 28 363.810108
0.697027 -0.573449 4.362908 92.000000 27 363.810110
0.938492 -0.741574 3.868703 89.000000 25 363.810113
1.315578 -1.027816 3.992608 91.000000 23 363.810115
1.395625 -1.089970 3.311158 17.000000 21 363.810118
1.918911 -1.498662 3.648606 69.000000 19 363.810120
3.222969 -2.517140 4.971027 81.000000 17 363.810123
0.665068 -0.605332 15.343633 14.000000 30 363.810131
0.374103 -0.322070 4.553626 93.000000 29 363.810133
0.851654 -0.682551 4.236629 96.000000 26 363.810136
1.081851 -0.847946 3.792170 91.000000 24 363.810138
1.283541 -1.005679 3.433889 39.000000 22 363.810141
1.547390 -1.211985 3.285189 6.000000 20 363.810143
2.989413 -2.341460 5.101091 97.000000 18 363.810146
3.454991 -2.705156 4.835232 100.000000 16 363.810149
3.708311 -2.888911 4.699244 98.000000 15 363.810106
3.042659 -2.370345 3.191256 35.000000 13 363.810109
3.388932 -2.641056 2.901531 70.000000 11 363.810111
3.219463 -2.508988 2.222218 74.000000 9 363.810114
3.653632 -2.847346 1.959811 70.000000 7 363.810117
4.040962 -3.150333 1.595063 9.000000 5 363.810119
3.796070 -2.960481 1.005440 11.000000 3 363.810122
3.627896 -2.830343 0.505229 12.000000 1 363.810124
2.839168 -2.218990 3.289449 36.000000 14 363.810132
3.240904 -2.532976 3.078635 36.000000 12 363.810135
3.255594 -2.544457 2.512737 53.000000 10 363.810137
3.433759 -2.683708 2.102106 81.000000 8 363.810140
3.397106 -2.656017 1.589113 26.000000 6 363.810142
3.893863 -3.045500 1.283000 14.000000 4 363.810145
3.654433 -2.859264 0.738558 11.000000 2 363.810147
3.520877 -2.755759 0.274036 15.000000 0 363.810150
0.073030 -0.092050 11.923820 88.000000 31 363.810161
0.539638 -0.445921 4.450696 100.000000 28 363.810163
0.695122 -0.575758 4.362908 91.000000 27 363.810166
0.936028 -0.744682 3.868703 90.000000 25 363.810168
1.309091 -1.029757 3.983403 89.000000 23 363.810171
1.395769 -1.097554 3.319936 15.000000 21 363.810173
1.916143 -1.506757 3.652739 48.000000 19 363.810176
3.214604 -2.527814 4.971027 81.000000 17 363.810178
0.663804 -0.608433 15.363600 14.000000 30 363.810186
0.372977 -0.323374 4.553626 93.000000 29 363.810189
0.851223 -0.687100 4.246308 96.000000 26 363.810191
1.078885 -0.851717 3.792170 92.000000 24 363.810194
1.283619 -1.012627 3.442891 48.000000 22 363.810196
1.539267 -1.213880 3.276657 7.000000 20 363.810199
2.981632 -2.351360 5.101091 97.000000 18 363.810202
3.445527 -2.717200 4.835232 101.000000 16 363.810204
3.698711 -2.901193 4.699244 98.000000 15 363.810162
3.034782 -2.380422 3.191256 34.000000 13 363.810164
3.386735 -2.657442 2.907014 71.000000 11 363.810167
3.211125 -2.519651 2.222218 74.000000 9 363.810169
3.643671 -2.860082 1.959811 70.000000 7 363.810172
4.007302 -3.146643 1.586608 11.000000 5 363.810175
3.751461 -2.945749 0.997046 10.000000 3 363.810177
3.575411 -2.808519 0.500321 12.000000 1 363.810180
2.831794 -2.228392 3.289449 35.000000 14 363.810187
3.232486 -2.543710 3.078635 35.000000 12 363.810190
3.253467 -2.561139 2.517802 54.000000 10 363.810193
3.424370 -2.695678 2.102106 79.000000 8 363.810195
3.391525 -2.670781 1.590756 29.000000 6 363.810198
3.845026 -3.028996 1.271277 14.000000 4 363.810200
3.621093 -2.853611 0.734419 10.000000 2 363.810203
3.448462 -2.718545 0.270811 15.000000 0 363.810205
0.072683 -0.092269 11.918819 84.000000 31 363.810216
0.538079 -0.447802 4.450696 100.000000 28 363.810219
0.693108 -0.578181 4.362908 92.000000 27 363.810221
0.933423 -0.747945 3.868703 90.000000 25 363.810224
1.294770 -1.025828 3.951185 84.000000 23 363.810226
1.393808 -1.103907 3.324324 15.000000 21 363.810229
1.906460 -1.509942 3.644473 35.000000 19 363.810231
3.205760 -2.539020 4.971027 70.000000 17 363.810234
0.661676 -0.610747 15.363600 14.000000 30 363.810242
0.371846 -0.324674 4.553626 93.000000 29 363.810244
0.850771 -0.691655 4.255986 96.000000 26 363.810247
1.075905 -0.855478 3.792170 92.000000 24 363.810249
1.283486 -1.019811 3.451892 62.000000 22 363.810252
1.530936 -1.216001 3.268125 9.000000 20 363.810255
2.973406 -2.361754 5.101091 96.000000 18 363.810257
3.436021 -2.729210 4.835232 101.000000 16 363.810260
3.688561 -2.914086 4.699244 98.000000 15 363.810217
3.026454 -2.391001 3.191256 34.000000 13 363.810220
3.383999 -2.674433 2.912497 71.000000 11 363.810222
3.202310 -2.530844 2.222218 72.000000 9 363.810225
3.633665 -2.872783 1.959811 69.000000 7 363.810228
3.947379 -3.121926 1.568289 12.000000 5 363.810230
3.702626 -2.928354 0.987720 12.000000 3 363.810233
3.522625 -2.786993 0.495413 12.000000 1 363.810235
2.823998 -2.238264 3.289449 35.000000 14 363.810243
3.226755 -2.557488 3.081578 36.000000 12 363.810246
3.247885 -2.575159 2.520334 55.000000 10 363.810248
3.414939 -2.707615 2.102106 77.000000 8 363.810251
3.382182 -2.682603 1.590756 36.000000 6 363.810253
3.811583 -3.024271 1.264243 14.000000 4 363.810256
3.576200 -2.838526 0.728211 11.000000 2 363.810258
3.380263 -2.683966 0.267788 15.000000 0 363.810261
0.072360 -0.092522 11.918819 82.000000 31 363.810272
0.536512 -0.449677 4.450696 100.000000 28 363.810274
0.691085 -0.580597 4.362908 91.000000 27 363.810277
0.930806 -0.751199 3.868703 89.000000 25 363.810279
1.280492 -1.021811 3.918967 83.000000 23 363.810282
1.389946 -1.108765 3.324324 16.000000 21 363.810284
1.909977 -1.523607 3.661005 20.000000 19 363.810287
3.184347 -2.540199 4.951842 27.000000 17 363.810289
0.659540 -0.613052 15.363600 14.000000 30 363.810297
0.370309 -0.325617 4.548655 92.000000 29 363.810300
0.850298 -0.696214 4.265665 96.000000 26 363.810302
1.071566 -0.858149 3.787477 92.000000 24 363.810305
1.283319 -1.027007 3.460894 71.000000 22 363.810307
1.522609 -1.218079 3.259593 11.000000 20 363.810310
2.965144 -2.372118 5.101091 95.000000 18 363.810313
3.426473 -2.741188 4.835232 101.000000 16 363.810315
3.678367 -2.926944 4.699244 97.000000 15 363.810273
3.018090 -2.401551 3.191256 34.000000 13 363.810275
3.381186 -2.691438 2.917980 74.000000 11 363.810278
3.193456 -2.542007 2.222218 72.000000 9 363.810281
3.627241 -2.888337 1.961684 69.000000 7 363.810283
3.887677 -3.096828 1.549969 11.000000 5 363.810286
3.653960 -2.910655 0.978394 12.000000 3 363.810288
3.466139 -2.762030 0.490058 13.000000 1 363.810291
2.816168 -2.248108 3.289449 36.000000 14 363.810299
3.217808 -2.568736 3.081578 36.000000 12 363.810301
3.245614 -2.591861 2.525399 55.000000 10 363.810304
3.409014 -2.722351 2.104204 77.000000 8 363.810306
3.376487 -2.697341 1.592399 40.000000 6 363.810309
3.755439 -3.001145 1.250175 14.000000 4 363.810311
3.531457 -2.823161 0.722002 13.000000 2 363.810314
3.296741 -2.636464 0.263959 16.000000 0 363.810316
0.072037 -0.092774 11.918819 92.000000 31 363.810327
0.534939 -0.451547 4.450696 95.000000 28 363.810330
0.689055 -0.583005 4.362908 91.000000 27 363.810332
0.928178 -0.754443 3.868703 89.000000 25 363.810335
1.258644 -1.011588 3.863737 85.000000 23 363.810337
1.386067 -1.113611 3.324324 16.000000 21 363.810340
1.876129 -1.507352 3.607276 10.000000 19 363.810342
0.657396 -0.615351 15.363600 13.000000 30 363.810353
0.369171 -0.326908 4.548655 88.000000 29 363.810355
0.848833 -0.699978 4.270504 96.000000 26 363.810358
1.068563 -0.861884 3.787477 92.000000 24 363.810360
1.286508 -1.036946 3.478897 82.000000 22 363.810363
1.514286 -1.220114 3.251061 12.000000 20 363.810366
2.956846 -2.382454 5.101091 95.000000 18 363.810368
3.419524 -2.755259 4.838908 100.000000 16 363.810371
3.668127 -2.939766 4.699244 97.000000 15 363.810328
3.009688 -2.412071 3.191256 34.000000 13 363.810331
3.375033 -2.705839 2.920722 74.000000 11 363.810333
3.184564 -2.553139 2.222218 73.000000 9 363.810336
3.620754 -2.903881 1.963557 64.000000 7 363.810339
3.809489 -3.056342 1.524603 11.000000 5 363.810341
3.609293 -2.895725 0.970000 11.000000 3 363.810344
3.409870 -2.736706 0.484704 13.000000 1 363.810346
2.808304 -2.257924 3.289449 36.000000 14 363.810354
3.208822 -2.579953 3.081578 36.000000 12 363.810357
3.243266 -2.608578 2.530464 55.000000 10 363.810359
3.399490 -2.734234 2.104204 77.000000 8 363.810362
3.367050 -2.709110 1.592399 49.000000 6 363.810364
3.707075 -2.983759 1.238452 14.000000 4 363.810367
3.486866 -2.807519 0.715794 14.000000 2 363.810369
3.271955 -2.635421 0.263153 15.000000 0 363.810372
0.071712 -0.093025 11.918819 96.000000 31 363.810383
0.533360 -0.453412 4.450696 95.000000 28 363.810385
0.687015 -0.585407 4.362908 90.000000 27 363.810388
0.925539 -0.757679 3.868703 90.000000 25 363.810390
1.239920 -1.003683 3.817712 84.000000 23 363.810393
1.384034 -1.119949 3.328713 17.000000 21 363.810395
1.846793 -1.494420 3.561814 5.000000 19 363.810398
0.654823 -0.617244 15.353616 13.000000 30 363.810408
0.368027 -0.328194 4.548655 88.000000 29 363.810411
0.846385 -0.702937 4.270504 95.000000 26 363.810413
1.065548 -0.865609 3.787477 92.000000 24 363.810416
1.282881 -1.041431 3.478897 83.000000 22 363.810419
1.507993 -1.223749 3.246795 12.000000 20 363.810421
2.948511 -2.392761 5.101091 94.000000 18 363.810424
3.409885 -2.767178 4.838908 100.000000 16 363.810426
3.657843 -2.952552 4.699244 98.000000 15 363.810384
3.001250 -2.422562 3.191256 33.000000 13 363.810386
3.372074 -2.722858 2.926204 76.000000 11 363.810389
3.175632 -2.564240 2.222218 75.000000 9 363.810392
3.610595 -2.916503 1.963557 57.000000 7 363.810394
3.634617 -2.936955 1.462599 4.000000 5 363.810397
3.549494 -2.868171 0.957876 13.000000 3 363.810399
3.353821 -2.711025 0.479349 13.000000 1 363.810402
2.803308 -2.270064 3.292774 36.000000 14 363.810410
3.202938 -2.593682 3.084521 35.000000 12 363.810412
3.240840 -2.625311 2.535529 56.000000 10 363.810415
3.389925 -2.746084 2.104204 78.000000 8 363.810417
3.357573 -2.720847 1.592399 53.000000 6 363.810420
3.636224 -2.947706 1.219695 13.000000 4 363.810422
3.434734 -2.785362 0.708206 14.000000 2 363.810425
3.196779 -2.593319 0.259727 14.000000 0 363.810427
0.071362 -0.093239 11.913819 96.000000 31 363.810438
0.531774 -0.455271 4.450696 100.000000 28 363.810441
0.684968 -0.587802 4.362908 91.000000 27 363.810443
0.922889 -0.760905 3.868703 90.000000 25 363.810446
1.219753 -0.994426 3.767084 84.000000 23 363.810448
1.380116 -1.124773 3.328713 17.000000 21 363.810451
1.715048 -1.397746 3.322103 3.000000 19 363.810453
0.652245 -0.619127 15.343633 13.000000 30 363.810464
0.366879 -0.329477 4.548655 88.000000 29 363.810466
0.844890 -0.706694 4.275343 95.000000 26 363.810469
1.062520 -0.869323 3.787477 92.000000 24 363.810471
1.280924 -1.047281 3.483398 85.000000 22 363.810474
1.503712 -1.229005 3.246795 13.000000 20 363.810477
2.940141 -2.403039 5.101091 92.000000 18 363.810479
3.405455 -2.783355 4.846258 101.000000 16 363.810482
3.647515 -2.965302 4.699244 98.000000 15 363.810439
2.995796 -2.435479 3.194394 33.000000 13 363.810442
3.365793 -2.737250 2.928946 76.000000 11 363.810445
3.166662 -2.575309 2.222218 75.000000 9 363.810447
3.611181 -2.937865 1.969176 46.000000 7 363.810450
3.624343 -2.949624 1.462599 3.000000 5 363.810452
3.497550 -2.846436 0.947617 12.000000 3 363.810455
3.297993 -2.684985 0.473995 13.000000 1 363.810457
2.795366 -2.279835 3.292774 36.000000 14 363.810465
3.193865 -2.604846 3.084521 35.000000 12 363.810468
3.234998 -2.639333 2.538061 57.000000 10 363.810470
3.380319 -2.757900 2.104204 78.000000 8 363.810473
3.351714 -2.735536 1.594041 54.000000 6 363.810475
3.569436 -2.914271 1.202110 13.000000 4 363.810478
3.382801 -2.762876 0.700618 14.000000 2 363.810480
3.164494 -2.585497 0.258518 14.000000 0 363.810483
0.071036 -0.093488 11.913819 94.000000 31 363.810494
0.530182 -0.457124 4.450696 100.000000 28 363.810496
0.682912 -0.590189 4.362908 91.000000 27 363.810499
0.920227 -0.764121 3.868703 89.000000 25 363.810501
1.208725 -0.992478 3.744072 87.000000 23 363.810504
1.376182 -1.129584 3.328713 20.000000 21 363.810506
1.686232 -1.384085 3.276640 3.000000 19 363.810509
3.173350 -2.604751 4.990212 3.000000 17 363.810512
0.649143 -0.620285 15.318675 12.000000 30 363.810519
0.365785 -0.330692 4.548655 87.000000 29 363.810522
0.842542 -0.709492 4.275343 95.000000 26 363.810524
1.059632 -0.872842 3.787477 92.000000 24 363.810527
1.272217 -1.047593 3.469896 86.000000 22 363.810530
1.497399 -1.232589 3.242529 15.000000 20 363.810532
2.931735 -2.413287 5.101091 87.000000 18 363.810535
3.398824 -2.796786 4.849933 107.000000 16 363.810537
3.637142 -2.978016 4.699244 98.000000 15 363.810495
2.987277 -2.445922 3.194394 34.000000 13 363.810497
3.362687 -2.754282 2.934429 79.000000 11 363.810500
3.157653 -2.586347 2.222218 75.000000 9 363.810503
3.597833 -2.946887 1.967303 29.000000 7 363.810505
3.551459 -2.909939 1.438643 5.000000 5 363.810508
3.438205 -2.818145 0.935493 12.000000 3 363.810510
3.246239 -2.661747 0.469086 13.000000 1 363.810513
2.787391 -2.289579 3.292774 36.000000 14 363.810521
3.181630 -2.613413 3.081578 36.000000 12 363.810523
3.232890 -2.655519 2.543126 55.000000 10 363.810526
3.371155 -2.769094 2.104204 77.000000 8 363.810528
3.349921 -2.752632 1.597327 52.000000 6 363.810531
3.503429 -2.879794 1.184525 13.000000 4 363.810533
3.327719 -2.736335 0.692340 14.000000 2 363.810536
3.117320 -2.564239 0.256502 16.000000 0 363.810539
0.070726 -0.093723 11.913819 94.000000 31 363.810549
0.528663 -0.458880 4.450696 100.000000 28 363.810552
0.680951 -0.592450 4.362908 92.000000 27 363.810554
0.917688 -0.767169 3.868703 88.000000 25 363.810557
1.197899 -0.990257 3.721059 87.000000 23 363.810559
1.370581 -1.132615 3.324324 17.000000 21 363.810562
3.149868 -2.603007 4.967190 9.000000 17 363.810567
0.648849 -0.624357 15.363600 12.000000 30 363.810575
0.364628 -0.331967 4.548655 85.000000 29 363.810577
0.840060 -0.712429 4.275343 95.000000 26 363.810580
1.056579 -0.876535 3.787477 92.000000 24 363.810583
1.258677 -1.043467 3.442891 74.000000 22 363.810585
1.493304 -1.237548 3.242529 17.000000 20 363.810588
2.919075 -2.419149 5.093112 78.000000 18 363.810590
3.394262 -2.812960 4.857284 108.000000 16 363.810593
3.627246 -2.990061 4.699244 98.000000 15 363.810550
2.979149 -2.455815 3.194394 34.000000 13 363.810553
3.356761 -2.768078 2.937170 79.000000 11 363.810556
3.152477 -2.599622 2.224536 75.000000 9 363.810558
3.623286 -2.988928 1.986033 9.000000 7 363.810561
3.478378 -2.870410 1.414686 7.000000 5 363.810563
3.379586 -2.788886 0.923369 12.000000 3 363.810566
3.191309 -2.634453 0.463732 13.000000 1 363.810568
2.776905 -2.296430 3.289449 36.000000 14 363.810576
3.172946 -2.623950 3.081578 36.000000 12 363.810579
3.230245 -2.672284 2.548191 56.000000 10 363.810581
3.364965 -2.783738 2.106302 76.000000 8 363.810584
3.343930 -2.767320 1.598969 49.000000 6 363.810586
3.437194 -2.845512 1.166940 13.000000 4 363.810589
3.276192 -2.713189 0.684752 14.000000 2 363.810591
3.077572 -2.549607 0.254890 15.000000 0 363.810594
0.070373 -0.093933 11.908819 92.000000 31 363.810605
0.527058 -0.460722 4.450696 100.000000 28 363.810607
0.678879 -0.594824 4.362908 92.000000 27 363.810610
0.915005 -0.770368 3.868703 88.000000 25 363.810612
1.189931 -0.990683 3.707252 89.000000 23 363.810615
1.364778 -1.135860 3.319936 17.000000 21 363.810617
3.140762 -2.613986 4.967190 13.000000 17 363.810623
0.648327 -0.628232 15.403532 12.000000 30 363.810630
0.363467 -0.333237 4.548655 84.000000 29 363.810633
0.837568 -0.715357 4.275343 95.000000 26 363.810635
1.054837 -0.881325 3.792170 92.000000 24 363.810638
1.248340 -1.042271 3.424887 61.000000 22 363.810641
1.486972 -1.241082 3.238263 24.000000 20 363.810643
2.915241 -2.433187 5.101091 70.000000 18 363.810646
3.384422 -2.824791 4.857284 109.000000 16 363.810648
3.616787 -3.002705 4.699244 99.000000 15 363.810606
2.967564 -2.463712 3.191256 34.000000 13 363.810609
3.350295 -2.782449 2.939912 72.000000 11 363.810611
3.143384 -2.610610 2.224536 76.000000 9 363.810614
3.612830 -3.001557 1.986033 9.000000 7 363.810616
3.409306 -2.833474 1.392139 8.000000 5 363.810619
3.324496 -2.762989 0.912178 12.000000 3 363.810621
3.139970 -2.610555 0.458823 14.000000 1 363.810624
2.768872 -2.306109 3.289449 36.000000 14 363.810632
3.160661 -2.632422 3.078635 35.000000 12 363.810634
3.227522 -2.689063 2.553256 56.000000 10 363.810637
3.355228 -2.795467 2.106302 75.000000 8 363.810639
3.348761 -2.791070 1.605540 40.000000 6 363.810642
3.371242 -2.810803 1.149356 13.000000 4 363.810644
3.224868 -2.689718 0.677164 14.000000 2 363.810647
3.030293 -2.528328 0.252875 16.000000 0 363.810650
0.070045 -0.094178 11.908819 90.000000 31 363.810660
0.525446 -0.462559 4.450696 100.000000 28 363.810663
0.676798 -0.597190 4.362908 92.000000 27 363.810665
0.912310 -0.773557 3.868703 89.000000 25 363.810668
1.181974 -0.991064 3.693444 86.000000 23 363.810670
1.358969 -1.139078 3.315547 16.000000 21 363.810673
1.576999 -1.321836 3.094791 4.000000 19 363.810676
3.131619 -2.624934 4.967190 14.000000 17 363.810678
0.646131 -0.630491 15.403532 12.000000 30 363.810686
0.362302 -0.334504 4.548655 83.000000 29 363.810688
0.835066 -0.718276 4.275343 95.000000 26 363.810691
1.051754 -0.885001 3.792170 92.000000 24 363.810694
1.236361 -1.039614 3.402383 48.000000 22 363.810696
1.482631 -1.246265 3.238263 30.000000 20 363.810699
2.915958 -2.451105 5.117049 41.000000 18 363.810701
3.369350 -2.832225 4.849933 109.000000 16 363.810704
3.606283 -3.015311 4.699244 98.000000 15 363.810661
2.958946 -2.474056 3.191256 34.000000 13 363.810664
3.343769 -2.796810 2.942653 50.000000 11 363.810667
3.134252 -2.621567 2.224536 78.000000 9 363.810669
3.570332 -2.987375 1.969176 10.000000 7 363.810672
3.333178 -2.789932 1.366774 8.000000 5 363.810674
3.265862 -2.733588 0.900054 13.000000 3 363.810677
3.085018 -2.583134 0.453469 14.000000 1 363.810679
2.760806 -2.315760 3.289449 36.000000 14 363.810687
3.151453 -2.643439 3.078635 36.000000 12 363.810690
3.224721 -2.705855 2.558321 55.000000 10 363.810692
3.345449 -2.807162 2.106302 73.000000 8 363.810695
3.335381 -2.799706 1.603897 40.000000 6 363.810697
3.305574 -2.775669 1.131771 13.000000 4 363.810700
3.169957 -2.662735 0.668887 14.000000 2 363.810703
2.987025 -2.509964 0.251061 16.000000 0 363.810705
0.069691 -0.094386 11.903819 95.000000 31 363.810716
0.523828 -0.464391 4.450696 100.000000 28 363.810718
0.674709 -0.599549 4.362908 90.000000 27 363.810721
0.909604 -0.776737 3.868703 88.000000 25 363.810723
1.180000 -0.996445 3.698046 86.000000 23 363.810726
1.353154 -1.142269 3.311158 13.000000 21 363.810729
1.576676 -1.330963 3.103057 6.000000 19 363.810731
3.122437 -2.635849 4.967190 20.000000 17 363.810734
0.643101 -0.631930 15.383566 12.000000 30 363.810741
0.361132 -0.335767 4.548655 82.000000 29 363.810744
0.832554 -0.721187 4.275343 95.000000 26 363.810747
1.048658 -0.888667 3.792170 91.000000 24 363.810749
1.227738 -1.039702 3.388880 39.000000 22 363.810752
1.476281 -1.249748 3.233997 33.000000 20 363.810754
2.916586 -2.469059 5.133007 28.000000 18 363.810757
3.356856 -2.841779 4.846258 105.000000 16 363.810759
3.595736 -3.027881 4.699244 98.000000 15 363.810717
2.950291 -2.484369 3.191256 34.000000 13 363.810720
3.333986 -2.808465 2.942653 28.000000 11 363.810722
3.125081 -2.632492 2.224536 78.000000 9 363.810725
3.506706 -2.955010 1.941080 11.000000 7 363.810727
3.286739 -2.770630 1.352682 11.000000 5 363.810730
3.207475 -2.703813 0.887930 13.000000 3 363.810732
3.034105 -2.558572 0.448561 14.000000 1 363.810735
2.752706 -2.325383 3.289449 36.000000 14 363.810743
3.142207 -2.654424 3.078635 35.000000 12 363.810745
3.218549 -2.719878 2.560853 57.000000 10 363.810748
3.335630 -2.818823 2.106302 71.000000 8 363.810750
3.311162 -2.799136 1.597327 27.000000 6 363.810753
3.225348 -2.727557 1.109497 13.000000 4 363.810755
3.119054 -2.638602 0.661299 14.000000 2 363.810758
2.943923 -2.491329 0.249247 16.000000 0 363.810761
0.069361 -0.094629 11.903819 93.000000 31 363.810771
0.522204 -0.466216 4.450696 100.000000 28 363.810774
0.672612 -0.601900 4.362908 90.000000 27 363.810776
0.906887 -0.779907 3.868703 89.000000 25 363.810779
1.175026 -0.999292 3.693444 94.000000 23 363.810781
1.347333 -1.145434 3.306770 13.000000 21 363.810784
1.572021 -1.336459 3.103057 7.000000 19 363.810786
3.113217 -2.646732 4.967190 85.000000 17 363.810789
0.640385 -0.633447 15.368590 12.000000 30 363.810797
0.360017 -0.336962 4.548655 78.000000 29 363.810799
0.830158 -0.723944 4.275343 95.000000 26 363.810802
1.045706 -0.892140 3.792170 91.000000 24 363.810804
1.225759 -1.045394 3.393381 37.000000 22 363.810807
1.469925 -1.253201 3.229732 36.000000 20 363.810809
2.919417 -2.489001 5.152954 14.000000 18 363.810812
3.342254 -2.848497 4.838908 100.000000 16 363.810815
3.585145 -3.040414 4.699244 98.000000 15 363.810772
2.941601 -2.494653 3.191256 34.000000 13 363.810775
3.327351 -2.822791 2.945395 18.000000 11 363.810777
3.119251 -2.646250 2.226855 77.000000 9 363.810780
3.433255 -2.912639 1.907366 4.000000 7 363.810783
3.226326 -2.738057 1.332953 14.000000 5 363.810785
3.149336 -2.673664 0.875806 13.000000 3 363.810788
2.987196 -2.536911 0.444099 14.000000 1 363.810790
2.744571 -2.334977 3.289449 36.000000 14 363.810798
3.132922 -2.665376 3.078635 36.000000 12 363.810801
3.216079 -2.736123 2.565918 56.000000 10 363.810803
3.326264 -2.829868 2.106302 60.000000 8 363.810806
3.283880 -2.794798 1.589113 10.000000 6 363.810808
3.171873 -2.700427 1.095429 13.000000 4 363.810811
3.068815 -2.613611 0.653711 14.000000 2 363.810813
2.901419 -2.471919 0.247433 16.000000 0 363.810816
0.069047 -0.094858 11.903819 96.000000 31 363.810827
0.520655 -0.467946 4.450696 100.000000 28 363.810829
0.670613 -0.604127 4.362908 92.000000 27 363.810832
0.904296 -0.782910 3.868703 89.000000 25 363.810834
1.171706 -1.003183 3.693444 95.000000 23 363.810837
1.341707 -1.148338 3.302381 13.000000 21 363.810839
1.569718 -1.343495 3.107190 8.000000 19 363.810842
3.106858 -2.659126 4.971027 86.000000 17 363.810844
0.636940 -0.634451 15.338641 11.000000 30 363.810852
0.358838 -0.338217 4.548655 75.000000 29 363.810855
0.827626 -0.726837 4.275343 95.000000 26 363.810857
1.042585 -0.895785 3.792170 92.000000 24 363.810860
1.230546 -1.056546 3.415885 37.000000 22 363.810862
1.465761 -1.258069 3.229732 37.000000 20 363.810865
3.332290 -2.860146 4.838908 100.000000 16 363.810870
3.575043 -3.052286 4.699244 97.000000 15 363.810828
2.933313 -2.504394 3.191256 34.000000 13 363.810830
3.317972 -2.833809 2.945395 14.000000 11 363.810833
3.110459 -2.656580 2.226855 77.000000 9 363.810835
3.423067 -2.924605 1.907366 4.000000 7 363.810838
3.187574 -2.724367 1.321679 9.000000 5 363.810841
3.095642 -2.645794 0.864614 13.000000 3 363.810843
2.937130 -2.511204 0.439190 14.000000 1 363.810846
2.733977 -2.341637 3.286124 36.000000 14 363.810853
3.124066 -2.675750 3.078635 36.000000 12 363.810856
3.213056 -2.752943 2.570983 52.000000 10 363.810859
3.319812 -2.844415 2.108400 44.000000 8 363.810861
3.241834 -2.778584 1.574329 5.000000 6 363.810864
3.103388 -2.660861 1.076672 14.000000 4 363.810866
3.018325 -2.588842 0.646123 15.000000 2 363.810869
2.862440 -2.456006 0.245821 17.000000 0 363.810871
0.068715 -0.095099 11.903819 96.000000 31 363.810882
0.519019 -0.469760 4.450696 100.000000 28 363.810885
0.668500 -0.606465 4.362908 92.000000 27 363.810887
0.901558 -0.786062 3.868703 89.000000 25 363.810890
1.168197 -1.007267 3.693444 96.000000 23 363.810892
1.337690 -1.153014 3.302381 15.000000 21 363.810895
1.565019 -1.348966 3.107190 8.000000 19 363.810897
3.097558 -2.669955 4.971027 98.000000 17 363.810900
0.637376 -0.639340 15.403532 12.000000 30 363.810908
0.357655 -0.339467 4.548655 72.000000 29 363.810910
0.825084 -0.729722 4.275343 95.000000 26 363.810913
1.039452 -0.899419 3.792170 91.000000 24 363.810915
1.235087 -1.067957 3.438390 38.000000 22 363.810918
1.461361 -1.263177 3.229732 37.000000 20 363.810921
3.319721 -2.869543 4.835232 100.000000 16 363.810926
3.564367 -3.064747 4.699244 97.000000 15 363.810883
2.924553 -2.514617 3.191256 34.000000 13 363.810886
3.308060 -2.845374 2.945395 12.000000 11 363.810888
3.104526 -2.670310 2.229173 81.000000 9 363.810891
3.395267 -2.921418 1.898001 4.000000 7 363.810894
3.145322 -2.707311 1.308997 9.000000 5 363.810896
3.041711 -2.618128 0.853423 13.000000 3 363.810899
2.886834 -2.485697 0.434282 14.000000 1 363.810901
2.728614 -2.353605 3.289449 36.000000 14 363.810909
3.117767 -2.689279 3.081578 36.000000 12 363.810912
3.209955 -2.769775 2.576048 53.000000 10 363.810914
3.306427 -2.853021 2.106302 25.000000 8 363.810917
3.199941 -2.762112 1.559545 5.000000 6 363.810919
3.068328 -2.649441 1.068466 14.000000 4 363.810922
2.968046 -2.563753 0.638535 14.000000 2 363.810924
2.819828 -2.436584 0.244007 18.000000 0 363.810927
0.068383 -0.095338 11.903819 96.000000 31 363.810938
0.517376 -0.471569 4.450696 100.000000 28 363.810940
0.666379 -0.608794 4.362908 92.000000 27 363.810943
0.898808 -0.789204 3.868703 88.000000 25 363.810945
1.164674 -1.011338 3.693444 96.000000 23 363.810948
1.333658 -1.157677 3.302381 21.000000 21 363.810950
1.562425 -1.356265 3.111322 8.000000 19 363.810953
3.090640 -2.682853 4.974864 99.000000 17 363.810955
0.636361 -0.642797 15.433482 12.000000 30 363.810963
0.356468 -0.340714 4.548655 69.000000 29 363.810966
0.822531 -0.732597 4.275343 95.000000 26 363.810968
1.036306 -0.903041 3.792170 91.000000 24 363.810971
1.239563 -1.079413 3.460894 34.000000 22 363.810973
1.456943 -1.268271 3.229732 36.000000 20 363.810976
1.681975 -1.464168 3.026551 28.000000 18 363.810979
3.309685 -2.881114 4.835232 100.000000 16 363.810981
3.553647 -3.077170 4.699244 98.000000 15 363.810939
2.915757 -2.524811 3.191256 34.000000 13 363.810941
3.301268 -2.859642 2.948136 11.000000 11 363.810944
3.098534 -2.684031 2.231491 77.000000 9 363.810947
3.360523 -2.912000 1.884889 5.000000 7 363.810949
3.103228 -2.689993 1.296314 10.000000 5 363.810952
2.988011 -2.590119 0.842231 13.000000 3 363.810954
2.832990 -2.456608 0.428927 12.000000 1 363.810957
2.720382 -2.363115 3.289449 36.000000 14 363.810965
3.108361 -2.700146 3.081578 35.000000 12 363.810967
3.206776 -2.786618 2.581113 54.000000 10 363.810970
3.306726 -2.873476 2.112597 10.000000 8 363.810972
3.158203 -2.745381 1.544761 5.000000 6 363.810975
3.015048 -2.621862 1.054398 14.000000 4 363.810977
2.917979 -2.538346 0.630947 14.000000 2 363.810980
2.781156 -2.420176 0.242395 18.000000 0 363.810982
0.068050 -0.095576 11.903819 95.000000 31 363.810993
0.515726 -0.473372 4.450696 100.000000 28 363.810996
0.664250 -0.611117 4.362908 92.000000 27 363.810998
0.896048 -0.792337 3.868703 88.000000 25 363.811001
1.161137 -1.015398 3.693444 95.000000 23 363.811003
1.329608 -1.162325 3.302381 33.000000 21 363.811006
1.559801 -1.363563 3.115456 8.000000 19 363.811008
3.081256 -2.693625 4.974864 99.000000 17 363.811011
0.635330 -0.646255 15.463431 12.000000 30 363.811019
0.355277 -0.341956 4.548655 66.000000 29 363.811021
0.819969 -0.735464 4.275343 95.000000 26 363.811024
1.033147 -0.906653 3.792170 91.000000 24 363.811026
1.240700 -1.088041 3.474396 33.000000 22 363.811029
1.452507 -1.273349 3.229732 33.000000 20 363.811032
1.676854 -1.470030 3.026551 33.000000 18 363.811034
3.299608 -2.892649 4.835232 100.000000 16 363.811037
3.542884 -3.089556 4.699244 98.000000 15 363.810994
2.906926 -2.534973 3.191256 34.000000 13 363.810997
3.291266 -2.871148 2.948136 11.000000 11 363.810999
3.092485 -2.697743 2.233809 75.000000 9 363.811002
3.315409 -2.893231 1.866159 6.000000 7 363.811005
3.061293 -2.672415 1.283631 10.000000 5 363.811007
2.941946 -2.568229 0.832905 13.000000 3 363.811010
2.805643 -2.450103 0.426696 12.000000 1 363.811012
2.712117 -2.372597 3.289449 36.000000 14 363.811020
3.098917 -2.710980 3.081578 36.000000 12 363.811023
3.203518 -2.803474 2.586178 54.000000 10 363.811025
3.296675 -2.885001 2.112597 10.000000 8 363.811028
3.120175 -2.731503 1.531619 26.000000 6 363.811030
2.954684 -2.587538 1.037986 14.000000 4 363.811033
2.868126 -2.512620 0.623359 14.000000 2 363.811035
2.742632 -2.403527 0.240783 18.000000 0 363.811038
0.067716 -0.095813 11.903819 94.000000 31 363.811049
0.514071 -0.475169 4.450696 100.000000 28 363.811051
0.662113 -0.613432 4.362908 90.000000 27 363.811054
0.893277 -0.795460 3.868703 89.000000 25 363.811056
