# .PCD v.7 - Point Cloud Data file format
VERSION .7
FIELDS x y z intensity ring timestamp
SIZE 4 4 4 4 2 8
TYPE F F F F U D
COUNT 1 1 1 1 1 1
WIDTH 926
HEIGHT 1
VIEWPOINT 0 0 0 1 0 0 0
POINTS 926
DATA ascii
0.830149 -0.044264 4.020242 88.000000 27 364.800467
1.104389 -0.037110 3.577628 5.000000 25 364.800470
1.461812 -0.041067 3.504740 11.000000 23 364.800472
2.136538 -0.059663 3.982624 81.000000 21 364.800475
2.580114 -0.072056 3.863519 86.000000 19 364.800477
3.059151 -0.085440 3.739368 92.000000 17 364.800480
0.269295 -0.027165 4.506852 99.000000 30 364.800488
0.482641 -0.036662 4.464140 99.000000 29 364.800490
1.017622 -0.041396 3.955956 92.000000 26 364.800493
1.303227 -0.038883 3.599766 13.000000 24 364.800495
1.636425 -0.048264 3.447391 10.000000 22 364.800498
2.360939 -0.069233 3.933611 91.000000 20 364.800501
2.810469 -0.082421 3.796524 87.000000 18 364.800503
3.301762 -0.096833 3.659179 94.000000 16 364.800506
3.576141 -0.095511 3.595312 94.000000 15 364.800463
4.151359 -0.110877 3.429728 10.000000 13 364.800466
4.809093 -0.129285 3.238731 10.000000 11 364.800468
4.279475 -0.115049 2.326530 9.000000 9 364.800471
4.445042 -0.120277 1.884889 9.000000 7 364.800474
5.045236 -0.137399 1.572516 11.000000 5 364.800476
5.087201 -0.138542 1.057667 9.000000 3 364.800479
4.788800 -0.131251 0.522185 10.000000 1 364.800481
3.852103 -0.108937 3.512214 26.000000 14 364.800489
4.467233 -0.126337 3.337633 10.000000 12 364.800492
5.065456 -0.144140 3.062274 7.000000 10 364.800494
4.379015 -0.124609 2.112597 9.000000 8 364.800497
4.588909 -0.131383 1.686032 11.000000 6 364.800499
5.257164 -0.151435 1.359201 10.000000 4 364.800502
4.940082 -0.143164 0.780637 11.000000 2 364.800504
4.668959 -0.136122 0.282097 8.000000 0 364.800507
0.052048 -0.011920 4.569100 101.000000 31 364.800518
0.638446 -0.035527 4.065434 100.000000 28 364.800520
0.828973 -0.047104 4.015347 88.000000 27 364.800523
1.104253 -0.040965 3.577628 4.000000 25 364.800525
1.461660 -0.046169 3.504740 11.000000 23 364.800528
2.133922 -0.067046 3.978235 81.000000 21 364.800530
2.579847 -0.081062 3.863519 86.000000 19 364.800533
3.058834 -0.096117 3.739368 92.000000 17 364.800536
0.269199 -0.028105 4.506852 100.000000 30 364.800543
0.482510 -0.038346 4.464140 99.000000 29 364.800546
1.017471 -0.044948 3.955956 92.000000 26 364.800548
1.303083 -0.043432 3.599766 13.000000 24 364.800551
1.636246 -0.053976 3.447391 10.000000 22 364.800554
2.360683 -0.077474 3.933611 91.000000 20 364.800556
2.810164 -0.092230 3.796524 88.000000 18 364.800559
3.301404 -0.108357 3.659179 92.000000 16 364.800561
3.572221 -0.107885 3.591807 94.000000 15 364.800519
4.147055 -0.125250 3.426589 11.000000 13 364.800521
4.804433 -0.145944 3.235990 10.000000 11 364.800524
4.314473 -0.131063 2.345074 8.000000 9 364.800527
4.486299 -0.137066 1.901747 9.000000 7 364.800529
5.035136 -0.154714 1.569698 11.000000 5 364.800532
5.081776 -0.156147 1.056734 10.000000 3 364.800534
4.783334 -0.147813 0.521739 10.000000 1 364.800537
3.847967 -0.122264 3.508889 65.000000 14 364.800545
4.462726 -0.141801 3.334690 10.000000 12 364.800547
5.064922 -0.161821 3.062274 6.000000 10 364.800550
4.419379 -0.141198 2.131479 9.000000 8 364.800552
4.583702 -0.147249 1.684389 12.000000 6 364.800555
5.251744 -0.169628 1.358028 10.000000 4 364.800557
4.934602 -0.160246 0.779947 11.000000 2 364.800560
4.663462 -0.152256 0.281895 26.000000 0 364.800562
0.052006 -0.012101 4.569100 100.000000 31 364.800573
0.638318 -0.037755 4.065434 100.000000 28 364.800576
0.828803 -0.049997 4.015347 87.000000 27 364.800578
1.104103 -0.044819 3.577628 5.000000 25 364.800581
1.461490 -0.051271 3.504740 11.000000 23 364.800583
2.133675 -0.074494 3.978235 84.000000 21 364.800586
2.576736 -0.089969 3.859386 86.000000 19 364.800588
3.052072 -0.106570 3.731694 92.000000 17 364.800591
0.269099 -0.029045 4.506852 99.000000 30 364.800599
0.481841 -0.039986 4.459169 99.000000 29 364.800601
1.017308 -0.048499 3.955956 93.000000 26 364.800604
1.302924 -0.047981 3.599766 13.000000 24 364.800606
1.636048 -0.059687 3.447391 9.000000 22 364.800609
2.357792 -0.085619 3.929345 91.000000 20 364.800612
2.806813 -0.101930 3.792535 88.000000 18 364.800614
3.297618 -0.119758 3.655504 92.000000 16 364.800617
3.571823 -0.120354 3.591807 93.000000 15 364.800574
4.146593 -0.139725 3.426589 11.000000 13 364.800577
4.803895 -0.162714 3.235990 10.000000 11 364.800580
4.340555 -0.147022 2.358982 8.000000 9 364.800582
4.522859 -0.153987 1.916731 9.000000 7 364.800585
5.024976 -0.171961 1.566879 11.000000 5 364.800587
5.071381 -0.173549 1.054869 10.000000 3 364.800590
4.777812 -0.164338 0.521293 10.000000 1 364.800592
3.843785 -0.135564 3.505564 89.000000 14 364.800600
4.458163 -0.157235 3.331747 10.000000 12 364.800603
5.016932 -0.177820 3.034417 11.000000 10 364.800605
4.459681 -0.158071 2.150362 8.000000 8 364.800608
4.625636 -0.164761 1.699173 10.000000 6 364.800610
5.246262 -0.187785 1.356856 9.000000 4 364.800613
4.929064 -0.177292 0.779257 11.000000 2 364.800615
4.652917 -0.168173 0.281492 23.000000 0 364.800618
0.051964 -0.012283 4.569100 100.000000 31 364.800629
0.638182 -0.039983 4.065434 100.000000 28 364.800631
0.828624 -0.052890 4.015347 88.000000 27 364.800634
1.103940 -0.048673 3.577628 5.000000 25 364.800636
1.459350 -0.056297 3.500138 11.000000 23 364.800639
2.131009 -0.081850 3.973846 84.000000 21 364.800641
2.576407 -0.098963 3.859386 86.000000 19 364.800644
3.048477 -0.117100 3.727857 80.000000 17 364.800647
0.268996 -0.029984 4.506852 99.000000 30 364.800654
0.481699 -0.041667 4.459169 98.000000 29 364.800657
1.017133 -0.052050 3.955956 93.000000 26 364.800659
1.301024 -0.052459 3.595074 13.000000 24 364.800662
1.635830 -0.065398 3.447391 9.000000 22 364.800665
2.357479 -0.093849 3.929345 91.000000 20 364.800667
2.803428 -0.111607 3.788546 88.000000 18 364.800670
3.297180 -0.131268 3.655504 92.000000 16 364.800672
3.567817 -0.132689 3.588302 91.000000 15 364.800630
4.142190 -0.154054 3.423452 10.000000 13 364.800632
4.799119 -0.179326 3.233249 10.000000 11 364.800635
4.375432 -0.163496 2.377526 7.000000 9 364.800638
4.559355 -0.171166 1.931715 9.000000 7 364.800640
5.014757 -0.189139 1.564061 12.000000 5 364.800643
5.065835 -0.191065 1.053936 10.000000 3 364.800645
4.772233 -0.180826 0.520847 10.000000 1 364.800648
3.839557 -0.148835 3.502240 92.000000 14 364.800656
4.453548 -0.172640 3.328803 10.000000 12 364.800658
5.037821 -0.196170 3.047079 10.000000 10 364.800661
4.499917 -0.175226 2.169244 8.000000 8 364.800663
4.629751 -0.181092 1.700816 10.000000 6 364.800666
5.240719 -0.205906 1.355684 9.000000 4 364.800668
4.923467 -0.194302 0.778567 11.000000 2 364.800671
4.657293 -0.184611 0.281694 26.000000 0 364.800674
0.051921 -0.012464 4.569100 100.000000 31 364.800684
0.638039 -0.042211 4.065434 100.000000 28 364.800687
0.828434 -0.055782 4.015347 88.000000 27 364.800689
1.103764 -0.052526 3.577628 5.000000 25 364.800692
1.459144 -0.061391 3.500138 11.000000 23 364.800694
2.128316 -0.089187 3.969458 85.000000 21 364.800697
2.573234 -0.107838 3.855253 86.000000 19 364.800700
3.041644 -0.127472 3.720183 54.000000 17 364.800702
0.268890 -0.030923 4.506852 100.000000 30 364.800710
0.481019 -0.043300 4.454197 98.000000 29 364.800712
1.015689 -0.055531 3.951116 93.000000 26 364.800715
1.300833 -0.057000 3.595074 14.000000 24 364.800718
1.633416 -0.071013 3.442891 8.000000 22 364.800720
2.354531 -0.101965 3.925079 91.000000 20 364.800723
2.803022 -0.121392 3.788546 87.000000 18 364.800725
3.293315 -0.142630 3.651829 92.000000 16 364.800728
3.567332 -0.145142 3.588302 91.000000 15 364.800685
4.137737 -0.168354 3.420314 9.000000 13 364.800688
4.798463 -0.196077 3.233249 10.000000 11 364.800691
4.436806 -0.181301 2.409979 8.000000 9 364.800693
4.600418 -0.188791 1.948573 9.000000 7 364.800696
5.004480 -0.206247 1.561243 11.000000 5 364.800698
5.055321 -0.208343 1.052071 9.000000 3 364.800701
4.766597 -0.197277 0.520400 10.000000 1 364.800703
3.839014 -0.162237 3.502240 92.000000 14 364.800711
4.448881 -0.188014 3.325860 10.000000 12 364.800714
5.054335 -0.214485 3.057209 10.000000 10 364.800716
4.544622 -0.192857 2.190224 9.000000 8 364.800719
4.680990 -0.199463 1.718885 10.000000 6 364.800721
5.235112 -0.223990 1.354511 10.000000 4 364.800724
4.917811 -0.211274 0.777877 11.000000 2 364.800726
4.661613 -0.201082 0.281895 20.000000 0 364.800729
0.051877 -0.012645 4.569100 100.000000 31 364.800740
0.637887 -0.044437 4.065434 100.000000 28 364.800742
0.827218 -0.058601 4.010452 88.000000 27 364.800745
1.103574 -0.056378 3.577628 5.000000 25 364.800747
1.458921 -0.066484 3.500138 11.000000 23 364.800750
2.125598 -0.096507 3.965069 85.000000 21 364.800752
2.572842 -0.116819 3.855253 88.000000 19 364.800755
3.034775 -0.137798 3.712509 10.000000 17 364.800758
0.268780 -0.031861 4.506852 100.000000 30 364.800765
0.480864 -0.044979 4.454197 99.000000 29 364.800768
1.015489 -0.059076 3.951116 93.000000 26 364.800770
1.300626 -0.061540 3.595074 13.000000 24 364.800773
1.630983 -0.076612 3.438390 8.000000 22 364.800776
2.351556 -0.110061 3.920813 91.000000 20 364.800778
2.799570 -0.131035 3.784556 87.000000 18 364.800781
3.292797 -0.154125 3.651829 92.000000 16 364.800783
3.563241 -0.157436 3.584798 92.000000 15 364.800741
4.133235 -0.182624 3.417176 9.000000 13 364.800744
4.793572 -0.212640 3.230507 10.000000 11 364.800746
4.471553 -0.198357 2.428523 6.000000 9 364.800749
4.641413 -0.206704 1.965430 9.000000 7 364.800751
4.998937 -0.223501 1.559833 11.000000 5 364.800754
5.049656 -0.225768 1.051138 9.000000 3 364.800756
4.760904 -0.213691 0.519954 17.000000 1 364.800759
3.834694 -0.175466 3.498915 92.000000 14 364.800767
4.444159 -0.203357 3.322917 11.000000 12 364.800769
5.062169 -0.232523 3.062274 12.000000 10 364.800772
4.584725 -0.210594 2.209107 9.000000 8 364.800774
4.732158 -0.218194 1.736955 10.000000 6 364.800777
5.229442 -0.242038 1.353339 10.000000 4 364.800779
4.907150 -0.227979 0.776498 11.000000 2 364.800782
4.665873 -0.217586 0.282097 19.000000 0 364.800785
0.051791 -0.012813 4.564100 96.000000 31 364.800795
0.637728 -0.046664 4.065434 100.000000 28 364.800798
0.827009 -0.061488 4.010452 88.000000 27 364.800800
1.103370 -0.060230 3.577628 5.000000 25 364.800803
1.456729 -0.071480 3.495535 11.000000 23 364.800805
2.122855 -0.103810 3.960680 87.000000 21 364.800808
2.569608 -0.125662 3.851120 88.000000 19 364.800811
3.031074 -0.148234 3.708672 10.000000 17 364.800813
0.268380 -0.032763 4.501860 100.000000 30 364.800821
0.480705 -0.046657 4.454197 99.000000 29 364.800823
1.015277 -0.062620 3.951116 93.000000 26 364.800826
1.300404 -0.066080 3.595074 13.000000 24 364.800829
1.628530 -0.082195 3.433889 7.000000 22 364.800831
2.351157 -0.118269 3.920813 90.000000 20 364.800834
2.799096 -0.140806 3.784556 88.000000 18 364.800836
3.288853 -0.165447 3.648154 92.000000 16 364.800839
3.559108 -0.169703 3.581294 92.000000 15 364.800796
4.128685 -0.196865 3.414038 10.000000 13 364.800799
4.792801 -0.229371 3.230507 10.000000 11 364.800802
5.563844 -0.266275 3.001076 6.000000 9 364.800804
4.686969 -0.225129 1.984160 9.000000 7 364.800807
4.988543 -0.240487 1.557015 11.000000 5 364.800809
5.043931 -0.243157 1.050206 10.000000 3 364.800812
4.760129 -0.230308 0.519954 20.000000 1 364.800814
3.830328 -0.188667 3.495590 93.000000 14 364.800822
4.439385 -0.218670 3.319974 11.000000 12 364.800825
5.074245 -0.250830 3.069871 12.000000 10 364.800827
4.629292 -0.228837 2.230087 9.000000 8 364.800830
4.783250 -0.237285 1.755024 10.000000 6 364.800832
5.218856 -0.259807 1.350994 10.000000 4 364.800835
4.906324 -0.245107 0.776498 11.000000 2 364.800838
4.670074 -0.234122 0.282298 32.000000 0 364.800840
0.051746 -0.012993 4.564100 96.000000 31 364.800851
0.637562 -0.048890 4.065434 99.000000 28 364.800853
0.826789 -0.064375 4.010452 89.000000 27 364.800856
1.103153 -0.064081 3.577628 6.000000 25 364.800858
1.456470 -0.076565 3.495535 11.000000 23 364.800861
2.115303 -0.110843 3.947514 88.000000 21 364.800864
2.569153 -0.134631 3.851120 88.000000 19 364.800866
3.027336 -0.158646 3.704835 7.000000 17 364.800869
0.268551 -0.033737 4.506852 100.000000 30 364.800876
0.480539 -0.048335 4.454197 99.000000 29 364.800879
1.015052 -0.066164 3.951116 93.000000 26 364.800882
1.300165 -0.070619 3.595074 13.000000 24 364.800884
1.626059 -0.087762 3.429388 6.000000 22 364.800887
2.348126 -0.126335 3.916547 90.000000 20 364.800889
2.798587 -0.150576 3.784556 88.000000 18 364.800892
3.284870 -0.176744 3.644479 92.000000 16 364.800894
3.558493 -0.182126 3.581294 89.000000 15 364.800852
4.124084 -0.211077 3.410901 43.000000 13 364.800855
4.787796 -0.245885 3.227766 10.000000 11 364.800857
5.562881 -0.285695 3.001076 5.000000 9 364.800860
4.732451 -0.243874 2.002891 9.000000 7 364.800862
4.982882 -0.257651 1.555606 11.000000 5 364.800865
5.038146 -0.260509 1.049273 9.000000 3 364.800867
4.754323 -0.246665 0.519508 57.000000 1 364.800870
3.825917 -0.201839 3.492265 93.000000 14 364.800878
4.434559 -0.233952 3.317031 11.000000 12 364.800880
5.081948 -0.268997 3.074936 9.000000 10 364.800883
4.673787 -0.247394 2.251068 9.000000 8 364.800885
4.834267 -0.256735 1.773094 10.000000 6 364.800888
5.213065 -0.277764 1.349822 10.000000 4 364.800890
4.900494 -0.261968 0.775808 10.000000 2 364.800893
4.674217 -0.250689 0.282500 90.000000 0 364.800896
0.051700 -0.013174 4.564100 101.000000 31 364.800907
0.637387 -0.051115 4.065434 98.000000 28 364.800910
0.826559 -0.067260 4.010452 89.000000 27 364.800912
1.102923 -0.067932 3.577628 7.000000 25 364.800915
1.456194 -0.081648 3.495535 11.000000 23 364.800917
2.107727 -0.117825 3.934348 89.000000 21 364.800920
2.565858 -0.143441 3.846987 88.000000 19 364.800922
3.023563 -0.169033 3.700998 7.000000 17 364.800925
0.268432 -0.034674 4.506852 100.000000 30 364.800933
0.480367 -0.050012 4.454197 99.000000 29 364.800935
1.014815 -0.069707 3.951116 93.000000 26 364.800938
1.298187 -0.075057 3.590381 13.000000 24 364.800940
1.623569 -0.093312 3.424887 5.000000 22 364.800943
2.347671 -0.134531 3.916547 91.000000 20 364.800945
2.795035 -0.160172 3.780566 87.000000 18 364.800948
3.284233 -0.188210 3.644479 92.000000 16 364.800951
3.554275 -0.194351 3.577789 89.000000 15 364.800908
4.119435 -0.225259 3.407763 68.000000 13 364.800911
4.782732 -0.262367 3.225024 10.000000 11 364.800913
5.358366 -0.293948 2.894446 6.000000 9 364.800916
4.777862 -0.262939 2.021621 9.000000 7 364.800919
4.977162 -0.274779 1.554197 11.000000 5 364.800921
5.032300 -0.277823 1.048340 9.000000 3 364.800924
4.753433 -0.263259 0.519508 73.000000 1 364.800926
3.825189 -0.215193 3.492265 93.000000 14 364.800934
4.429679 -0.249203 3.314087 10.000000 12 364.800937
5.093893 -0.287463 3.082533 8.000000 10 364.800939
4.709145 -0.265753 2.267852 10.000000 8 364.800942
4.880490 -0.276277 1.789521 11.000000 6 364.800944
5.207210 -0.295684 1.348650 9.000000 4 364.800947
4.894605 -0.278790 0.775118 19.000000 2 364.800949
4.673314 -0.267004 0.282500 90.000000 0 364.800952
0.051654 -0.013354 4.564100 101.000000 31 364.800963
0.637205 -0.053339 4.065434 98.000000 28 364.800965
0.826320 -0.070145 4.010452 89.000000 27 364.800968
1.102679 -0.071781 3.577628 9.000000 25 364.800970
1.453950 -0.086615 3.490933 11.000000 23 364.800973
2.088171 -0.124045 3.899239 88.000000 21 364.800975
2.565342 -0.152397 3.846987 88.000000 19 364.800978
3.022955 -0.179586 3.700998 11.000000 17 364.800980
0.268309 -0.035611 4.506852 100.000000 30 364.800988
0.480190 -0.051688 4.454197 99.000000 29 364.800991
1.014565 -0.073249 3.951116 93.000000 26 364.800993
1.297918 -0.079588 3.590381 13.000000 24 364.800996
1.618885 -0.098714 3.415885 4.000000 22 364.800998
2.344583 -0.142567 3.912281 91.000000 20 364.801001
2.794460 -0.169927 3.780566 88.000000 18 364.801004
3.280172 -0.199467 3.640804 92.000000 16 364.801006
3.553575 -0.206757 3.577789 90.000000 15 364.800964
4.118623 -0.239637 3.407763 84.000000 13 364.800966
4.777613 -0.278817 3.222283 10.000000 11 364.800969
5.308658 -0.309811 2.868948 9.000000 9 364.800971
4.827822 -0.282595 2.042224 8.000000 7 364.800974
4.971383 -0.291869 1.552787 10.000000 5 364.800977
5.031300 -0.295387 1.048340 9.000000 3 364.800979
4.747514 -0.279557 0.519062 73.000000 1 364.800982
3.820687 -0.228321 3.488940 93.000000 14 364.800989
4.428783 -0.264664 3.314087 10.000000 12 364.800992
5.105768 -0.306016 3.090130 8.000000 10 364.800995
4.816918 -0.288706 2.318206 10.000000 8 364.800997
4.926636 -0.296145 1.805948 10.000000 6 364.801000
5.201294 -0.313567 1.347477 9.000000 4 364.801002
4.888659 -0.295575 0.774428 26.000000 2 364.801005
4.667367 -0.283013 0.282298 90.000000 0 364.801007
0.051607 -0.013534 4.564100 101.000000 31 364.801018
0.637015 -0.055563 4.065434 100.000000 28 364.801021
0.826070 -0.073029 4.010452 87.000000 27 364.801023
1.103912 -0.075732 3.582400 8.000000 25 364.801026
1.453639 -0.091689 3.490933 11.000000 23 364.801028
2.063815 -0.129829 3.855352 85.000000 21 364.801031
2.564794 -0.161350 3.846987 88.000000 19 364.801033
3.022310 -0.190137 3.700998 11.000000 17 364.801036
0.268183 -0.036547 4.506852 100.000000 30 364.801044
0.480006 -0.053364 4.454197 99.000000 29 364.801046
1.014303 -0.076790 3.951116 93.000000 26 364.801049
1.295910 -0.084007 3.585688 13.000000 24 364.801051
1.618531 -0.104364 3.415885 4.000000 22 364.801054
2.344071 -0.150750 3.912281 90.000000 20 364.801057
2.790841 -0.179487 3.776577 88.000000 18 364.801059
3.279456 -0.210916 3.640804 92.000000 16 364.801062
3.549272 -0.218940 3.574284 90.000000 15 364.801019
4.113877 -0.253772 3.404625 86.000000 13 364.801022
4.772438 -0.295234 3.219541 10.000000 11 364.801024
5.404822 -0.334358 2.919945 7.000000 9 364.801027
4.868449 -0.302029 2.059082 8.000000 7 364.801030
5.013427 -0.311902 1.565470 9.000000 5 364.801032
5.025335 -0.312643 1.047408 9.000000 3 364.801035
4.741538 -0.295817 0.518616 75.000000 1 364.801037
3.819867 -0.241657 3.488940 94.000000 14 364.801045
4.423798 -0.279867 3.311144 10.000000 12 364.801048
5.113274 -0.324383 3.095195 9.000000 10 364.801050
4.861175 -0.308392 2.339186 9.000000 8 364.801053
4.972701 -0.316339 1.822374 10.000000 6 364.801055
5.195317 -0.331411 1.346305 10.000000 4 364.801058
4.882655 -0.312322 0.773739 32.000000 2 364.801060
4.666350 -0.299303 0.282298 90.000000 0 364.801063
0.051560 -0.013715 4.564100 101.000000 31 364.801074
0.636817 -0.057787 4.065434 100.000000 28 364.801076
0.825810 -0.075912 4.010452 87.000000 27 364.801079
1.105130 -0.079693 3.587171 8.000000 25 364.801081
1.453310 -0.096763 3.490933 11.000000 23 364.801084
2.034663 -0.135127 3.802689 91.000000 21 364.801086
2.561407 -0.170116 3.842854 88.000000 19 364.801089
3.018429 -0.200473 3.697161 9.000000 17 364.801091
0.268054 -0.037483 4.506852 100.000000 30 364.801099
0.479287 -0.054978 4.449226 99.000000 29 364.801102
1.014029 -0.080330 3.951116 93.000000 26 364.801104
1.293887 -0.088412 3.580995 13.000000 24 364.801107
1.615984 -0.109865 3.411385 4.000000 22 364.801109
2.340929 -0.158755 3.908015 90.000000 20 364.801112
2.790198 -0.189228 3.776577 88.000000 18 364.801115
3.275317 -0.222132 3.637128 92.000000 16 364.801117
3.548486 -0.231328 3.574284 90.000000 15 364.801075
4.112966 -0.268131 3.404625 93.000000 13 364.801077
4.767205 -0.311618 3.216800 10.000000 11 364.801080
5.443409 -0.355823 2.940807 6.000000 9 364.801083
4.918252 -0.322357 2.079685 10.000000 7 364.801085
5.036242 -0.330973 1.572516 9.000000 5 364.801088
5.019312 -0.329860 1.046475 10.000000 3 364.801090
4.735508 -0.312039 0.518169 75.000000 1 364.801093
3.819000 -0.254989 3.488940 94.000000 14 364.801101
4.422794 -0.295307 3.311144 11.000000 12 364.801103
5.125015 -0.343093 3.102793 10.000000 10 364.801106
5.217811 -0.349308 2.504932 19.000000 8 364.801108
5.018685 -0.336857 1.838801 9.000000 6 364.801111
5.189280 -0.349218 1.345133 10.000000 4 364.801113
4.876595 -0.329030 0.773049 92.000000 2 364.801116
4.660292 -0.315253 0.282097 91.000000 0 364.801118
0.051511 -0.013894 4.564100 100.000000 31 364.801129
0.636611 -0.060009 4.065434 100.000000 28 364.801132
0.825540 -0.078794 4.010452 91.000000 27 364.801134
1.109313 -0.083888 3.601486 11.000000 25 364.801137
1.452963 -0.101835 3.490933 12.000000 23 364.801139
1.995940 -0.139554 3.732470 82.000000 21 364.801142
2.560798 -0.179056 3.842854 88.000000 19 364.801144
3.017710 -0.211009 3.697161 9.000000 17 364.801147
0.267922 -0.038418 4.506852 100.000000 30 364.801155
0.479092 -0.056650 4.449226 98.000000 29 364.801157
1.012489 -0.083765 3.946277 93.000000 26 364.801160
1.291849 -0.092804 3.576303 13.000000 24 364.801162
1.615591 -0.115506 3.411385 4.000000 22 364.801165
2.340360 -0.166925 3.908015 85.000000 20 364.801168
2.786514 -0.198752 3.772588 88.000000 18 364.801170
3.274522 -0.233564 3.637128 92.000000 16 364.801173
3.544099 -0.243469 3.570780 90.000000 15 364.801130
4.108121 -0.282220 3.401487 93.000000 13 364.801133
4.761918 -0.327970 3.214058 9.000000 11 364.801135
5.468652 -0.376649 2.954715 5.000000 9 364.801138
4.954095 -0.342077 2.094669 11.000000 7 364.801141
5.111630 -0.353852 1.595063 9.000000 5 364.801143
5.013230 -0.347040 1.045543 10.000000 3 364.801146
4.724453 -0.327878 0.517277 76.000000 1 364.801148
3.814361 -0.268056 3.485615 92.000000 14 364.801156
4.421736 -0.310744 3.311144 35.000000 12 364.801159
5.123786 -0.360981 3.102793 9.000000 10 364.801161
5.402179 -0.380597 2.590952 12.000000 8 364.801164
5.059875 -0.357368 1.853586 9.000000 6 364.801166
5.183180 -0.366986 1.343960 10.000000 4 364.801169
4.870476 -0.345700 0.772359 92.000000 2 364.801171
4.654180 -0.331164 0.281895 91.000000 0 364.801174
0.051462 -0.014074 4.564100 100.000000 31 364.801185
0.635624 -0.062155 4.060494 99.000000 28 364.801187
0.825260 -0.081675 4.010452 89.000000 27 364.801190
1.109013 -0.087760 3.601486 13.000000 25 364.801192
1.452599 -0.106906 3.490933 13.000000 23 364.801195
1.957212 -0.143713 3.662251 68.000000 21 364.801197
2.557351 -0.187787 3.838722 88.000000 19 364.801200
3.013758 -0.221306 3.693324 9.000000 17 364.801203
0.267786 -0.039353 4.506852 100.000000 30 364.801210
0.478891 -0.058322 4.449226 98.000000 29 364.801213
1.012190 -0.087299 3.946277 93.000000 26 364.801215
1.291518 -0.097313 3.576303 13.000000 24 364.801218
1.613006 -0.120981 3.406884 4.000000 22 364.801221
2.347566 -0.175677 3.920813 75.000000 20 364.801223
2.785804 -0.208477 3.772588 88.000000 18 364.801226
3.270306 -0.244740 3.633454 92.000000 16 364.801228
3.543228 -0.255839 3.570780 91.000000 15 364.801186
4.107111 -0.296558 3.401487 88.000000 13 364.801188
4.756573 -0.344288 3.211317 10.000000 11 364.801191
5.493816 -0.397654 2.968623 8.000000 9 364.801194
5.022227 -0.364401 2.122765 9.000000 7 364.801196
5.158211 -0.375172 1.609155 9.000000 5 364.801199
5.007088 -0.364181 1.044610 15.000000 3 364.801201
4.718313 -0.344005 0.516831 75.000000 1 364.801204
3.813402 -0.281369 3.485615 93.000000 14 364.801212
4.416594 -0.325879 3.308201 69.000000 12 364.801214
5.122495 -0.378864 3.102793 9.000000 10 364.801217
5.921326 -0.437950 2.832228 10.000000 8 364.801219
5.110402 -0.378869 1.871655 10.000000 6 364.801222
5.172173 -0.384356 1.341616 10.000000 4 364.801224
4.864302 -0.362331 0.771669 88.000000 2 364.801227
4.648014 -0.347036 0.281694 91.000000 0 364.801229
0.051413 -0.014254 4.564100 100.000000 31 364.801240
0.635404 -0.064373 4.060494 99.000000 28 364.801243
0.823957 -0.084451 4.005557 89.000000 27 364.801245
1.119119 -0.092493 3.634888 18.000000 25 364.801248
1.452217 -0.111976 3.490933 11.000000 23 364.801250
1.918479 -0.147603 3.592033 51.000000 21 364.801253
2.556680 -0.196713 3.838722 88.000000 19 364.801255
3.012967 -0.231825 3.693324 5.000000 17 364.801258
0.267361 -0.040243 4.501860 100.000000 30 364.801266
0.478685 -0.059994 4.449226 98.000000 29 364.801268
1.011880 -0.090832 3.946277 93.000000 26 364.801271
1.289450 -0.101685 3.571610 12.000000 24 364.801273
1.610403 -0.126441 3.402383 4.000000 22 364.801276
2.352139 -0.184278 3.929345 37.000000 20 364.801279
2.782054 -0.217965 3.768598 88.000000 18 364.801281
3.269432 -0.256154 3.633454 93.000000 16 364.801284
3.542313 -0.268205 3.570780 91.000000 15 364.801241
4.102169 -0.310599 3.398350 87.000000 13 364.801244
4.751172 -0.360573 3.208575 11.000000 11 364.801247
5.532152 -0.419846 2.989485 9.000000 9 364.801249
5.034793 -0.382984 2.128384 8.000000 7 364.801252
5.214271 -0.397552 1.626066 9.000000 5 364.801254
5.000888 -0.381283 1.043677 13.000000 3 364.801257
4.712119 -0.360093 0.516385 75.000000 1 364.801259
3.808674 -0.294391 3.482290 93.000000 14 364.801267
4.411399 -0.340983 3.305258 92.000000 12 364.801270
5.116843 -0.396410 3.100260 10.000000 10 364.801272
5.928812 -0.459317 2.836425 8.000000 8 364.801275
5.156131 -0.400361 1.888082 9.000000 6 364.801277
5.165954 -0.402031 1.340443 10.000000 4 364.801280
4.863007 -0.379309 0.771669 86.000000 2 364.801282
4.641794 -0.362869 0.281492 92.000000 0 364.801285
0.051363 -0.014433 4.564100 100.000000 31 364.801296
0.635175 -0.066591 4.060494 99.000000 28 364.801298
0.823657 -0.087327 4.005557 89.000000 27 364.801301
1.103910 -0.095115 3.587171 69.000000 25 364.801303
1.453765 -0.117202 3.495535 11.000000 23 364.801306
1.886907 -0.151801 3.534980 38.000000 21 364.801308
2.553173 -0.205410 3.834589 88.000000 19 364.801311
3.012140 -0.242341 3.693324 4.000000 17 364.801314
0.267219 -0.041177 4.501860 100.000000 30 364.801321
0.479002 -0.061733 4.454197 99.000000 29 364.801324
1.011556 -0.094363 3.946277 93.000000 26 364.801326
1.289087 -0.106186 3.571610 12.000000 24 364.801329
1.607781 -0.131883 3.397882 5.000000 22 364.801332
2.369676 -0.193977 3.959206 32.000000 20 364.801334
2.781276 -0.227675 3.768598 87.000000 18 364.801337
3.268518 -0.267565 3.633454 93.000000 16 364.801339
3.537801 -0.280287 3.567275 91.000000 15 364.801297
4.101059 -0.324916 3.398350 87.000000 13 364.801299
4.745717 -0.376825 3.205834 11.000000 11 364.801302
5.530653 -0.439155 2.989485 9.000000 9 364.801305
5.102745 -0.406073 2.156479 9.000000 7 364.801307
5.275020 -0.420709 1.644385 9.000000 5 364.801310
5.004424 -0.399128 1.044610 13.000000 3 364.801312
4.705868 -0.376143 0.515938 76.000000 1 364.801315
3.807623 -0.307684 3.482290 94.000000 14 364.801323
4.406153 -0.356054 3.302315 92.000000 12 364.801325
5.111131 -0.413920 3.097728 10.000000 10 364.801328
5.746224 -0.465356 2.752502 9.000000 8 364.801330
5.201771 -0.422177 1.904509 9.000000 6 364.801333
5.159675 -0.419667 1.339271 10.000000 4 364.801335
4.856717 -0.395879 0.770979 83.000000 2 364.801338
4.635519 -0.378663 0.281291 92.000000 0 364.801341
0.051312 -0.014612 4.564100 100.000000 31 364.801351
0.634939 -0.068808 4.060494 99.000000 28 364.801354
0.823347 -0.090201 4.005557 89.000000 27 364.801356
1.121422 -0.100570 3.644432 6.000000 25 364.801359
1.453347 -0.122276 3.495535 13.000000 23 364.801361
1.845781 -0.154979 3.460373 32.000000 21 364.801364
2.552440 -0.214321 3.834589 88.000000 19 364.801367
3.011276 -0.252854 3.693324 4.000000 17 364.801369
0.267073 -0.042109 4.501860 100.000000 30 364.801377
0.478783 -0.063405 4.454197 99.000000 29 364.801379
1.011221 -0.097893 3.946277 93.000000 26 364.801382
1.286989 -0.110537 3.566917 12.000000 24 364.801385
1.605141 -0.137309 3.393381 4.000000 22 364.801387
2.381978 -0.203357 3.980536 32.000000 20 364.801390
2.780464 -0.237382 3.768598 86.000000 18 364.801392
3.264186 -0.278684 3.629778 94.000000 16 364.801395
3.536800 -0.292635 3.567275 91.000000 15 364.801352
4.096021 -0.338908 3.395212 87.000000 13 364.801355
4.740205 -0.393043 3.203093 11.000000 11 364.801358
5.533502 -0.458824 2.991803 10.000000 9 364.801360
5.364636 -0.445764 2.263242 6.000000 7 364.801363
5.321326 -0.443101 1.658477 8.000000 5 364.801365
5.017686 -0.417817 1.047408 13.000000 3 364.801368
4.699564 -0.392153 0.515492 75.000000 1 364.801370
3.802804 -0.320659 3.478966 93.000000 14 364.801378
4.400856 -0.371092 3.299372 92.000000 12 364.801381
5.105359 -0.431396 3.095195 10.000000 10 364.801383
5.780744 -0.488468 2.769287 7.000000 8 364.801386
5.266145 -0.445911 1.927506 8.000000 6 364.801388
5.153335 -0.437264 1.338099 17.000000 4 364.801391
4.850372 -0.412410 0.770289 83.000000 2 364.801393
4.629191 -0.394418 0.281089 92.000000 0 364.801396
0.051261 -0.014791 4.564100 100.000000 31 364.801407
0.634695 -0.071024 4.060494 99.000000 28 364.801409
0.823027 -0.093075 4.005557 91.000000 27 364.801412
1.113628 -0.103790 3.620573 5.000000 25 364.801414
1.452911 -0.127348 3.495535 13.000000 23 364.801417
1.838069 -0.160795 3.447207 31.000000 21 364.801419
2.551677 -0.223230 3.834589 88.000000 19 364.801422
3.010375 -0.263363 3.693324 6.000000 17 364.801425
0.266932 -0.042994 4.501860 100.000000 30 364.801432
0.478571 -0.064992 4.454197 99.000000 29 364.801435
1.010890 -0.101246 3.946277 93.000000 26 364.801437
1.286615 -0.114804 3.566917 12.000000 24 364.801440
1.604652 -0.142911 3.393381 4.000000 22 364.801443
2.396840 -0.213056 4.006132 34.000000 20 364.801445
2.776617 -0.246819 3.764608 86.000000 18 364.801448
3.263244 -0.289507 3.629778 96.000000 16 364.801450
3.532204 -0.304672 3.563771 92.000000 15 364.801408
4.090935 -0.352869 3.392074 87.000000 13 364.801411
4.734638 -0.409226 3.200351 11.000000 11 364.801413
5.514212 -0.476610 2.982531 10.000000 9 364.801416
5.603301 -0.484311 2.360640 5.000000 7 364.801418
5.315048 -0.460330 1.657068 8.000000 5 364.801421
5.030879 -0.436603 1.050206 13.000000 3 364.801423
4.693204 -0.408124 0.515046 76.000000 1 364.801426
3.801662 -0.333932 3.478966 94.000000 14 364.801434
4.395507 -0.386098 3.296429 93.000000 12 364.801436
5.099606 -0.447946 3.092663 10.000000 10 364.801439
5.788134 -0.508430 2.773483 6.000000 8 364.801441
5.325793 -0.468754 1.948861 9.000000 6 364.801444
5.151856 -0.454351 1.338099 14.000000 4 364.801446
4.844045 -0.428056 0.769600 82.000000 2 364.801449
4.622881 -0.409326 0.280888 91.000000 0 364.801452
0.051212 -0.014961 4.564100 100.000000 31 364.801462
0.634456 -0.073128 4.060494 99.000000 28 364.801465
0.822714 -0.095804 4.005557 91.000000 27 364.801467
1.452481 -0.132165 3.495535 13.000000 23 364.801472
1.813666 -0.164722 3.403321 30.000000 21 364.801475
2.550922 -0.231690 3.834589 88.000000 19 364.801478
3.012677 -0.273635 3.697161 50.000000 17 364.801480
0.266780 -0.043926 4.501860 99.000000 30 364.801488
0.478341 -0.066662 4.454197 99.000000 29 364.801490
1.010531 -0.104774 3.946277 93.000000 26 364.801493
1.284489 -0.119135 3.562224 11.000000 24 364.801496
1.604170 -0.148231 3.393381 4.000000 22 364.801498
2.411702 -0.222440 4.031727 48.000000 20 364.801501
2.775783 -0.256025 3.764608 86.000000 18 364.801503
3.258838 -0.300585 3.626103 92.000000 16 364.801506
3.527622 -0.316065 3.560266 91.000000 15 364.801463
4.089742 -0.366434 3.392074 87.000000 13 364.801466
4.729091 -0.424551 3.197610 75.000000 11 364.801469
5.508188 -0.494497 2.980213 10.000000 9 364.801471
5.730860 -0.515496 2.413085 6.000000 7 364.801474
5.318186 -0.479311 1.658477 8.000000 5 364.801476
5.039188 -0.454166 1.052071 69.000000 3 364.801479
4.691825 -0.423685 0.515046 76.000000 1 364.801481
3.796815 -0.346198 3.475641 94.000000 14 364.801489
4.394202 -0.400672 3.296429 93.000000 12 364.801492
5.093718 -0.465352 3.090130 9.000000 10 364.801494
5.840560 -0.533586 2.798660 7.000000 8 364.801497
5.399369 -0.494229 1.975144 9.000000 6 364.801499
5.159919 -0.473219 1.340443 13.000000 4 364.801502
4.842521 -0.444963 0.769600 74.000000 2 364.801505
4.616449 -0.425002 0.280686 91.000000 0 364.801507
0.051200 -0.015155 4.569100 100.000000 31 364.801518
0.634197 -0.075342 4.060494 99.000000 28 364.801520
0.822375 -0.098675 4.005557 89.000000 27 364.801523
1.450065 -0.137051 3.490933 12.000000 23 364.801528
1.810695 -0.170827 3.398932 29.000000 21 364.801531
2.552899 -0.240858 3.838722 84.000000 19 364.801533
3.014895 -0.284450 3.700998 69.000000 17 364.801536
0.266625 -0.044857 4.501860 100.000000 30 364.801543
0.478105 -0.068332 4.454197 99.000000 29 364.801546
1.010159 -0.108301 3.946277 93.000000 26 364.801549
1.287500 -0.123949 3.571610 11.000000 24 364.801551
1.603642 -0.153830 3.393381 3.000000 22 364.801554
2.418700 -0.231603 4.044525 48.000000 20 364.801556
2.771872 -0.265426 3.760619 86.000000 18 364.801559
3.254394 -0.311635 3.622428 92.000000 16 364.801561
3.522947 -0.328047 3.556762 91.000000 15 364.801519
4.084562 -0.380346 3.388936 88.000000 13 364.801522
4.723416 -0.440668 3.194868 96.000000 11 364.801524
5.497606 -0.512898 2.975577 10.000000 9 364.801527
5.729026 -0.535497 2.413085 7.000000 7 364.801529
5.302152 -0.496530 1.654250 9.000000 5 364.801532
5.047354 -0.472669 1.053936 66.000000 3 364.801534
4.685360 -0.439594 0.514600 76.000000 1 364.801537
3.795583 -0.359449 3.475641 93.000000 14 364.801545
4.388753 -0.415627 3.293485 92.000000 12 364.801547
5.087770 -0.482723 3.087598 8.000000 10 364.801550
5.897399 -0.559543 2.825934 10.000000 8 364.801552
5.444624 -0.517542 1.991571 9.000000 6 364.801555
5.167914 -0.492149 1.342788 12.000000 4 364.801557
4.836009 -0.461393 0.768910 73.000000 2 364.801560
4.614938 -0.441114 0.280686 91.000000 0 364.801563
0.051147 -0.015334 4.569100 101.000000 31 364.801573
0.633930 -0.077555 4.060494 99.000000 28 364.801576
0.822025 -0.101545 4.005557 89.000000 27 364.801578
1.097645 -0.113712 3.572856 2.000000 25 364.801581
1.449578 -0.142112 3.490933 12.000000 23 364.801583
1.800550 -0.176213 3.381377 27.000000 21 364.801586
2.552043 -0.249767 3.838722 70.000000 19 364.801588
3.013884 -0.294973 3.700998 92.000000 17 364.801591
0.266467 -0.045787 4.501860 100.000000 30 364.801599
0.477864 -0.070000 4.454197 101.000000 29 364.801601
1.008525 -0.111688 3.941438 94.000000 26 364.801604
1.288777 -0.128614 3.576303 12.000000 24 364.801606
1.605263 -0.159643 3.397882 3.000000 22 364.801609
2.415281 -0.239787 4.040259 15.000000 20 364.801611
2.770928 -0.275100 3.760619 86.000000 18 364.801614
3.249913 -0.322658 3.618753 91.000000 16 364.801617
3.521780 -0.340342 3.556762 91.000000 15 364.801574
4.079334 -0.394227 3.385798 88.000000 13 364.801577
4.717688 -0.456750 3.192127 98.000000 11 364.801579
5.491373 -0.531659 2.973259 10.000000 9 364.801582
5.727122 -0.555492 2.413085 8.000000 7 364.801585
5.295611 -0.514571 1.652840 11.000000 5 364.801587
5.045673 -0.490285 1.053936 66.000000 3 364.801590
4.683797 -0.455947 0.514600 76.000000 1 364.801592
3.790589 -0.372331 3.472316 94.000000 14 364.801600
4.387275 -0.430944 3.293485 93.000000 12 364.801603
5.081764 -0.500057 3.085065 10.000000 10 364.801605
5.899927 -0.580570 2.828032 10.000000 8 364.801608
5.494481 -0.541641 2.009641 8.000000 6 364.801610
5.180676 -0.511619 1.346305 12.000000 4 364.801613
4.834369 -0.478271 0.768910 73.000000 2 364.801615
4.608398 -0.456728 0.280485 91.000000 0 364.801618
0.051093 -0.015512 4.569100 101.000000 31 364.801629
0.633655 -0.079768 4.060494 100.000000 28 364.801631
0.821666 -0.104414 4.005557 89.000000 27 364.801634
1.097241 -0.117543 3.572856 4.000000 25 364.801636
1.449073 -0.147171 3.490933 12.000000 23 364.801639
1.792774 -0.181772 3.368211 27.000000 21 364.801641
2.570753 -0.260661 3.867652 34.000000 19 364.801644
3.016026 -0.305815 3.704835 92.000000 17 364.801646
0.266306 -0.046717 4.501860 100.000000 30 364.801654
0.477616 -0.071668 4.454197 100.000000 29 364.801657
1.008129 -0.115208 3.941438 93.000000 26 364.801659
1.291753 -0.133466 3.585688 8.000000 24 364.801662
1.606862 -0.165468 3.402383 4.000000 22 364.801664
2.414429 -0.248216 4.040259 10.000000 20 364.801667
2.766953 -0.284462 3.756629 86.000000 18 364.801670
3.248767 -0.334000 3.618753 91.000000 16 364.801672
3.517023 -0.352278 3.553257 91.000000 15 364.801630
4.074060 -0.408076 3.382661 88.000000 13 364.801632
4.716064 -0.473215 3.192127 98.000000 11 364.801635
5.485075 -0.550381 2.970941 10.000000 9 364.801637
5.715922 -0.574553 2.409338 8.000000 7 364.801640
5.289010 -0.532573 1.651431 14.000000 5 364.801643
5.043931 -0.507895 1.053936 67.000000 3 364.801645
4.677222 -0.471794 0.514153 70.000000 1 364.801648
3.789266 -0.385560 3.472316 94.000000 14 364.801655
4.381723 -0.445847 3.290542 92.000000 12 364.801658
5.075699 -0.517356 3.082533 10.000000 10 364.801661
5.920440 -0.603462 2.838523 11.000000 8 364.801663
5.497254 -0.561296 2.011283 8.000000 6 364.801666
5.183694 -0.530194 1.347477 25.000000 4 364.801668
4.827743 -0.494639 0.768220 73.000000 2 364.801671
4.601806 -0.472301 0.280283 92.000000 0 364.801673
0.051038 -0.015691 4.569100 96.000000 31 364.801684
0.633373 -0.081979 4.060494 100.000000 28 364.801687
0.821296 -0.107281 4.005557 89.000000 27 364.801689
1.092371 -0.120879 3.558541 7.000000 25 364.801692
1.448551 -0.152228 3.490933 12.000000 23 364.801694
1.789746 -0.187779 3.363822 26.000000 21 364.801697
2.586620 -0.271395 3.892450 32.000000 19 364.801699
3.014940 -0.316341 3.704835 92.000000 17 364.801702
0.266141 -0.047647 4.501860 99.000000 30 364.801710
0.477363 -0.073334 4.454197 100.000000 29 364.801712
1.007720 -0.118726 3.941438 93.000000 26 364.801715
1.299859 -0.138892 3.609152 3.000000 24 364.801717
1.606275 -0.171076 3.402383 4.000000 22 364.801720
2.421328 -0.257470 4.053057 8.000000 20 364.801723
2.765944 -0.294119 3.756629 86.000000 18 364.801725
3.244210 -0.344980 3.615078 91.000000 16 364.801728
3.515771 -0.364552 3.553257 91.000000 15 364.801685
4.072610 -0.422295 3.382661 88.000000 13 364.801688
4.710225 -0.489242 3.189385 98.000000 11 364.801690
5.483121 -0.569525 2.970941 10.000000 9 364.801693
5.709270 -0.594022 2.407465 8.000000 7 364.801696
5.287119 -0.551032 1.651431 12.000000 5 364.801698
5.042128 -0.525498 1.053936 68.000000 3 364.801701
4.675547 -0.488117 0.514153 70.000000 1 364.801703
3.784184 -0.398394 3.468991 95.000000 14 364.801711
4.376120 -0.460716 3.287599 91.000000 12 364.801714
5.069574 -0.534618 3.080001 22.000000 10 364.801716
5.918297 -0.624124 2.838523 11.000000 8 364.801719
5.485868 -0.579490 2.007998 9.000000 6 364.801721
5.191479 -0.549308 1.349822 62.000000 4 364.801724
4.821063 -0.510966 0.767530 73.000000 2 364.801726
4.600129 -0.488362 0.280283 91.000000 0 364.801729
0.050983 -0.015869 4.569100 96.000000 31 364.801740
0.633083 -0.084190 4.060494 100.000000 28 364.801742
0.820917 -0.110147 4.005557 89.000000 27 364.801745
1.094910 -0.125030 3.568084 8.000000 25 364.801747
1.448011 -0.157284 3.490933 12.000000 23 364.801750
1.784316 -0.193508 3.355045 26.000000 21 364.801752
2.599645 -0.281940 3.913115 33.000000 19 364.801755
3.013817 -0.326863 3.704835 93.000000 17 364.801757
0.265973 -0.048575 4.501860 99.000000 30 364.801765
0.477104 -0.075000 4.454197 100.000000 29 364.801768
1.007300 -0.122243 3.941438 93.000000 26 364.801770
1.292505 -0.142671 3.590381 3.000000 24 364.801773
1.603503 -0.176444 3.397882 3.000000 22 364.801775
2.420415 -0.265921 4.053057 7.000000 20 364.801778
2.764900 -0.303772 3.756629 86.000000 18 364.801781
3.242986 -0.356303 3.615078 92.000000 16 364.801783
3.510931 -0.376442 3.549752 90.000000 15 364.801741
4.067241 -0.436094 3.379523 88.000000 13 364.801743
4.704331 -0.505234 3.186644 97.000000 11 364.801746
5.476695 -0.588188 2.968623 10.000000 9 364.801749
5.702553 -0.613452 2.405593 8.000000 7 364.801751
5.285163 -0.569484 1.651431 10.000000 5 364.801754
5.035378 -0.542569 1.053004 66.000000 3 364.801756
4.668863 -0.503901 0.513707 76.000000 1 364.801759
3.782770 -0.411601 3.468991 95.000000 14 364.801767
4.370467 -0.475551 3.284656 92.000000 12 364.801769
5.059105 -0.551376 3.074936 95.000000 10 364.801772
5.911571 -0.644288 2.836425 11.000000 8 364.801774
5.483812 -0.598635 2.007998 9.000000 6 364.801777
5.194361 -0.567955 1.350994 61.000000 4 364.801779
4.814327 -0.527252 0.766840 73.000000 2 364.801782
4.593431 -0.503871 0.280082 91.000000 0 364.801784
0.050928 -0.016047 4.569100 101.000000 31 364.801795
0.632785 -0.086399 4.060494 95.000000 28 364.801798
0.820527 -0.113012 4.005557 89.000000 27 364.801800
1.097433 -0.129201 3.577628 12.000000 25 364.801803
1.447453 -0.162337 3.490933 12.000000 23 364.801805
1.783629 -0.199735 3.355045 26.000000 21 364.801808
2.615424 -0.292892 3.937912 39.000000 19 364.801810
3.012658 -0.337381 3.704835 92.000000 17 364.801813
0.265802 -0.049503 4.501860 100.000000 30 364.801821
0.476313 -0.076580 4.449226 99.000000 29 364.801823
1.006867 -0.125758 3.941438 94.000000 26 364.801826
1.290285 -0.146986 3.585688 3.000000 24 364.801828
1.600714 -0.181794 3.393381 3.000000 22 364.801831
2.424655 -0.274956 4.061589 6.000000 20 364.801834
2.763823 -0.313422 3.756629 83.000000 18 364.801836
3.241722 -0.367621 3.615078 91.000000 16 364.801839
3.509596 -0.388695 3.549752 90.000000 15 364.801796
4.061825 -0.449860 3.376385 88.000000 13 364.801799
4.698382 -0.521191 3.183902 93.000000 11 364.801801
5.470204 -0.606813 2.966305 11.000000 9 364.801804
5.695769 -0.632841 2.403719 9.000000 7 364.801807
5.287910 -0.588459 1.652840 10.000000 5 364.801809
5.028572 -0.559599 1.052071 66.000000 3 364.801812
4.662126 -0.519643 0.513261 77.000000 1 364.801814
3.777599 -0.424385 3.465666 95.000000 14 364.801822
4.368781 -0.490804 3.284656 93.000000 12 364.801825
5.052866 -0.568551 3.072403 95.000000 10 364.801827
5.904776 -0.664411 2.834327 10.000000 8 364.801830
5.476996 -0.617245 2.006355 16.000000 6 364.801832
5.187518 -0.585538 1.349822 61.000000 4 364.801835
4.807536 -0.543498 0.766151 74.000000 2 364.801837
4.586679 -0.519340 0.279880 91.000000 0 364.801840
0.050871 -0.016224 4.569100 101.000000 31 364.801851
0.632480 -0.088607 4.060494 95.000000 28 364.801853
0.819120 -0.115733 4.000661 89.000000 27 364.801856
1.098458 -0.133211 3.582400 16.000000 25 364.801858
1.446877 -0.167389 3.490933 12.000000 23 364.801861
1.780541 -0.205685 3.350656 26.000000 21 364.801863
2.628363 -0.303634 3.958577 44.000000 19 364.801866
3.008277 -0.347527 3.700998 92.000000 17 364.801869
0.265628 -0.050431 4.501860 100.000000 30 364.801876
0.476043 -0.078242 4.449226 99.000000 29 364.801879
1.005174 -0.129112 3.936599 94.000000 26 364.801881
1.282908 -0.150684 3.566917 5.000000 24 364.801884
1.597906 -0.187127 3.388880 4.000000 22 364.801887
3.338082 -0.390350 5.567464 32.000000 20 364.801889
2.765705 -0.323417 3.760619 73.000000 18 364.801892
3.237052 -0.378540 3.611402 93.000000 16 364.801894
3.508218 -0.400944 3.549752 92.000000 15 364.801852
4.060230 -0.464035 3.376385 87.000000 13 364.801854
4.692380 -0.537113 3.181161 90.000000 11 364.801857
5.463652 -0.625400 2.963987 11.000000 9 364.801860
5.688920 -0.652191 2.401846 9.000000 7 364.801862
5.290590 -0.607461 1.654250 12.000000 5 364.801865
5.021708 -0.576588 1.051138 66.000000 3 364.801867
4.655336 -0.535345 0.512815 77.000000 1 364.801870
3.776094 -0.437569 3.465666 95.000000 14 364.801878
4.363026 -0.505586 3.281713 92.000000 12 364.801880
5.042284 -0.585191 3.067338 95.000000 10 364.801883
5.893404 -0.683972 2.830130 10.000000 8 364.801885
5.474809 -0.636360 2.006355 19.000000 6 364.801888
5.180614 -0.603080 1.348650 60.000000 4 364.801890
4.800691 -0.559702 0.765461 75.000000 2 364.801893
4.584839 -0.535347 0.279880 91.000000 0 364.801895
0.050774 -0.016385 4.564100 101.000000 31 364.801906
0.632167 -0.090814 4.060494 100.000000 28 364.801909
0.818711 -0.118591 4.000661 89.000000 27 364.801911
1.097987 -0.137044 3.582400 12.000000 25 364.801914
1.444344 -0.172207 3.486330 12.000000 23 364.801916
1.779812 -0.211899 3.350656 26.000000 21 364.801919
2.638464 -0.314138 3.975109 18.000000 19 364.801921
3.003862 -0.357647 3.697161 92.000000 17 364.801924
0.265450 -0.051358 4.501860 100.000000 30 364.801932
0.475767 -0.079903 4.449226 99.000000 29 364.801934
1.004718 -0.132620 3.936599 93.000000 26 364.801937
1.289227 -0.155990 3.585688 6.000000 24 364.801939
1.592919 -0.192182 3.379879 4.000000 22 364.801942
3.336699 -0.402000 5.567464 81.000000 20 364.801945
2.782514 -0.335233 3.784556 37.000000 18 364.801947
3.235711 -0.389837 3.611402 93.000000 16 364.801950
3.503255 -0.412770 3.546248 92.000000 15 364.801907
4.054719 -0.477750 3.373247 87.000000 13 364.801910
4.686325 -0.552999 3.178419 90.000000 11 364.801913
5.452636 -0.643430 2.959351 11.000000 9 364.801915
5.682005 -0.671501 2.399973 9.000000 7 364.801918
5.288438 -0.625925 1.654250 15.000000 5 364.801920
5.014786 -0.593536 1.050206 66.000000 3 364.801923
4.648494 -0.551006 0.512369 77.000000 1 364.801925
3.770836 -0.450305 3.462342 94.000000 14 364.801933
4.357221 -0.520333 3.278769 92.000000 12 364.801936
5.035931 -0.602276 3.064806 94.000000 10 364.801938
5.886474 -0.704001 2.828032 11.000000 8 364.801941
5.467865 -0.654905 2.004713 28.000000 6 364.801943
5.173651 -0.620581 1.347477 60.000000 4 364.801946
4.793790 -0.575866 0.764771 75.000000 2 364.801948
4.577981 -0.550752 0.279678 90.000000 0 364.801951
0.050716 -0.016562 4.564100 101.000000 31 364.801962
0.631846 -0.093021 4.060494 100.000000 28 364.801964
0.818292 -0.121449 4.000661 89.000000 27 364.801967
1.097502 -0.140876 3.582400 12.000000 25 364.801969
1.445673 -0.177486 3.490933 11.000000 23 364.801972
1.779062 -0.218111 3.350656 26.000000 21 364.801974
2.648524 -0.324716 3.991641 10.000000 19 364.801977
2.999414 -0.367740 3.693324 92.000000 17 364.801980
0.265269 -0.052284 4.501860 100.000000 30 364.801987
0.475485 -0.081563 4.449226 99.000000 29 364.801990
1.004249 -0.136126 3.936599 93.000000 26 364.801992
1.590078 -0.197473 3.375378 4.000000 22 364.801998
3.345629 -0.414928 5.584527 97.000000 20 364.802000
2.811237 -0.348653 3.824451 33.000000 18 364.802003
3.230966 -0.400712 3.607727 92.000000 16 364.802005
3.501793 -0.424996 3.546248 92.000000 15 364.801963
4.053027 -0.491901 3.373247 89.000000 13 364.801965
4.684366 -0.569354 3.178419 88.000000 11 364.801968
5.441561 -0.661390 2.954715 17.000000 9 364.801971
5.670423 -0.690211 2.396227 8.000000 7 364.801973
5.290983 -0.644962 1.655659 14.000000 5 364.801976
5.007807 -0.610443 1.049273 68.000000 3 364.801978
4.641599 -0.566625 0.511922 77.000000 1 364.801981
3.765535 -0.463009 3.459017 94.000000 14 364.801989
4.355378 -0.535540 3.278769 92.000000 12 364.801991
5.029519 -0.619324 3.062274 94.000000 10 364.801994
5.874972 -0.723435 2.823836 11.000000 8 364.801996
5.465546 -0.673987 2.004713 62.000000 6 364.801999
5.166629 -0.638041 1.346305 65.000000 4 364.802001
4.786837 -0.591988 0.764081 75.000000 2 364.802004
4.571073 -0.566114 0.279477 91.000000 0 364.802007
0.050658 -0.016739 4.564100 100.000000 31 364.802017
0.630749 -0.095109 4.055555 100.000000 28 364.802020
0.817863 -0.124304 4.000661 89.000000 27 364.802022
1.108849 -0.146270 3.620573 16.000000 25 364.802025
1.439231 -0.181796 3.477125 10.000000 23 364.802027
1.775913 -0.224019 3.346268 26.000000 21 364.802030
2.658542 -0.335368 4.008173 8.000000 19 364.802033
2.998112 -0.378208 3.693324 93.000000 17 364.802035
0.265085 -0.053210 4.501860 100.000000 30 364.802043
0.475197 -0.083223 4.449226 100.000000 29 364.802045
1.003767 -0.139630 3.936599 94.000000 26 364.802048
1.587218 -0.202746 3.370877 4.000000 22 364.802053
3.341573 -0.426274 5.580262 96.000000 20 364.802056
2.836910 -0.361897 3.860356 33.000000 18 364.802058
3.229548 -0.411988 3.607727 92.000000 16 364.802061
3.500288 -0.437217 3.546248 92.000000 15 364.802018
4.047422 -0.505563 3.370110 89.000000 13 364.802021
4.678201 -0.585183 3.175678 88.000000 11 364.802024
5.434824 -0.679830 2.952397 99.000000 9 364.802026
5.663379 -0.709424 2.394354 10.000000 7 364.802029
5.283939 -0.662830 1.654250 14.000000 5 364.802031
5.000772 -0.627309 1.048340 69.000000 3 364.802034
4.639593 -0.582824 0.511922 77.000000 1 364.802036
3.763896 -0.476150 3.459017 94.000000 14 364.802044
4.349472 -0.550232 3.275826 93.000000 12 364.802047
5.023050 -0.636335 3.059741 92.000000 10 364.802049
5.867909 -0.743368 2.821738 10.000000 8 364.802052
5.458475 -0.692467 2.003070 59.000000 6 364.802054
5.159549 -0.655460 1.345133 65.000000 4 364.802057
4.784741 -0.608693 0.764081 75.000000 2 364.802059
4.564113 -0.581435 0.279275 90.000000 0 364.802062
0.050600 -0.016916 4.564100 100.000000 31 364.802073
0.630413 -0.097310 4.055555 100.000000 28 364.802075
0.817424 -0.127158 4.000661 89.000000 27 364.802078
1.095011 -0.148334 3.577628 41.000000 25 364.802080
