# .PCD v.7 - Point Cloud Data file format
VERSION .7
FIELDS x y z intensity ring timestamp
SIZE 4 4 4 4 2 8
TYPE F F F F U D
COUNT 1 1 1 1 1 1
WIDTH 942
HEIGHT 1
VIEWPOINT 0 0 0 1 0 0 0
POINTS 942
DATA ascii
2.005801 1.977995 1.740347 17.000000 10 364.187078
1.380661 1.361521 0.983844 27.000000 8 364.187080
1.365813 1.346408 0.756272 28.000000 6 364.187083
1.360702 1.340902 0.551474 31.000000 4 364.187085
1.389903 1.369199 0.363988 24.000000 2 364.187088
1.416569 1.394981 0.173875 12.000000 0 364.187091
0.541739 0.505891 4.712476 19.000000 28 364.187104
0.703610 0.655531 4.646832 90.000000 27 364.187106
1.027281 0.995651 4.617864 10.000000 25 364.187109
1.080744 1.059111 3.624406 8.000000 23 364.187111
1.129388 1.107159 2.964454 22.000000 21 364.187114
1.553815 1.523221 3.268375 14.000000 19 364.187117
1.917548 1.879784 3.290445 10.000000 17 364.187119
0.577899 0.486910 12.867795 14.000000 30 364.187127
0.683284 0.607620 8.471097 15.000000 29 364.187129
0.862731 0.824415 4.628605 95.000000 26 364.187132
1.190829 1.162925 4.580554 10.000000 24 364.187135
1.100787 1.075740 3.244854 11.000000 22 364.187137
1.267504 1.239085 2.969510 18.000000 20 364.187140
1.726085 1.687374 3.269911 13.000000 18 364.187142
1.945074 1.901446 3.027051 13.000000 16 364.187145
1.951291 1.917539 2.768239 12.000000 15 364.187102
1.160008 1.139944 1.393310 30.000000 13 364.187105
1.997128 1.961895 1.920086 14.000000 11 364.187108
2.023675 1.987969 1.570853 17.000000 9 364.187110
1.373283 1.348583 0.865960 28.000000 7 364.187113
1.359346 1.334431 0.649493 27.000000 5 364.187115
1.370631 1.345509 0.456127 27.000000 3 364.187118
1.403859 1.377647 0.269184 10.000000 1 364.187120
1.130924 1.107880 1.490706 74.000000 14 364.187128
1.139496 1.116273 1.245046 70.000000 12 364.187131
2.012693 1.970982 1.740347 17.000000 10 364.187133
1.385406 1.356693 0.983844 27.000000 8 364.187136
1.370505 1.341632 0.756272 28.000000 6 364.187138
1.365374 1.336144 0.551474 31.000000 4 364.187141
1.398214 1.367803 0.364678 24.000000 2 364.187144
1.425002 1.393521 0.174076 13.000000 0 364.187146
0.548062 0.508221 4.751990 29.000000 28 364.187159
0.705894 0.653071 4.646832 90.000000 27 364.187162
1.030750 0.992059 4.617864 10.000000 25 364.187164
1.085835 1.056695 3.629009 9.000000 23 364.187167
1.131529 1.101539 2.960066 24.000000 21 364.187170
1.559123 1.517788 3.268375 14.000000 19 364.187172
1.924098 1.873079 3.290445 10.000000 17 364.187175
0.579818 0.485075 12.872787 13.000000 30 364.187182
0.685801 0.605584 8.476068 15.000000 29 364.187185
0.865603 0.821398 4.628605 95.000000 26 364.187188
1.197359 1.161164 4.589941 10.000000 24 364.187190
1.106098 1.073407 3.249355 11.000000 22 364.187193
1.271822 1.234653 2.969510 19.000000 20 364.187195
1.731965 1.681338 3.269911 13.000000 18 364.187198
1.954132 1.897006 3.030726 13.000000 16 364.187200
1.960525 1.913207 2.771743 13.000000 15 364.187158
1.166766 1.138607 1.396448 32.000000 13 364.187161
2.006958 1.957831 1.922828 14.000000 11 364.187163
2.040115 1.990174 1.577807 18.000000 9 364.187166
1.374663 1.340544 0.864087 27.000000 7 364.187168
1.363996 1.329678 0.649493 27.000000 5 364.187171
1.378837 1.344146 0.457059 26.000000 3 364.187173
1.412226 1.376214 0.269630 10.000000 1 364.187176
1.150845 1.119549 1.510655 77.000000 14 364.187184
1.146282 1.115107 1.247989 72.000000 12 364.187186
2.022651 1.966950 1.742880 16.000000 10 364.187189
1.393387 1.355013 0.985942 27.000000 8 364.187191
1.375180 1.336840 0.756272 28.000000 6 364.187194
1.370030 1.331369 0.551474 30.000000 4 364.187196
1.410084 1.369815 0.366057 24.000000 2 364.187199
1.429857 1.388538 0.174076 12.000000 0 364.187202
0.548117 0.504727 4.737173 38.000000 28 364.187216
0.708169 0.650603 4.646832 93.000000 27 364.187218
1.033127 0.987423 4.613092 10.000000 25 364.187221
1.090922 1.054256 3.633611 10.000000 23 364.187223
1.135367 1.097582 2.960066 24.000000 21 364.187226
1.566435 1.514292 3.272508 14.000000 19 364.187228
1.930625 1.866351 3.290445 10.000000 17 364.187231
0.581507 0.483048 12.872787 13.000000 30 364.187239
0.688714 0.603890 8.486011 15.000000 29 364.187241
0.867550 0.817509 4.623766 96.000000 26 364.187244
1.202648 1.158175 4.594633 10.000000 24 364.187246
1.109838 1.069540 3.249355 10.000000 22 364.187249
1.274246 1.228396 2.965244 19.000000 20 364.187251
1.737823 1.675282 3.269911 13.000000 18 364.187254
1.963183 1.892526 3.034402 13.000000 16 364.187257
1.969752 1.908834 2.775248 13.000000 15 364.187214
1.170734 1.134527 1.396448 32.000000 13 364.187217
2.013780 1.950814 1.922828 14.000000 11 364.187219
2.053414 1.989205 1.582443 18.000000 9 364.187222
1.379334 1.335738 0.864087 27.000000 7 364.187225
1.372076 1.328245 0.650902 27.000000 5 364.187227
1.387050 1.342741 0.457992 26.000000 3 364.187230
1.420600 1.374739 0.270077 15.000000 1 364.187232
1.178918 1.138877 1.540579 89.000000 14 364.187240
1.155982 1.116716 1.253875 65.000000 12 364.187243
2.032606 1.962873 1.745412 16.000000 10 364.187245
1.398108 1.350141 0.985942 28.000000 8 364.187248
1.383235 1.335312 0.757915 28.000000 6 364.187250
1.378167 1.329954 0.552646 29.000000 4 364.187253
1.421985 1.371761 0.367437 18.000000 2 364.187255
1.438292 1.387007 0.174278 12.000000 0 364.187258
0.547007 0.500190 4.712476 39.000000 28 364.187271
0.710436 0.648127 4.646832 94.000000 27 364.187274
1.036567 0.983811 4.613092 11.000000 25 364.187276
1.096005 1.051794 3.638214 11.000000 23 364.187279
1.137463 1.091953 2.955677 23.000000 21 364.187281
1.573741 1.510764 3.276640 15.000000 19 364.187284
1.937128 1.859601 3.290445 10.000000 17 364.187286
0.583414 0.481200 12.877778 14.000000 30 364.187294
0.691221 0.601833 8.490982 15.000000 29 364.187297
0.870398 0.814476 4.623766 96.000000 26 364.187299
1.206683 1.153970 4.594633 10.000000 24 364.187302
1.115139 1.067165 3.253855 10.000000 22 364.187304
1.276642 1.222137 2.960978 18.000000 20 364.187307
1.743661 1.669206 3.269911 13.000000 18 364.187310
1.972226 1.888006 3.038077 13.000000 16 364.187312
1.981543 1.906892 2.782257 13.000000 15 364.187270
1.174687 1.130434 1.396448 33.000000 13 364.187272
2.023590 1.946671 1.925569 14.000000 11 364.187275
2.066731 1.988168 1.587079 17.000000 9 364.187277
1.383988 1.330915 0.864087 29.000000 7 364.187280
1.376704 1.323448 0.650902 27.000000 5 364.187283
1.395270 1.341296 0.458924 26.000000 3 364.187285
1.428981 1.373223 0.270523 14.000000 1 364.187288
1.166717 1.119243 1.520630 17.000000 14 364.187295
1.162790 1.115472 1.256818 51.000000 12 364.187298
2.042557 1.958749 1.747944 16.000000 10 364.187301
1.406088 1.348394 0.988040 28.000000 8 364.187303
1.387888 1.330475 0.757915 28.000000 6 364.187306
1.382801 1.325136 0.552646 29.000000 4 364.187308
1.430341 1.370214 0.368127 16.000000 2 364.187311
1.443125 1.381978 0.174278 13.000000 0 364.187313
0.546448 0.496190 4.692719 53.000000 28 364.187327
0.712694 0.645643 4.646832 94.000000 27 364.187329
1.038909 0.979163 4.608320 11.000000 25 364.187332
1.102498 1.050657 3.647419 9.000000 23 364.187334
1.143002 1.089629 2.960066 23.000000 21 364.187337
1.581042 1.507203 3.280774 15.000000 19 364.187339
1.941287 1.850616 3.286608 9.000000 17 364.187342
0.585314 0.479343 12.882770 14.000000 30 364.187350
0.694126 0.600114 8.500926 15.000000 29 364.187352
0.873236 0.811433 4.623766 95.000000 26 364.187355
1.210704 1.149750 4.594633 10.000000 24 364.187357
1.120621 1.064570 3.258356 10.000000 22 364.187360
1.279223 1.215653 2.956712 19.000000 20 364.187363
1.749767 1.662804 3.269911 13.000000 18 364.187365
1.981590 1.883100 3.041752 13.000000 16 364.187368
1.988187 1.899963 2.782257 13.000000 15 364.187325
1.181440 1.129016 1.399585 33.000000 13 364.187328
2.030373 1.939596 1.925569 14.000000 11 364.187330
2.073658 1.980942 1.587079 17.000000 9 364.187333
1.388625 1.326076 0.864087 29.000000 7 364.187336
1.381315 1.318634 0.650902 27.000000 5 364.187338
1.403731 1.339564 0.459857 26.000000 3 364.187341
1.437608 1.371413 0.270969 14.000000 1 364.187343
1.175652 1.119565 1.265648 37.000000 12 364.187354
2.049723 1.951250 1.747944 16.000000 10 364.187356
1.411021 1.343231 0.988040 28.000000 8 364.187359
1.396176 1.328635 0.759557 28.000000 6 364.187361
1.391170 1.323408 0.553818 29.000000 4 364.187364
1.442531 1.371788 0.369507 14.000000 2 364.187366
1.451560 1.380374 0.174479 13.000000 0 364.187369
0.545376 0.491584 4.668023 73.000000 28 364.187382
0.714298 0.642346 4.641936 93.000000 27 364.187385
1.041400 0.974328 4.603549 11.000000 25 364.187387
1.107761 1.047952 3.652021 9.000000 23 364.187390
1.146988 1.085433 2.960066 21.000000 21 364.187392
1.588599 1.503332 3.284906 16.000000 19 364.187395
1.948056 1.843488 3.286608 10.000000 17 364.187397
0.587292 0.477377 12.887761 14.000000 30 364.187405
0.697132 0.598261 8.510869 15.000000 29 364.187408
0.876204 0.808227 4.623766 95.000000 26 364.187410
1.213654 1.144121 4.589941 10.000000 24 364.187413
1.125914 1.062146 3.262857 10.000000 22 364.187415
1.283458 1.211180 2.956712 20.000000 20 364.187418
1.753368 1.654618 3.265921 13.000000 18 364.187421
1.990617 1.878498 3.045427 13.000000 16 364.187423
2.000312 1.897573 2.789266 13.000000 15 364.187381
1.185570 1.124678 1.399585 33.000000 13 364.187383
2.025332 1.920632 1.914603 14.000000 11 364.187386
2.084119 1.976377 1.589397 17.000000 9 364.187389
1.393476 1.320977 0.864087 29.000000 7 364.187391
1.389621 1.316862 0.652311 28.000000 5 364.187394
1.415529 1.341414 0.461722 26.000000 3 364.187396
1.446002 1.369812 0.271415 15.000000 1 364.187399
2.018528 1.908838 2.554658 15.000000 14 364.187407
1.185426 1.121009 1.271534 32.000000 12 364.187409
2.059654 1.947045 1.750477 16.000000 10 364.187412
1.415701 1.338297 0.988040 26.000000 8 364.187414
1.400805 1.323753 0.759557 29.000000 6 364.187417
1.399314 1.321882 0.554991 28.000000 4 364.187419
1.450911 1.370144 0.370196 14.000000 2 364.187422
1.460243 1.378474 0.174681 13.000000 0 364.187424
0.545350 0.488124 4.653205 85.000000 28 364.187438
0.716536 0.639849 4.641936 93.000000 27 364.187440
1.044794 0.970687 4.603549 11.000000 25 364.187443
1.115684 1.048092 3.665829 11.000000 23 364.187445
1.152516 1.083063 2.964454 18.000000 21 364.187448
1.595888 1.499705 3.289039 16.000000 19 364.187450
1.954479 1.836677 3.286608 10.000000 17 364.187453
0.588955 0.475324 12.887761 14.000000 30 364.187461
0.699622 0.596170 8.515841 15.000000 29 364.187463
0.878092 0.804314 4.618927 96.000000 26 364.187466
1.217640 1.139878 4.589941 10.000000 24 364.187468
1.131204 1.059699 3.267358 10.000000 22 364.187471
1.285775 1.204910 2.952446 20.000000 20 364.187474
1.759133 1.648487 3.265921 13.000000 18 364.187476
1.999635 1.873856 3.049102 12.000000 16 364.187479
2.009520 1.893024 2.792771 13.000000 15 364.187436
1.189489 1.120533 1.399585 33.000000 13 364.187439
2.019847 1.902084 1.903638 13.000000 11 364.187441
2.091005 1.969090 1.589397 17.000000 9 364.187444
1.401454 1.319283 0.865960 29.000000 7 364.187447
1.394209 1.312003 0.652311 27.000000 5 364.187449
1.427358 1.343197 0.463588 24.000000 3 364.187452
1.454402 1.368168 0.271862 15.000000 1 364.187454
2.027901 1.904337 2.557983 15.000000 14 364.187462
1.195225 1.122398 1.277421 31.000000 12 364.187465
2.069582 1.942794 1.753009 16.000000 10 364.187467
1.417055 1.330241 0.985942 23.000000 8 364.187470
1.408861 1.322087 0.761200 29.000000 6 364.187472
1.407465 1.320315 0.556163 28.000000 4 364.187475
1.459297 1.368459 0.370886 21.000000 2 364.187477
1.465046 1.373369 0.174681 12.000000 0 364.187480
0.546470 0.485701 4.648266 98.000000 28 364.187493
0.718765 0.637344 4.641936 94.000000 27 364.187496
1.047078 0.966021 4.598777 10.000000 25 364.187498
1.125050 1.049521 3.684239 10.000000 23 364.187501
1.156289 1.079033 2.964454 18.000000 21 364.187503
1.603171 1.496045 3.293172 16.000000 19 364.187506
1.960879 1.829843 3.286608 10.000000 17 364.187509
0.591063 0.473627 12.897745 15.000000 30 364.187516
0.702515 0.594413 8.525783 15.000000 29 364.187519
0.880894 0.801244 4.618927 95.000000 26 364.187521
1.221612 1.135621 4.589941 10.000000 24 364.187524
1.136491 1.057227 3.271859 10.000000 22 364.187527
1.288064 1.198637 2.948180 20.000000 20 364.187529
1.764877 1.642336 3.265921 13.000000 18 364.187532
2.008646 1.869175 3.052778 12.000000 16 364.187534
2.018720 1.888434 2.796275 13.000000 15 364.187492
1.193393 1.116374 1.399585 33.000000 13 364.187494
1.198808 1.121047 1.160700 6.000000 11 364.187497
2.101102 1.964805 1.591715 17.000000 9 364.187500
1.406051 1.314383 0.865960 29.000000 7 364.187502
1.398780 1.307129 0.652311 25.000000 5 364.187505
1.439216 1.344914 0.465453 24.000000 3 364.187507
1.462808 1.366483 0.272308 15.000000 1 364.187510
2.031805 1.894699 2.554658 15.000000 14 364.187518
1.205048 1.123733 1.283307 30.000000 12 364.187520
2.079504 1.938498 1.755542 16.000000 10 364.187523
1.421690 1.325287 0.985942 24.000000 8 364.187525
1.413468 1.317161 0.761200 30.000000 6 364.187528
1.419178 1.322020 0.558508 28.000000 4 364.187530
1.471313 1.370106 0.372266 21.000000 2 364.187533
1.473487 1.371651 0.174882 12.000000 0 364.187535
0.548162 0.483791 4.648266 102.000000 28 364.187549
0.720221 0.634158 4.637041 94.000000 27 364.187551
1.050444 0.962360 4.598777 10.000000 25 364.187554
1.141606 1.057537 3.725662 9.000000 23 364.187556
1.161806 1.076619 2.968843 16.000000 21 364.187559
1.612511 1.494265 3.301438 16.000000 19 364.187561
1.967254 1.822987 3.286608 10.000000 17 364.187564
0.592713 0.471561 12.897745 15.000000 30 364.187572
0.705404 0.592643 8.535726 15.000000 29 364.187574
0.883686 0.798164 4.618927 95.000000 26 364.187577
1.224300 1.130179 4.585248 10.000000 24 364.187579
1.140175 1.053253 3.271859 10.000000 22 364.187582
1.292240 1.194134 2.948180 20.000000 20 364.187585
1.770599 1.636166 3.265921 13.000000 18 364.187587
2.017648 1.864452 3.056453 13.000000 16 364.187590
2.027912 1.883803 2.799780 13.000000 15 364.187547
1.197282 1.112201 1.399585 33.000000 13 364.187550
2.111194 1.960473 1.594033 17.000000 9 364.187555
1.414028 1.312620 0.867833 28.000000 7 364.187558
1.406851 1.305501 0.653721 25.000000 5 364.187560
1.458305 1.353248 0.469183 21.000000 3 364.187563
1.467569 1.361368 0.272308 15.000000 1 364.187565
2.046626 1.895208 2.564632 15.000000 14 364.187573
1.211929 1.122266 1.286250 30.000000 12 364.187576
2.089422 1.934156 1.758074 16.000000 10 364.187578
1.426307 1.320316 0.985942 27.000000 8 364.187581
1.421523 1.315427 0.762843 30.000000 6 364.187583
1.427353 1.320359 0.559680 28.000000 4 364.187586
1.479723 1.368324 0.372956 21.000000 2 364.187588
1.478266 1.366499 0.174882 12.000000 0 364.187591
0.549848 0.481874 4.648266 104.000000 28 364.187604
0.722430 0.631640 4.637041 94.000000 27 364.187607
1.052692 0.957683 4.594005 10.000000 25 364.187609
1.165420 1.072062 3.790097 8.000000 23 364.187612
1.165557 1.072557 2.968843 14.000000 21 364.187614
1.619788 1.490533 3.305571 16.000000 19 364.187617
1.975965 1.818280 3.290445 10.000000 17 364.187620
0.594582 0.469668 12.902737 15.000000 30 364.187627
0.707878 0.590519 8.540697 15.000000 29 364.187630
0.885530 0.794235 4.614088 96.000000 26 364.187632
1.228238 1.125899 4.585248 10.000000 24 364.187635
1.145449 1.050739 3.276360 10.000000 22 364.187638
1.294479 1.187853 2.943914 20.000000 20 364.187640
1.776299 1.629976 3.265921 13.000000 18 364.187643
2.026642 1.859690 3.060128 13.000000 16 364.187645
2.037097 1.879131 2.803284 12.000000 15 364.187603
1.198296 1.105376 1.396448 34.000000 13 364.187605
1.221975 1.126824 1.174408 39.000000 11 364.187608
2.121281 1.956095 1.596351 17.000000 9 364.187611
1.418601 1.307677 0.867833 28.000000 7 364.187613
1.411400 1.300583 0.653721 25.000000 5 364.187616
1.470244 1.354807 0.471049 17.000000 3 364.187618
1.475975 1.359611 0.272754 16.000000 1 364.187621
2.053230 1.888052 2.564632 15.000000 14 364.187629
1.218814 1.120764 1.289193 30.000000 12 364.187631
2.099335 1.929768 1.760607 15.000000 10 364.187634
1.430907 1.315329 0.985942 28.000000 8 364.187636
1.426106 1.310457 0.762843 30.000000 6 364.187639
1.435532 1.318657 0.560852 28.000000 4 364.187641
1.488138 1.366500 0.373645 19.000000 2 364.187644
1.486708 1.364709 0.175084 13.000000 0 364.187647
0.550940 0.479442 4.643327 105.000000 28 364.187660
0.724630 0.629115 4.637041 94.000000 27 364.187662
1.056029 0.954002 4.594005 10.000000 25 364.187665
1.206659 1.102245 3.909763 8.000000 23 364.187667
1.169294 1.068482 2.968843 13.000000 21 364.187670
1.622904 1.482971 3.301438 16.000000 19 364.187673
1.982300 1.811372 3.290445 10.000000 17 364.187675
0.596218 0.467590 12.902737 15.000000 30 364.187683
0.710758 0.588725 8.550640 14.000000 29 364.187685
0.888297 0.791139 4.614088 96.000000 26 364.187688
1.232161 1.121604 4.585248 9.000000 24 364.187691
1.150720 1.048201 3.280860 10.000000 22 364.187693
1.296690 1.181570 2.939648 20.000000 20 364.187696
1.781978 1.623765 3.265921 13.000000 18 364.187698
2.035627 1.854888 3.063803 13.000000 16 364.187701
2.046273 1.874418 2.806789 12.000000 15 364.187658
1.202147 1.101186 1.396448 35.000000 13 364.187661
1.207398 1.105608 1.157959 52.000000 11 364.187664
2.131364 1.951670 1.598669 17.000000 9 364.187666
1.423157 1.302717 0.867833 29.000000 7 364.187669
1.419470 1.298887 0.655130 25.000000 5 364.187671
1.496709 1.369563 0.476644 16.000000 3 364.187674
1.484387 1.357812 0.273200 16.000000 1 364.187676
2.062566 1.883391 2.567957 14.000000 14 364.187684
1.222719 1.116503 1.289193 29.000000 12 364.187687
2.109242 1.925335 1.763139 15.000000 10 364.187689
1.435490 1.310327 0.985942 27.000000 8 364.187692
1.430672 1.305471 0.762843 30.000000 6 364.187694
1.443718 1.316913 0.562025 27.000000 4 364.187697
1.496558 1.364634 0.374335 18.000000 2 364.187699
1.491462 1.359511 0.175084 13.000000 0 364.187702
0.552610 0.477516 4.643327 105.000000 28 364.187715
0.726822 0.626582 4.637041 93.000000 27 364.187718
1.058241 0.949313 4.589233 10.000000 25 364.187720
1.268381 1.150529 4.093863 7.000000 23 364.187723
1.173016 1.064394 2.968843 13.000000 21 364.187725
1.623902 1.473515 3.293172 16.000000 19 364.187728
1.988611 1.804441 3.290445 10.000000 17 364.187731
0.597389 0.465151 12.892753 17.000000 30 364.187738
0.713634 0.586918 8.560582 15.000000 29 364.187741
0.891053 0.788034 4.614088 96.000000 26 364.187743
1.234788 1.116139 4.580554 9.000000 24 364.187746
1.155987 1.045638 3.285361 10.000000 22 364.187749
1.298872 1.175287 2.935382 20.000000 20 364.187751
1.787636 1.617535 3.265921 13.000000 18 364.187754
2.044603 1.850046 3.067478 13.000000 16 364.187756
2.055442 1.869663 2.810293 12.000000 15 364.187714
1.203104 1.094364 1.393310 38.000000 13 364.187717
1.205062 1.095760 1.152476 66.000000 11 364.187719
2.141441 1.947199 1.600987 17.000000 9 364.187722
1.431126 1.300859 0.869706 29.000000 7 364.187724
1.423996 1.293924 0.655130 26.000000 5 364.187727
1.497844 1.361027 0.475712 16.000000 3 364.187729
1.492804 1.355971 0.273646 14.000000 1 364.187732
2.071893 1.878689 2.571282 14.000000 14 364.187740
1.229603 1.114943 1.292136 30.000000 12 364.187742
2.115950 1.917960 1.763139 16.000000 10 364.187745
1.443418 1.308356 0.988040 27.000000 8 364.187747
1.438719 1.303640 0.764485 29.000000 6 364.187750
1.455511 1.318392 0.564369 26.000000 4 364.187752
1.504983 1.362726 0.375025 18.000000 2 364.187755
1.496199 1.354296 0.175084 12.000000 0 364.187758
0.554274 0.475585 4.643327 105.000000 28 364.187771
0.728231 0.623379 4.632146 93.000000 27 364.187773
1.061548 0.945613 4.589233 10.000000 25 364.187776
1.334809 1.202317 4.291772 8.000000 23 364.187778
1.178505 1.061896 2.973232 13.000000 21 364.187781
1.618583 1.458420 3.272508 15.000000 19 364.187784
1.992515 1.795342 3.286608 10.000000 17 364.187786
0.599009 0.463063 12.892753 17.000000 30 364.187794
0.716920 0.585436 8.575497 15.000000 29 364.187796
0.893799 0.784918 4.614088 96.000000 26 364.187799
1.238677 1.111822 4.580554 9.000000 24 364.187802
1.159630 1.041597 3.285361 10.000000 22 364.187804
1.302967 1.170746 2.935382 20.000000 20 364.187807
1.793271 1.611285 3.265921 13.000000 18 364.187809
2.056092 1.847429 3.074828 13.000000 16 364.187812
2.064602 1.864867 2.813798 12.000000 15 364.187769
1.206917 1.090157 1.393310 44.000000 13 364.187772
1.211983 1.094350 1.155217 73.000000 11 364.187775
2.151513 1.942681 1.603305 17.000000 9 364.187777
1.435659 1.295856 0.869706 29.000000 7 364.187780
1.432065 1.292159 0.656539 24.000000 5 364.187782
1.495292 1.349209 0.473846 24.000000 3 364.187785
1.497528 1.350752 0.273646 14.000000 1 364.187787
2.081214 1.873944 2.574607 15.000000 14 364.187795
1.233488 1.110644 1.292136 30.000000 12 364.187798
2.125836 1.913447 1.765671 15.000000 10 364.187800
1.447976 1.303309 0.988040 29.000000 8 364.187803
1.443261 1.298610 0.764485 29.000000 6 364.187805
1.463718 1.316554 0.565542 25.000000 4 364.187808
1.509731 1.357464 0.375025 19.000000 2 364.187811
1.504633 1.352405 0.175285 12.000000 0 364.187813
0.555930 0.473647 4.643327 105.000000 28 364.187826
0.730403 0.620833 4.632146 94.000000 27 364.187829
1.064842 0.941902 4.589233 10.000000 25 364.187831
1.368122 1.223699 4.383823 9.000000 23 364.187834
1.182204 1.057776 2.973232 13.000000 21 364.187837
1.594304 1.426491 3.214646 14.000000 19 364.187839
1.998770 1.788376 3.286608 10.000000 17 364.187842
0.599242 0.459913 12.862803 17.000000 30 364.187849
0.719789 0.583601 8.585440 15.000000 29 364.187852
0.896533 0.781794 4.614088 96.000000 26 364.187855
1.241262 1.106344 4.575862 9.000000 24 364.187857
1.164884 1.038992 3.289862 10.000000 22 364.187860
1.305100 1.164454 2.931116 21.000000 20 364.187862
1.798884 1.605016 3.265921 13.000000 18 364.187865
2.065058 1.842498 3.078504 12.000000 16 364.187867
2.073754 1.860030 2.817302 12.000000 15 364.187825
1.210715 1.085938 1.393310 58.000000 13 364.187828
1.218909 1.092904 1.157959 74.000000 11 364.187830
2.161580 1.938117 1.605623 17.000000 9 364.187833
1.440173 1.290836 0.869706 29.000000 7 364.187835
1.440140 1.290353 0.657948 24.000000 5 364.187838
1.499993 1.343981 0.473846 24.000000 3 364.187840
1.505943 1.348839 0.274093 16.000000 1 364.187843
2.090526 1.869156 2.577932 14.000000 14 364.187851
1.240370 1.109026 1.295079 29.000000 12 364.187853
2.135717 1.908888 1.768204 15.000000 10 364.187856
1.455900 1.301272 0.990138 29.000000 8 364.187858
1.451307 1.296710 0.766128 29.000000 6 364.187861
1.475555 1.317912 0.567886 23.000000 4 364.187863
1.518154 1.355484 0.375715 18.000000 2 364.187866
1.509344 1.347145 0.175285 13.000000 0 364.187869
0.557580 0.471703 4.643327 101.000000 28 364.187882
0.731787 0.617623 4.627251 94.000000 27 364.187884
1.067001 0.937194 4.584462 10.000000 25 364.187887
1.386992 1.231889 4.429848 10.000000 23 364.187889
1.187680 1.055234 2.977620 14.000000 21 364.187892
1.544579 1.372323 3.107190 14.000000 19 364.187894
2.005001 1.781388 3.286608 10.000000 17 364.187897
0.602458 0.459045 12.897745 18.000000 30 364.187905
0.722654 0.581754 8.595383 15.000000 29 364.187907
0.898306 0.777836 4.609249 96.000000 26 364.187910
1.243824 1.100860 4.571169 9.000000 24 364.187912
1.171764 1.037807 3.298864 10.000000 22 364.187915
1.309156 1.159891 2.931116 20.000000 20 364.187917
1.802220 1.596728 3.261932 13.000000 18 364.187920
2.074015 1.837526 3.082179 12.000000 16 364.187923
2.082897 1.855152 2.820807 12.000000 15 364.187880
1.214498 1.081705 1.393310 69.000000 13 364.187883
1.225840 1.091423 1.160700 74.000000 11 364.187885
2.171641 1.933505 1.607941 17.000000 9 364.187888
1.448133 1.288884 0.871579 29.000000 7 364.187891
1.448220 1.288507 0.659357 26.000000 5 364.187893
1.501005 1.335472 0.472914 24.000000 3 364.187896
1.514363 1.346883 0.274539 16.000000 1 364.187898
2.099831 1.864327 2.581257 15.000000 14 364.187906
1.244234 1.104689 1.295079 29.000000 12 364.187909
2.145592 1.904283 1.770736 16.000000 10 364.187911
1.463828 1.299194 0.992236 27.000000 8 364.187914
1.455824 1.291636 0.766128 28.000000 6 364.187916
1.487419 1.319204 0.570231 19.000000 4 364.187919
1.522877 1.350176 0.375715 20.000000 2 364.187921
1.517776 1.345182 0.175487 12.000000 0 364.187924
0.558628 0.469255 4.638388 101.000000 28 364.187937
0.733938 0.615065 4.627251 92.000000 27 364.187940
1.070266 0.933464 4.584462 10.000000 25 364.187942
1.416192 1.249008 4.508091 11.000000 23 364.187945
1.194950 1.054252 2.986398 14.000000 21 364.187947
1.494495 1.318519 2.999733 15.000000 19 364.187950
2.008803 1.772258 3.282771 10.000000 17 364.187952
0.604288 0.457113 12.902737 19.000000 30 364.187960
0.725515 0.579894 8.605325 15.000000 29 364.187963
0.901015 0.774696 4.609249 96.000000 26 364.187965
1.246363 1.095373 4.566476 10.000000 24 364.187968
1.177015 1.035149 3.303365 10.000000 22 364.187970
1.311239 1.153592 2.926850 20.000000 20 364.187973
1.807783 1.590427 3.261932 13.000000 18 364.187976
2.082961 1.832515 3.085854 12.000000 16 364.187978
2.094703 1.852595 2.827816 13.000000 15 364.187936
1.218267 1.077459 1.393310 66.000000 13 364.187938
1.229642 1.087137 1.160700 74.000000 11 364.187941
2.181696 1.928848 1.610259 17.000000 9 364.187943
1.452624 1.283821 0.871579 29.000000 7 364.187946
1.456304 1.286621 0.660767 26.000000 5 364.187949
1.505658 1.330224 0.472914 24.000000 3 364.187951
1.522788 1.344886 0.274985 16.000000 1 364.187954
2.111928 1.861925 2.587906 15.000000 14 364.187961
1.251114 1.103013 1.298023 29.000000 12 364.187964
2.155460 1.899632 1.773269 16.000000 10 364.187967
1.468354 1.294076 0.992236 27.000000 8 364.187969
1.463868 1.289669 0.767771 28.000000 6 364.187972
1.499310 1.320429 0.572576 19.000000 4 364.187974
1.527580 1.344852 0.375715 21.000000 2 364.187977
1.526213 1.343176 0.175688 12.000000 0 364.187979
0.560263 0.467302 4.638388 105.000000 28 364.187993
0.735298 0.611849 4.622355 88.000000 27 364.187995
1.074647 0.930700 4.589233 11.000000 25 364.187998
1.417604 1.241483 4.498886 11.000000 23 364.188000
1.200424 1.051653 2.990786 14.000000 21 364.188003
1.469455 1.287334 2.941872 16.000000 19 364.188005
2.014977 1.765235 3.282771 10.000000 17 364.188008
0.606575 0.455522 12.917710 19.000000 30 364.188016
0.727953 0.577690 8.610296 15.000000 29 364.188018
0.903714 0.771546 4.609249 95.000000 26 364.188021
1.248878 1.089881 4.561784 9.000000 24 364.188023
1.182261 1.032467 3.307865 10.000000 22 364.188026
1.315258 1.149008 2.926850 20.000000 20 364.188029
1.813323 1.584107 3.261932 13.000000 18 364.188031
2.091898 1.827463 3.089529 12.000000 16 364.188034
2.103837 1.847626 2.831321 13.000000 15 364.187991
1.224945 1.075769 1.396448 66.000000 13 364.187994
1.236572 1.085597 1.163442 73.000000 11 364.187996
2.191745 1.924143 1.612577 17.000000 9 364.187999
1.460581 1.281800 0.873452 28.000000 7 364.188002
1.464392 1.284693 0.662176 26.000000 5 364.188004
1.510292 1.324960 0.472914 24.000000 3 364.188007
1.527474 1.339562 0.274985 16.000000 1 364.188009
2.121224 1.857001 2.591231 14.000000 14 364.188017
1.254957 1.098639 1.298023 29.000000 12 364.188020
2.165323 1.894936 1.775801 16.000000 10 364.188022
1.476278 1.291932 0.994335 28.000000 8 364.188025
1.471915 1.287660 0.769414 27.000000 6 364.188027
1.507569 1.318387 0.573748 19.000000 4 364.188030
1.535994 1.342771 0.376405 21.000000 2 364.188032
1.534654 1.341128 0.175890 13.000000 0 364.188035
0.561890 0.465343 4.638388 105.000000 28 364.188048
0.737429 0.609278 4.622355 88.000000 27 364.188051
1.077889 0.926943 4.589233 12.000000 25 364.188053
1.424878 1.239091 4.508091 11.000000 23 364.188056
1.207703 1.050601 2.999564 14.000000 21 364.188058
1.465447 1.274809 2.925340 17.000000 19 364.188061
2.021126 1.758191 3.282771 10.000000 17 364.188063
0.608627 0.453747 12.927694 19.000000 30 364.188071
0.730805 0.575805 8.620239 15.000000 29 364.188074
0.905442 0.767573 4.604409 95.000000 26 364.188076
1.252675 1.085515 4.561784 9.000000 24 364.188079
1.187503 1.029760 3.312366 10.000000 22 364.188081
1.317290 1.142700 2.922584 21.000000 20 364.188084
1.818842 1.577768 3.261932 13.000000 18 364.188087
2.100826 1.822371 3.093204 12.000000 16 364.188089
2.112961 1.842615 2.834825 12.000000 15 364.188047
1.228693 1.071486 1.396448 71.000000 13 364.188049
1.240354 1.081274 1.163442 73.000000 11 364.188052
2.198448 1.916481 1.612577 17.000000 9 364.188055
1.468541 1.279740 0.875325 28.000000 7 364.188057
1.472485 1.282725 0.663585 26.000000 5 364.188060
1.518611 1.322907 0.473846 25.000000 3 364.188062
1.535896 1.337492 0.275431 16.000000 1 364.188065
2.130512 1.852036 2.594556 14.000000 14 364.188073
1.261835 1.096903 1.300966 30.000000 12 364.188075
2.175178 1.890194 1.778333 15.000000 10 364.188078
1.480779 1.286771 0.994335 28.000000 8 364.188080
1.476401 1.282515 0.769414 27.000000 6 364.188083
1.515832 1.316303 0.574920 19.000000 4 364.188085
1.540671 1.337402 0.376405 21.000000 2 364.188088
1.543100 1.339037 0.176092 13.000000 0 364.188090
0.563511 0.463379 4.638388 105.000000 28 364.188104
0.739552 0.606700 4.622355 93.000000 27 364.188106
1.081118 0.923175 4.589233 13.000000 25 364.188109
1.430673 1.235386 4.512693 12.000000 23 364.188111
1.213176 1.047945 3.003952 14.000000 21 364.188114
1.465629 1.266007 2.917074 17.000000 19 364.188116
2.027251 1.751125 3.282771 10.000000 17 364.188119
0.610827 0.452242 12.942669 20.000000 30 364.188127
0.733552 0.574036 8.630182 15.000000 29 364.188129
0.907982 0.764567 4.604409 96.000000 26 364.188132
1.254960 1.080229 4.557091 9.000000 24 364.188134
1.192741 1.027030 3.316867 10.000000 22 364.188137
1.321271 1.138095 2.922584 21.000000 20 364.188140
1.824338 1.571409 3.261932 13.000000 18 364.188142
2.109426 1.817608 3.096879 12.000000 16 364.188145
2.124772 1.839896 2.841834 12.000000 15 364.188102
1.235368 1.069739 1.399585 69.000000 13 364.188105
1.247282 1.079674 1.166183 73.000000 11 364.188107
2.208474 1.911694 1.614895 17.000000 9 364.188110
1.476282 1.277897 0.877198 27.000000 7 364.188113
1.483986 1.284113 0.666403 25.000000 5 364.188115
1.523220 1.317598 0.473846 26.000000 3 364.188118
1.540555 1.332123 0.275431 16.000000 1 364.188120
2.139791 1.847028 2.597881 14.000000 14 364.188128
1.265656 1.092492 1.300966 30.000000 12 364.188131
2.184698 1.885787 1.780866 15.000000 10 364.188133
1.488473 1.284819 0.996432 27.000000 8 364.188136
1.484221 1.280697 0.771056 27.000000 6 364.188138
1.523870 1.314444 0.576092 25.000000 4 364.188141
1.548849 1.335519 0.377094 21.000000 2 364.188143
1.551316 1.337174 0.176293 13.000000 0 364.188146
0.564443 0.461017 4.633448 104.000000 28 364.188159
0.741559 0.604245 4.622355 93.000000 27 364.188162
1.084174 0.919585 4.589233 18.000000 25 364.188164
1.433279 1.229364 4.508091 12.000000 23 364.188167
1.218463 1.045476 3.008341 14.000000 21 364.188169
1.467683 1.259307 2.912941 18.000000 19 364.188172
2.030614 1.742305 3.278934 10.000000 17 364.188175
0.612869 0.450449 12.952653 21.000000 30 364.188182
0.736395 0.572127 8.640125 15.000000 29 364.188185
0.910646 0.761392 4.604409 96.000000 26 364.188187
1.258723 1.075842 4.557091 9.000000 24 364.188190
1.197795 1.024484 3.321368 10.000000 22 364.188193
1.325038 1.133708 2.922584 21.000000 20 364.188195
1.829539 1.565351 3.261932 13.000000 18 364.188198
2.120909 1.814641 3.104230 12.000000 16 364.188200
2.133566 1.835166 2.845339 13.000000 15 364.188158
1.241860 1.068175 1.402723 69.000000 13 364.188160
1.254026 1.078258 1.168925 73.000000 11 364.188163
2.214801 1.904360 1.614895 17.000000 9 364.188166
1.480734 1.272736 0.877198 27.000000 7 364.188168
1.495736 1.285178 0.669222 23.000000 5 364.188171
1.531307 1.315740 0.474779 26.000000 3 364.188173
1.548742 1.330252 0.275877 16.000000 1 364.188176
2.151573 1.844783 2.604530 14.000000 14 364.188184
1.272341 1.090920 1.303909 30.000000 12 364.188186
2.194541 1.880956 1.783398 15.000000 10 364.188189
1.492949 1.279615 0.996432 27.000000 8 364.188191
1.488682 1.275508 0.771056 27.000000 6 364.188194
1.528448 1.309117 0.576092 25.000000 4 364.188196
1.557263 1.333325 0.377784 21.000000 2 364.188199
1.555974 1.331751 0.176293 13.000000 0 364.188201
0.566049 0.459044 4.633448 105.000000 28 364.188215
0.743664 0.601652 4.622355 93.000000 27 364.188217
1.087377 0.915794 4.589233 33.000000 25 364.188220
1.437561 1.224353 4.508091 11.000000 23 364.188222
1.223928 1.042770 3.012729 14.000000 21 364.188225
1.469928 1.252352 2.908808 19.000000 19 364.188227
2.036683 1.735206 3.278934 10.000000 17 364.188230
0.615140 0.448818 12.967627 22.000000 30 364.188238
0.739233 0.570204 8.650067 15.000000 29 364.188240
0.912330 0.757406 4.599570 96.000000 26 364.188243
1.261155 1.070325 4.552398 9.000000 24 364.188245
1.203024 1.021707 3.325869 10.000000 22 364.188248
1.327000 1.127387 2.918319 21.000000 20 364.188251
1.832695 1.557004 3.257942 13.000000 18 364.188253
2.129814 1.809422 3.107905 12.000000 16 364.188256
2.142670 1.830023 2.848843 13.000000 15 364.188213
1.248541 1.066362 1.405861 69.000000 13 364.188216
1.257782 1.073874 1.168925 73.000000 11 364.188219
2.224804 1.899494 1.617213 17.000000 9 364.188221
1.488693 1.270569 0.879071 26.000000 7 364.188224
1.507512 1.286176 0.672040 19.000000 5 364.188226
1.535890 1.310387 0.474779 26.000000 3 364.188229
1.553376 1.324837 0.275877 16.000000 1 364.188231
2.160843 1.839682 2.607855 14.000000 14 364.188239
1.279218 1.089092 1.306852 30.000000 12 364.188242
2.204376 1.876078 1.785931 15.000000 10 364.188244
1.500863 1.277338 0.998531 27.000000 8 364.188247
1.496723 1.273364 0.772699 27.000000 6 364.188249
1.533009 1.303774 0.576092 25.000000 4 364.188252
1.565680 1.331089 0.378474 22.000000 2 364.188254
1.564420 1.329547 0.176495 13.000000 0 364.188257
0.567042 0.456578 4.628509 105.000000 28 364.188270
0.745760 0.599053 4.622355 92.000000 27 364.188273
1.089422 0.911035 4.584462 48.000000 25 364.188275
1.441826 1.219328 4.508091 10.000000 23 364.188278
1.227561 1.038492 3.012729 15.000000 21 364.188280
1.472142 1.245395 2.904675 19.000000 19 364.188283
2.042728 1.728087 3.278934 10.000000 17 364.188286
0.616938 0.446838 12.972619 22.000000 30 364.188293
0.742068 0.568269 8.660010 14.000000 29 364.188296
0.914968 0.754217 4.599570 96.000000 26 364.188298
1.264884 1.065916 4.552398 9.000000 24 364.188301
1.208248 1.018905 3.330370 10.000000 22 364.188304
1.330927 1.122748 2.918319 21.000000 20 364.188306
1.838119 1.550597 3.257942 13.000000 18 364.188309
2.141300 1.806348 3.115255 12.000000 16 364.188311
2.151765 1.824840 2.852348 13.000000 15 364.188269
1.252256 1.061997 1.405861 69.000000 13 364.188271
1.264713 1.072181 1.171666 73.000000 11 364.188274
2.234800 1.894581 1.619532 17.000000 9 364.188277
1.496656 1.268362 0.880944 26.000000 7 364.188279
1.522974 1.290209 0.676268 15.000000 5 364.188282
1.544203 1.308193 0.475712 26.000000 3 364.188284
1.561792 1.322626 0.276324 17.000000 1 364.188287
2.170104 1.834539 2.611180 14.000000 14 364.188295
1.286099 1.087230 1.309795 30.000000 12 364.188297
2.214204 1.871154 1.788463 15.000000 10 364.188300
1.508779 1.275020 1.000629 26.000000 8 364.188302
1.504766 1.271179 0.774342 27.000000 6 364.188305
1.541264 1.301551 0.577265 26.000000 4 364.188307
1.570317 1.325615 0.378474 22.000000 2 364.188310
1.569052 1.324078 0.176495 13.000000 0 364.188313
0.568632 0.454596 4.628509 105.000000 28 364.188326
0.747050 0.595811 4.617460 92.000000 27 364.188328
1.092595 0.907227 4.584462 69.000000 25 364.188331
1.446074 1.214287 4.508091 13.000000 23 364.188333
1.233013 1.035741 3.017118 13.000000 21 364.188336
1.476481 1.240249 2.904675 19.000000 19 364.188339
2.051202 1.723007 3.282771 10.000000 17 364.188341
0.618494 0.444681 12.972619 22.000000 30 364.188349
0.745323 0.566644 8.674925 15.000000 29 364.188351
0.917595 0.751018 4.599570 96.000000 26 364.188354
1.268597 1.061494 4.552398 9.000000 24 364.188357
1.213467 1.016079 3.334870 10.000000 22 364.188359
1.332839 1.116421 2.914052 21.000000 20 364.188362
1.843520 1.544171 3.257942 13.000000 18 364.188364
2.150191 1.801039 3.118930 12.000000 16 364.188367
2.160850 1.819614 2.855852 13.000000 15 364.188324
1.258933 1.060127 1.408999 69.000000 13 364.188327
1.268447 1.067760 1.171666 73.000000 11 364.188330
2.244789 1.889622 1.621850 17.000000 9 364.188332
1.504622 1.266115 0.882817 26.000000 7 364.188335
1.531140 1.287973 0.677677 15.000000 5 364.188337
1.552519 1.305957 0.476644 26.000000 3 364.188340
1.570211 1.320371 0.276770 17.000000 1 364.188342
2.179355 1.829354 2.614505 14.000000 14 364.188350
1.292982 1.085332 1.312738 30.000000 12 364.188353
2.224025 1.866185 1.790996 16.000000 10 364.188355
1.516697 1.272663 1.002727 26.000000 8 364.188358
1.512812 1.268954 0.775984 26.000000 6 364.188360
1.545798 1.296163 0.577265 26.000000 4 364.188363
1.578730 1.323307 0.379164 22.000000 2 364.188365
1.577493 1.321802 0.176696 13.000000 0 364.188368
0.570216 0.452608 4.628509 105.000000 28 364.188381
0.749125 0.593200 4.617460 92.000000 27 364.188384
1.094603 0.902457 4.579690 83.000000 25 364.188386
1.448803 1.207981 4.503489 13.000000 23 364.188389
1.238461 1.032966 3.021507 13.000000 21 364.188391
1.478640 1.233285 2.900542 20.000000 19 364.188394
2.057204 1.715837 3.282771 10.000000 17 364.188397
0.620042 0.442520 12.972619 23.000000 30 364.188404
0.748149 0.564681 8.684867 15.000000 29 364.188407
0.919235 0.747018 4.594731 96.000000 26 364.188409
1.272294 1.057060 4.552398 9.000000 24 364.188412
1.218681 1.013229 3.339371 10.000000 22 364.188415
1.336727 1.111761 2.914052 21.000000 20 364.188417
1.848899 1.537727 3.257942 14.000000 18 364.188420
2.161678 1.797859 3.126281 12.000000 16 364.188422
2.169924 1.814348 2.859357 12.000000 15 364.188380
1.265613 1.058223 1.412136 69.000000 13 364.188383
1.275375 1.066008 1.174408 73.000000 11 364.188385
2.254771 1.884616 1.624168 16.000000 9 364.188388
1.509032 1.260855 0.882817 26.000000 7 364.188390
1.542990 1.288771 0.680495 19.000000 5 364.188393
1.557068 1.300530 0.476644 26.000000 3 364.188395
1.578633 1.318074 0.277216 16.000000 1 364.188398
2.188596 1.824126 2.617830 14.000000 14 364.188406
1.299868 1.083400 1.315682 31.000000 12 364.188408
2.233838 1.861170 1.793528 16.000000 10 364.188411
1.524617 1.270266 1.004825 25.000000 8 364.188413
1.524490 1.269710 0.779270 27.000000 6 364.188416
1.554048 1.293869 0.578437 26.000000 4 364.188418
1.587146 1.320956 0.379854 21.000000 2 364.188421
1.585938 1.319482 0.176898 13.000000 0 364.188424
0.571182 0.450134 4.623570 105.000000 28 364.188437
0.751191 0.590582 4.617460 92.000000 27 364.188439
1.096590 0.897685 4.574918 87.000000 25 364.188442
1.443982 1.195441 4.475873 12.000000 23 364.188444
1.243904 1.030164 3.025896 14.000000 21 364.188447
1.480769 1.226321 2.896409 19.000000 19 364.188450
2.063181 1.708646 3.282771 10.000000 17 364.188452
0.621583 0.440353 12.972619 25.000000 30 364.188460
0.750970 0.562706 8.694810 14.000000 29 364.188462
0.921837 0.743804 4.594731 95.000000 26 364.188465
1.275976 1.052612 4.552398 9.000000 24 364.188468
1.223889 1.010356 3.343872 9.000000 22 364.188470
1.338589 1.105428 2.909786 22.000000 20 364.188473
1.854256 1.531263 3.257942 14.000000 18 364.188475
2.170555 1.792461 3.129956 12.000000 16 364.188478
2.181732 1.811319 2.866366 12.000000 15 364.188435
1.269299 1.053799 1.412136 69.000000 13 364.188438
1.282306 1.064220 1.177149 73.000000 11 364.188441
2.264745 1.879563 1.626486 16.000000 9 364.188443
1.516992 1.258540 0.884690 26.000000 7 364.188446
1.551172 1.286440 0.681905 19.000000 5 364.188448
1.565380 1.298223 0.477577 26.000000 3 364.188451
1.583224 1.312555 0.277216 16.000000 1 364.188453
2.197826 1.818856 2.621155 15.000000 14 364.188461
1.303642 1.078856 1.315682 31.000000 12 364.188464
2.243643 1.856109 1.796060 16.000000 10 364.188466
1.536036 1.270723 1.009021 25.000000 8 364.188469
1.536191 1.270400 0.782555 27.000000 6 364.188471
1.562302 1.291533 0.579609 26.000000 4 364.188474
1.595565 1.318563 0.380544 21.000000 2 364.188477
1.594386 1.317120 0.177099 13.000000 0 364.188479
0.572750 0.448138 4.623570 104.000000 28 364.188492
0.752445 0.587330 4.612565 93.000000 27 364.188495
1.099717 0.893852 4.574918 90.000000 25 364.188497
1.436072 1.180469 4.439053 11.000000 23 364.188500
1.249343 1.027338 3.030284 14.000000 21 364.188503
1.485040 1.221145 2.896409 19.000000 19 364.188505
2.066657 1.699397 3.278934 10.000000 17 364.188508
0.623116 0.438180 12.972619 26.000000 30 364.188515
0.754216 0.561036 8.709724 14.000000 29 364.188518
0.923446 0.739796 4.589892 95.000000 26 364.188521
1.279643 1.048152 4.552398 9.000000 24 364.188523
1.229093 1.007458 3.348373 9.000000 22 364.188526
1.342440 1.100749 2.909786 21.000000 20 364.188528
1.859589 1.524781 3.257942 14.000000 18 364.188531
2.179420 1.787023 3.133631 12.000000 16 364.188533
2.190793 1.805960 2.869870 12.000000 15 364.188491
1.275973 1.051838 1.415274 69.000000 13 364.188494
1.289240 1.062396 1.179891 73.000000 11 364.188496
2.274711 1.874464 1.628804 16.000000 9 364.188499
1.524954 1.256185 0.886563 26.000000 7 364.188501
1.559356 1.284067 0.683314 21.000000 5 364.188504
1.569902 1.292751 0.477577 26.000000 3 364.188506
1.591641 1.310186 0.277662 16.000000 1 364.188509
2.207047 1.813544 2.624480 14.000000 14 364.188517
1.310523 1.076865 1.318625 32.000000 12 364.188519
2.253440 1.851003 1.798593 16.000000 10 364.188522
1.547477 1.271115 1.013217 24.000000 8 364.188524
1.544266 1.268026 0.784198 22.000000 6 364.188527
1.566800 1.286072 0.579609 27.000000 4 364.188529
1.603986 1.316126 0.381233 21.000000 2 364.188532
1.598974 1.311547 0.177099 13.000000 0 364.188535
0.574388 0.446036 4.623570 104.000000 28 364.188548
0.754593 0.584568 4.612565 93.000000 27 364.188550
1.102986 0.889815 4.574918 93.000000 25 364.188553
1.422224 1.160377 4.383823 9.000000 23 364.188555
1.256812 1.025781 3.039062 14.000000 21 364.188558
1.487326 1.213915 2.892276 19.000000 19 364.188560
2.072871 1.691811 3.278934 10.000000 17 364.188563
0.624718 0.435894 12.972619 26.000000 30 364.188571
0.757127 0.558902 8.719667 14.000000 29 364.188573
0.926151 0.736406 4.589892 95.000000 26 364.188576
1.283476 1.043454 4.552398 10.000000 24 364.188578
1.234466 1.004321 3.352874 9.000000 22 364.188581
1.344442 1.094175 2.905520 21.000000 20 364.188583
1.865166 1.517956 3.257942 14.000000 18 364.188586
2.188584 1.781163 3.137306 11.000000 16 364.188589
2.200158 1.800177 2.873375 12.000000 15 364.188546
1.279820 1.047154 1.415274 67.000000 13 364.188549
1.293125 1.057664 1.179891 73.000000 11 364.188551
2.284995 1.868919 1.631122 16.000000 9 364.188554
1.533137 1.253521 0.888436 26.000000 7 364.188557
1.564052 1.278343 0.683314 21.000000 5 364.188559
1.578433 1.290097 0.478509 26.000000 3 364.188562
1.600289 1.307494 0.278108 17.000000 1 364.188564
2.216573 1.807803 2.627805 14.000000 14 364.188572
1.314461 1.072055 1.318625 32.000000 12 364.188575
2.260209 1.842731 1.798593 16.000000 10 364.188577
1.555642 1.268302 1.015315 22.000000 8 364.188580
1.556224 1.268325 0.787483 21.000000 6 364.188582
1.575272 1.283391 0.580782 28.000000 4 364.188585
1.608799 1.310239 0.381233 21.000000 2 364.188587
1.607644 1.308831 0.177301 13.000000 0 364.188590
0.575942 0.444028 4.623570 104.000000 28 364.188603
0.756629 0.581930 4.612565 92.000000 27 364.188606
1.104920 0.885026 4.570147 94.000000 25 364.188608
1.401977 1.135730 4.310183 7.000000 23 364.188611
1.262246 1.022896 3.043450 14.000000 21 364.188613
1.489368 1.206944 2.888143 20.000000 19 364.188616
2.078764 1.684565 3.278934 10.000000 17 364.188618
0.626474 0.433875 12.977611 28.000000 30 364.188626
0.759504 0.556570 8.724639 14.000000 29 364.188629
0.927729 0.732389 4.585052 95.000000 26 364.188631
1.287110 1.038968 4.552398 10.000000 24 364.188634
1.241353 1.002742 3.361875 9.000000 22 364.188636
1.348253 1.089475 2.905520 21.000000 20 364.188639
1.870453 1.511436 3.257942 14.000000 18 364.188642
2.200062 1.777774 3.144657 11.000000 16 364.188644
2.211964 1.796983 2.880384 12.000000 15 364.188602
1.286489 1.045135 1.418412 67.000000 13 364.188604
1.300055 1.055780 1.182632 73.000000 11 364.188607
2.294944 1.863724 1.633440 16.000000 9 364.188609
1.541103 1.251084 0.890309 25.000000 7 364.188612
1.572230 1.275898 0.684723 21.000000 5 364.188615
1.586741 1.287674 0.479442 26.000000 3 364.188617
1.604843 1.301900 0.278108 14.000000 1 364.188620
2.228675 1.804755 2.634454 14.000000 14 364.188627
1.321336 1.070004 1.321568 32.000000 12 364.188630
2.276680 1.842968 1.806190 16.000000 10 364.188633
1.581226 1.279998 1.027903 17.000000 8 364.188635
1.567984 1.268826 0.790768 21.000000 6 364.188638
1.579742 1.277884 0.580782 27.000000 4 364.188640
1.617214 1.307729 0.381923 21.000000 2 364.188643
1.612203 1.303212 0.177301 13.000000 0 364.188645
0.577488 0.442015 4.623570 104.000000 28 364.188659
0.758655 0.579286 4.612565 92.000000 27 364.188661
1.108002 0.881164 4.570147 94.000000 25 364.188664
1.405933 1.130829 4.310183 6.000000 23 364.188666
1.267676 1.019986 3.047839 14.000000 21 364.188669
1.493572 1.201738 2.888143 20.000000 19 364.188671
2.084632 1.677299 3.278934 10.000000 17 364.188674
0.627985 0.431685 12.977611 29.000000 30 364.188682
0.762306 0.554543 8.734582 14.000000 29 364.188684
0.930280 0.729147 4.585052 94.000000 26 364.188687
1.289383 1.033390 4.547705 9.000000 24 364.188689
1.246544 0.999765 3.366376 9.000000 22 364.188692
1.350014 1.083130 2.901255 21.000000 20 364.188695
1.875717 1.504897 3.257942 14.000000 18 364.188697
2.208899 1.772205 3.148332 11.000000 16 364.188700
2.220999 1.791490 2.883889 12.000000 15 364.188657
1.293159 1.043082 1.421550 67.000000 13 364.188660
1.306988 1.053860 1.185374 73.000000 11 364.188662
2.304884 1.858482 1.635758 16.000000 9 364.188665
1.549070 1.248606 0.892182 26.000000 7 364.188668
1.576674 1.270403 0.684723 21.000000 5 364.188670
1.595051 1.285210 0.480375 26.000000 3 364.188673
1.609378 1.296290 0.278108 14.000000 1 364.188675
2.234961 1.796965 2.634454 14.000000 14 364.188683
1.328213 1.067917 1.324511 33.000000 12 364.188686
2.283099 1.835010 1.806190 16.000000 10 364.188688
1.571534 1.263097 1.019511 11.000000 8 364.188691
1.576085 1.266303 0.792411 24.000000 6 364.188693
1.587983 1.275406 0.581954 27.000000 4 364.188696
1.625630 1.305176 0.382613 21.000000 2 364.188698
1.616742 1.297576 0.177301 12.000000 0 364.188701
0.579028 0.439996 4.623570 105.000000 28 364.188714
0.759861 0.576019 4.607670 91.000000 27 364.188717
1.109899 0.876365 4.565375 94.000000 25 364.188719
1.388499 1.108847 4.245747 6.000000 23 364.188722
1.273100 1.017050 3.052227 14.000000 21 364.188724
1.495559 1.194760 2.884011 19.000000 19 364.188727
2.087969 1.668011 3.275097 11.000000 17 364.188729
0.629727 0.429653 12.982602 30.000000 30 364.188737
0.765104 0.552504 8.744525 14.000000 29 364.188740
0.931826 0.725123 4.580213 94.000000 26 364.188742
1.291632 1.027808 4.543013 9.000000 24 364.188745
1.251730 0.996765 3.370877 10.000000 22 364.188747
1.353787 1.078411 2.901255 21.000000 20 364.188750
1.880959 1.498341 3.257942 14.000000 18 364.188753
2.223027 1.770820 3.159357 11.000000 16 364.188755
2.235590 1.790414 2.894403 12.000000 15 364.188713
1.299831 1.040995 1.424688 69.000000 13 364.188715
1.313923 1.051904 1.188115 69.000000 11 364.188718
2.294065 1.836582 1.624168 12.000000 9 364.188721
1.557038 1.246088 0.894055 26.000000 7 364.188723
1.584845 1.267888 0.686132 21.000000 5 364.188726
1.599528 1.279634 0.480375 25.000000 3 364.188728
1.617782 1.293775 0.278555 16.000000 1 364.188731
2.249975 1.796142 2.644428 14.000000 14 364.188739
1.331933 1.063275 1.324511 33.000000 12 364.188741
2.282751 1.821651 1.801125 14.000000 10 364.188744
1.622050 1.294405 1.046786 11.000000 8 364.188746
1.584188 1.263739 0.794054 25.000000 6 364.188749
1.596226 1.272885 0.583126 27.000000 4 364.188751
1.630176 1.299493 0.382613 21.000000 2 364.188754
1.625169 1.295038 0.177502 12.000000 0 364.188756
0.580560 0.437972 4.623570 101.000000 28 364.188770
0.761867 0.573363 4.607670 91.000000 27 364.188772
1.112951 0.872486 4.565375 94.000000 25 364.188775
1.387768 1.100352 4.231939 6.000000 23 364.188777
1.278520 1.014089 3.056616 14.000000 21 364.188780
1.499720 1.189533 2.884011 19.000000 19 364.188782
2.093779 1.660712 3.275097 11.000000 17 364.188785
0.631149 0.427563 12.982602 31.000000 30 364.188793
