# .PCD v.7 - Point Cloud Data file format
VERSION .7
FIELDS x y z intensity ring timestamp
SIZE 4 4 4 4 2 8
TYPE F F F F U D
COUNT 1 1 1 1 1 1
WIDTH 926
HEIGHT 1
VIEWPOINT 0 0 0 1 0 0 0
POINTS 926
DATA ascii
2.106253 -2.207918 0.986291 21.000000 5 364.412892
2.058145 -2.157488 0.657573 24.000000 3 364.412895
2.013855 -2.111798 0.354410 28.000000 1 364.412897
2.451082 -2.574778 3.246226 10.000000 14 364.412905
2.326102 -2.443495 2.540036 13.000000 12 364.412908
2.242151 -2.356129 1.996122 16.000000 10 364.412910
2.190864 -2.302239 1.556612 19.000000 8 364.412913
2.129099 -2.238115 1.163658 24.000000 6 364.412915
2.070110 -2.176867 0.815245 26.000000 4 364.412918
2.030051 -2.135489 0.502641 26.000000 2 364.412920
1.982131 -2.085809 0.209747 27.000000 0 364.412923
0.063202 -0.110015 12.998778 5.000000 31 364.412934
0.466018 -0.517163 4.425999 101.000000 28 364.412936
0.602759 -0.670475 4.358013 91.000000 27 364.412939
0.826230 -0.883392 3.911649 94.000000 25 364.412941
1.075948 -1.137753 3.748674 15.000000 23 364.412944
1.264690 -1.336882 3.438430 8.000000 21 364.412946
1.460510 -1.543888 3.193982 28.000000 19 364.412949
2.856596 -3.019694 5.051603 14.000000 17 364.412952
0.172707 -0.211399 4.546785 100.000000 30 364.412959
0.318892 -0.371203 4.513854 98.000000 29 364.412962
0.693837 -0.752417 3.975312 93.000000 26 364.412964
0.952183 -1.010398 3.829712 89.000000 24 364.412967
1.148606 -1.217993 3.523906 9.000000 22 364.412970
1.366654 -1.448718 3.327848 14.000000 20 364.412972
2.698738 -2.860814 5.280618 39.000000 18 364.412975
2.508584 -2.659243 4.041397 5.000000 16 364.412977
2.437091 -2.569943 3.560266 7.000000 15 364.412935
2.359343 -2.487960 2.846101 11.000000 13 364.412938
2.262608 -2.386786 2.240838 13.000000 11 364.412940
2.198508 -2.319171 1.758613 17.000000 9 364.412943
2.140258 -2.258513 1.345456 21.000000 7 364.412945
2.082037 -2.197843 0.979245 21.000000 5 364.412948
2.030332 -2.143262 0.651977 26.000000 3 364.412950
1.985925 -2.097119 0.351733 28.000000 1 364.412953
2.413860 -2.553467 3.209653 10.000000 14 364.412961
2.295346 -2.428101 2.516491 13.000000 12 364.412963
2.213185 -2.342007 1.978395 16.000000 10 364.412966
2.167228 -2.293379 1.546122 21.000000 8 364.412968
2.101815 -2.224936 1.153802 25.000000 6 364.412971
2.042475 -2.162876 0.808211 26.000000 4 364.412973
2.005587 -2.124556 0.499192 28.000000 2 364.412976
1.961123 -2.078181 0.208941 28.000000 0 364.412979
0.063083 -0.110736 13.063775 5.000000 31 364.412989
0.464210 -0.518787 4.425999 101.000000 28 364.412992
0.600415 -0.672575 4.358013 91.000000 27 364.412994
0.824157 -0.887365 3.916420 95.000000 25 364.412997
1.069295 -1.138653 3.739469 13.000000 23 364.412999
1.305944 -1.390181 3.561312 8.000000 21 364.413002
1.455112 -1.548977 3.193982 28.000000 19 364.413005
2.841647 -3.024974 5.043929 14.000000 17 364.413007
0.171968 -0.212001 4.546785 100.000000 30 364.413015
0.317594 -0.372314 4.513854 98.000000 29 364.413017
0.691206 -0.754835 3.975312 92.000000 26 364.413020
0.948650 -1.013716 3.829712 91.000000 24 364.413023
1.142859 -1.220406 3.519405 9.000000 22 364.413025
1.363371 -1.455383 3.332114 13.000000 20 364.413028
2.680494 -2.861418 5.264660 32.000000 18 364.413030
2.478427 -2.645716 4.008320 5.000000 16 364.413033
2.432995 -2.583627 3.567275 7.000000 15 364.412990
2.326625 -2.470674 2.817861 11.000000 13 364.412993
2.234200 -2.373357 2.221648 13.000000 11 364.412996
2.172179 -2.307476 1.744705 18.000000 9 364.412998
2.113299 -2.245713 1.334218 22.000000 7 364.413001
2.054630 -2.184132 0.970790 22.000000 5 364.413003
2.006009 -2.132447 0.647314 27.000000 3 364.413006
1.961535 -2.085898 0.349502 29.000000 1 364.413008
2.379373 -2.534650 3.176404 10.000000 14 364.413016
2.264724 -2.412523 2.492946 14.000000 12 364.413019
2.184345 -2.327711 1.960668 17.000000 10 364.413021
2.140575 -2.281073 1.533534 23.000000 8 364.413024
2.074650 -2.211594 1.143946 25.000000 6 364.413026
2.014964 -2.148719 0.801177 27.000000 4 364.413029
1.977838 -2.109866 0.495053 28.000000 2 364.413032
1.936776 -2.066786 0.207933 29.000000 0 364.413034
0.062696 -0.110956 13.063775 4.000000 31 364.413045
0.462396 -0.520404 4.425999 101.000000 28 364.413047
0.598063 -0.674666 4.358013 92.000000 27 364.413050
0.821055 -0.890236 3.916420 95.000000 25 364.413052
1.062649 -1.139521 3.730264 13.000000 23 364.413055
1.327231 -1.422760 3.631531 9.000000 21 364.413058
1.451616 -1.556104 3.198114 28.000000 19 364.413060
2.824511 -3.027842 5.032418 15.000000 17 364.413063
0.171046 -0.212374 4.541793 100.000000 30 364.413070
0.316293 -0.373420 4.513854 98.000000 29 364.413073
0.688567 -0.757243 3.975312 92.000000 26 364.413076
0.945106 -1.017021 3.829712 91.000000 24 364.413078
1.137109 -1.222793 3.514904 9.000000 22 364.413081
1.360059 -1.462043 3.336380 12.000000 20 364.413083
2.662278 -2.861930 5.248702 27.000000 18 364.413086
2.441469 -2.624565 3.964218 5.000000 16 364.413088
2.414218 -2.581685 3.553257 10.000000 15 364.413046
2.294057 -2.453191 2.789621 10.000000 13 364.413049
2.203058 -2.356704 2.199716 14.000000 11 364.413051
2.145959 -2.295626 1.730797 18.000000 9 364.413054
2.086455 -2.232753 1.322980 24.000000 7 364.413056
2.030619 -2.173762 0.963744 21.000000 5 364.413059
1.978433 -2.117898 0.641718 27.000000 3 364.413061
1.937247 -2.074534 0.347271 29.000000 1 364.413064
2.345048 -2.515625 3.143156 10.000000 14 364.413072
2.234240 -2.396760 2.469400 14.000000 12 364.413074
2.158571 -2.316398 1.945474 17.000000 10 364.413077
2.114035 -2.268609 1.520946 23.000000 8 364.413079
2.047605 -2.198089 1.134090 26.000000 6 364.413082
1.987576 -2.134396 0.794143 28.000000 4 364.413084
1.953590 -2.098634 0.491604 28.000000 2 364.413087
1.915936 -2.058905 0.207127 28.000000 0 364.413090
0.460577 -0.522015 4.425999 101.000000 28 364.413103
0.595705 -0.676750 4.358013 92.000000 27 364.413105
0.817942 -0.893097 3.916420 95.000000 25 364.413108
1.057337 -1.141790 3.725662 14.000000 23 364.413110
1.343422 -1.450233 3.688583 10.000000 21 364.413113
1.446176 -1.561162 3.198114 28.000000 19 364.413115
2.809567 -3.032979 5.024745 14.000000 17 364.413118
0.170303 -0.212969 4.541793 100.000000 30 364.413126
0.314987 -0.374522 4.513854 99.000000 29 364.413128
0.685920 -0.759642 3.975312 92.000000 26 364.413131
0.941550 -1.020314 3.829712 91.000000 24 364.413133
1.129879 -1.223555 3.505902 8.000000 22 364.413136
1.354948 -1.466782 3.336380 9.000000 20 364.413138
2.644091 -2.862350 5.232744 15.000000 18 364.413141
2.409289 -2.608168 3.927466 6.000000 16 364.413144
2.378498 -2.561350 3.514707 10.000000 15 364.413101
2.264287 -2.438363 2.764519 10.000000 13 364.413104
2.174905 -2.342928 2.180526 14.000000 11 364.413106
2.122863 -2.286869 1.719207 19.000000 9 364.413109
2.056575 -2.216235 1.309868 25.000000 7 364.413112
2.003443 -2.159734 0.955288 21.000000 5 364.413114
1.954325 -2.106784 0.637055 28.000000 3 364.413117
1.909677 -2.059374 0.344594 29.000000 1 364.413119
2.313421 -2.499131 3.113232 10.000000 14 364.413127
2.206640 -2.383781 2.448798 14.000000 12 364.413130
2.129976 -2.301768 1.927747 18.000000 10 364.413132
2.087609 -2.255988 1.508357 24.000000 8 364.413135
2.020678 -2.184423 1.124233 27.000000 6 364.413137
1.963614 -2.123478 0.788282 28.000000 4 364.413140
1.926083 -2.083621 0.487465 28.000000 2 364.413142
1.891784 -2.047234 0.206120 29.000000 0 364.413145
0.458752 -0.523619 4.425999 101.000000 28 364.413158
0.593339 -0.678825 4.358013 91.000000 27 364.413161
0.814820 -0.895947 3.916420 95.000000 25 364.413163
1.052023 -1.144036 3.721059 14.000000 23 364.413166
1.326998 -1.442571 3.657863 9.000000 21 364.413168
1.444528 -1.570343 3.206380 27.000000 19 364.413171
2.790281 -3.033330 5.009397 13.000000 17 364.413173
0.169559 -0.213563 4.541793 100.000000 30 364.413181
0.313678 -0.375619 4.513854 99.000000 29 364.413184
0.683264 -0.762031 3.975312 92.000000 26 364.413186
0.937983 -1.023594 3.829712 91.000000 24 364.413189
1.124130 -1.225886 3.501401 8.000000 22 364.413191
1.351582 -1.473424 3.340646 7.000000 20 364.413194
2.627971 -2.864899 5.220775 9.000000 18 364.413197
2.372670 -2.586583 3.883364 6.000000 16 364.413199
2.347785 -2.546041 3.483166 8.000000 15 364.413157
2.234650 -2.423357 2.739416 11.000000 13 364.413159
2.146875 -2.328984 2.161335 15.000000 11 364.413162
2.096851 -2.274720 1.705299 20.000000 9 364.413164
2.029977 -2.202945 1.298630 25.000000 7 364.413167
1.976391 -2.145544 0.946833 23.000000 5 364.413170
1.930318 -2.095528 0.632392 28.000000 3 364.413172
1.885609 -2.047710 0.342363 30.000000 1 364.413175
2.279412 -2.479698 3.079984 10.000000 14 364.413182
2.176422 -2.367663 2.425253 14.000000 12 364.413185
2.104426 -2.290142 1.912552 18.000000 10 364.413188
2.061296 -2.243210 1.495769 25.000000 8 364.413190
1.993873 -2.170597 1.114377 27.000000 6 364.413193
1.936464 -2.108838 0.781248 29.000000 4 364.413195
1.902054 -2.072091 0.484016 28.000000 2 364.413198
1.871116 -2.039101 0.205314 30.000000 0 364.413200
0.061471 -0.111490 13.048777 5.000000 31 364.413211
0.456921 -0.525218 4.425999 101.000000 28 364.413214
0.590966 -0.680892 4.358013 91.000000 27 364.413216
0.810686 -0.897677 3.911649 95.000000 25 364.413219
1.046706 -1.146259 3.716457 14.000000 23 364.413221
1.296102 -1.418892 3.587644 8.000000 21 364.413224
1.442833 -1.579531 3.214646 27.000000 19 364.413226
2.775351 -3.038317 5.001723 13.000000 17 364.413229
0.168850 -0.214124 4.541793 100.000000 30 364.413237
0.312431 -0.376657 4.513854 99.000000 29 364.413239
0.680733 -0.764293 3.975312 93.000000 26 364.413242
0.934583 -1.026699 3.829712 89.000000 24 364.413244
1.115445 -1.224972 3.487899 8.000000 22 364.413247
1.348187 -1.480062 3.344912 5.000000 20 364.413250
2.613896 -2.869599 5.212797 9.000000 18 364.413252
2.338962 -2.566872 3.842938 7.000000 16 364.413255
2.317207 -2.530550 3.451625 8.000000 15 364.413212
2.205146 -2.408174 2.714314 11.000000 13 364.413215
2.121792 -2.317958 2.144887 15.000000 11 364.413217
2.070950 -2.262419 1.691390 21.000000 9 364.413220
2.003880 -2.189147 1.287392 26.000000 7 364.413223
1.949834 -2.130851 0.938378 24.000000 5 364.413225
1.903099 -2.080506 0.626796 28.000000 3 364.413228
1.861647 -2.035903 0.340132 30.000000 1 364.413230
2.248083 -2.462817 3.050060 11.000000 14 364.413238
2.149069 -2.354349 2.404651 14.000000 12 364.413241
2.079381 -2.278003 1.897358 18.000000 10 364.413243
2.035487 -2.229921 1.483181 25.000000 8 364.413246
1.970748 -2.159755 1.106164 27.000000 6 364.413248
1.913082 -2.097292 0.775386 29.000000 4 364.413251
1.881825 -2.063750 0.481257 29.000000 2 364.413253
1.850881 -2.030525 0.204507 30.000000 0 364.413256
0.061180 -0.111849 13.068775 5.000000 31 364.413267
0.455177 -0.526730 4.425999 101.000000 28 364.413269
0.588704 -0.682848 4.358013 91.000000 27 364.413272
0.807705 -0.900360 3.911649 94.000000 25 364.413274
1.027148 -1.132359 3.661226 11.000000 23 364.413277
1.288170 -1.419634 3.578867 5.000000 21 364.413279
1.448933 -1.596810 3.239444 27.000000 19 364.413282
2.765260 -3.047504 5.001723 13.000000 17 364.413284
0.168101 -0.214712 4.541793 100.000000 30 364.413292
0.311114 -0.377745 4.513854 99.000000 29 364.413295
0.678061 -0.766665 3.975312 94.000000 26 364.413297
0.930994 -1.029955 3.829712 91.000000 24 364.413300
1.112838 -1.230279 3.492399 8.000000 22 364.413302
1.346771 -1.488392 3.353444 4.000000 20 364.413305
2.598299 -2.871546 5.200828 9.000000 18 364.413308
2.304967 -2.547369 3.802511 7.000000 16 364.413310
2.287206 -2.514477 3.420084 8.000000 15 364.413268
2.176193 -2.392436 2.689212 11.000000 13 364.413270
2.094402 -2.303325 2.125696 15.000000 11 364.413273
2.045554 -2.249607 1.677482 22.000000 9 364.413276
1.977516 -2.175546 1.276154 27.000000 7 364.413278
1.923027 -2.116341 0.929923 25.000000 5 364.413281
1.879672 -2.068628 0.622133 29.000000 3 364.413283
1.838143 -2.023634 0.337901 30.000000 1 364.413286
2.217328 -2.445361 3.020137 11.000000 14 364.413294
2.122244 -2.340502 2.384049 15.000000 12 364.413296
2.054044 -2.266082 1.882163 18.000000 10 364.413299
2.006355 -2.213473 1.468494 26.000000 8 364.413301
1.944171 -2.145623 1.096308 28.000000 6 364.413304
1.889434 -2.085945 0.769525 30.000000 4 364.413306
1.857990 -2.051951 0.477808 29.000000 2 364.413309
1.827019 -2.018455 0.203500 30.000000 0 364.413311
0.060397 -0.111282 12.968780 5.000000 31 364.413322
0.453336 -0.528316 4.425999 101.000000 28 364.413325
0.586979 -0.685673 4.362908 91.000000 27 364.413327
0.804557 -0.903174 3.911649 93.000000 25 364.413330
1.007499 -1.118518 3.605996 8.000000 23 364.413332
1.273584 -1.413443 3.552535 5.000000 21 364.413335
1.471605 -1.633217 3.301438 29.000000 19 364.413337
2.743876 -3.045229 4.982538 13.000000 17 364.413340
0.167528 -0.215527 4.546785 100.000000 30 364.413348
0.309794 -0.378829 4.513854 99.000000 29 364.413350
0.675381 -0.769027 3.975312 93.000000 26 364.413353
0.927393 -1.033199 3.829712 91.000000 24 364.413355
1.107081 -1.232536 3.487899 16.000000 22 364.413358
1.345054 -1.496964 3.361975 4.000000 20 364.413361
2.586245 -2.878357 5.196838 10.000000 18 364.413363
2.273403 -2.530182 3.765759 8.000000 16 364.413366
2.259291 -2.501273 3.392048 8.000000 15 364.413323
2.149562 -2.379795 2.667248 11.000000 13 364.413326
2.069536 -2.292001 2.109248 15.000000 11 364.413328
2.016906 -2.233717 1.661256 23.000000 9 364.413331
1.951273 -2.161787 1.264916 27.000000 7 364.413334
1.899559 -2.105232 0.922877 26.000000 5 364.413336
1.855986 -2.056941 0.617470 29.000000 3 364.413339
1.817726 -2.015246 0.336116 31.000000 1 364.413341
2.188789 -2.430884 2.993538 11.000000 14 364.413349
2.095129 -2.326869 2.363447 15.000000 12 364.413352
2.028816 -2.254012 1.866969 19.000000 10 364.413354
1.980399 -2.200224 1.455906 26.000000 8 364.413357
1.917718 -2.131333 1.086452 28.000000 6 364.413359
1.865888 -2.074459 0.763663 31.000000 4 364.413362
1.837572 -2.043694 0.475048 30.000000 2 364.413364
1.806603 -2.009957 0.202694 29.000000 0 364.413367
0.451489 -0.529895 4.425999 101.000000 28 364.413380
0.584582 -0.687717 4.362908 92.000000 27 364.413383
0.801400 -0.905977 3.911649 94.000000 25 364.413385
1.000984 -1.119115 3.596791 7.000000 23 364.413388
1.262252 -1.410738 3.534980 5.000000 21 364.413390
1.535321 -1.715938 3.454357 31.000000 19 364.413393
0.166774 -0.216110 4.546785 100.000000 30 364.413403
0.308805 -0.380323 4.518826 99.000000 29 364.413406
0.672692 -0.771380 3.975312 92.000000 26 364.413408
0.923781 -1.036430 3.829712 89.000000 24 364.413411
1.102772 -1.236393 3.487899 27.000000 22 364.413414
1.343293 -1.505542 3.370507 4.000000 20 364.413416
2.572169 -2.882869 5.188859 12.000000 18 364.413419
2.239730 -2.510276 3.725333 7.000000 16 364.413421
2.231497 -2.487906 3.364012 9.000000 15 364.413379
2.120448 -2.364100 2.642145 12.000000 13 364.413381
2.044774 -2.280531 2.092799 16.000000 11 364.413384
1.991351 -2.220953 1.647348 23.000000 9 364.413387
1.928244 -2.151324 1.255550 28.000000 7 364.413389
1.872991 -2.090413 0.914422 26.000000 5 364.413392
1.835682 -2.048773 0.613739 30.000000 3 364.413394
1.794067 -2.003031 0.333885 28.000000 1 364.413397
2.157888 -2.413455 2.963614 11.000000 14 364.413405
2.070829 -2.316089 2.345788 16.000000 12 364.413407
2.003698 -2.241793 1.851774 20.000000 10 364.413410
1.954559 -2.186820 1.443318 27.000000 8 364.413412
1.894534 -2.120406 1.078238 30.000000 6 364.413415
1.842446 -2.062833 0.757802 31.000000 4 364.413417
1.813936 -2.031626 0.471599 31.000000 2 364.413420
1.789596 -2.005069 0.202089 29.000000 0 364.413422
0.060102 -0.112679 13.093775 5.000000 31 364.413433
0.449636 -0.531467 4.425999 101.000000 28 364.413436
0.582178 -0.689754 4.362908 92.000000 27 364.413438
0.798232 -0.908769 3.911649 94.000000 25 364.413441
0.997071 -1.122603 3.596791 7.000000 23 364.413443
1.247773 -1.404390 3.508648 5.000000 21 364.413446
1.596607 -1.797019 3.603143 37.000000 19 364.413448
2.277521 -2.563415 4.180616 11.000000 17 364.413451
0.166019 -0.216691 4.546785 99.000000 30 364.413459
0.307476 -0.381399 4.518826 99.000000 29 364.413461
0.669996 -0.773723 3.975312 93.000000 26 364.413464
0.920157 -1.039648 3.829712 91.000000 24 364.413466
1.097006 -1.238605 3.483398 29.000000 22 364.413469
1.341488 -1.514126 3.379039 5.000000 20 364.413472
2.558093 -2.887318 5.180881 13.000000 18 364.413474
2.208472 -2.492704 3.688581 7.000000 16 364.413477
2.201452 -2.471712 3.332471 8.000000 15 364.413434
2.091470 -2.348232 2.617043 12.000000 13 364.413437
2.020118 -2.268917 2.076350 16.000000 11 364.413440
1.965911 -2.208037 1.633440 24.000000 9 364.413442
1.902230 -2.137264 1.244312 28.000000 7 364.413445
1.849738 -2.079018 0.907376 26.000000 5 364.413447
1.812193 -2.036819 0.609076 31.000000 3 364.413450
1.773826 -1.994396 0.332100 28.000000 1 364.413452
2.129616 -2.398633 2.937016 11.000000 14 364.413460
2.043947 -2.302145 2.325186 16.000000 12 364.413463
1.978689 -2.229427 1.836579 21.000000 10 364.413465
1.928838 -2.173263 1.430729 28.000000 8 364.413468
1.868316 -2.105812 1.068382 30.000000 6 364.413470
1.819109 -2.051070 0.751940 32.000000 4 364.413473
1.790407 -2.019418 0.468150 31.000000 2 364.413475
1.769332 -1.996349 0.201283 31.000000 0 364.413478
0.059766 -0.113006 13.108773 6.000000 31 364.413489
0.447779 -0.533034 4.425999 101.000000 28 364.413491
0.579767 -0.691782 4.362908 92.000000 27 364.413494
0.796037 -0.912676 3.916420 95.000000 25 364.413496
0.995731 -1.129007 3.605996 8.000000 23 364.413499
1.236523 -1.401551 3.491094 6.000000 21 364.413501
1.638729 -1.857446 3.710600 57.000000 19 364.413504
2.264317 -2.566542 4.172943 11.000000 17 364.413507
0.165262 -0.217269 4.546785 99.000000 30 364.413514
0.306143 -0.382470 4.518826 99.000000 29 364.413517
0.667291 -0.776057 3.975312 93.000000 26 364.413519
0.916523 -1.042854 3.829712 91.000000 24 364.413522
1.092675 -1.242426 3.483398 31.000000 22 364.413525
1.341363 -1.524674 3.391837 5.000000 20 364.413527
2.542026 -2.889441 5.168912 13.000000 18 364.413530
2.177365 -2.474944 3.651829 8.000000 16 364.413532
2.171547 -2.455339 3.300930 9.000000 15 364.413490
2.065207 -2.335106 2.595078 12.000000 13 364.413492
1.995568 -2.257159 2.059901 16.000000 11 364.413495
1.940585 -2.194972 1.619532 25.000000 9 364.413498
1.879408 -2.126522 1.234947 29.000000 7 364.413500
1.829765 -2.071081 0.901739 27.000000 5 364.413503
1.792063 -2.028406 0.605346 31.000000 3 364.413505
1.753667 -1.985645 0.330315 30.000000 1 364.413508
2.101474 -2.383642 2.910417 12.000000 14 364.413516
2.019861 -2.291074 2.307527 17.000000 12 364.413518
1.953792 -2.216914 1.821385 22.000000 10 364.413521
1.906236 -2.162958 1.420239 28.000000 8 364.413523
1.845345 -2.094603 1.060169 30.000000 6 364.413526
1.799088 -2.042816 0.747251 32.000000 4 364.413528
1.770257 -2.010787 0.465391 32.000000 2 364.413531
1.749150 -1.987511 0.200477 31.000000 0 364.413534
0.058914 -0.112272 12.988778 6.000000 31 364.413544
0.445915 -0.534594 4.425999 99.000000 28 364.413547
0.577349 -0.693801 4.362908 92.000000 27 364.413549
0.792846 -0.915449 3.916420 95.000000 25 364.413552
1.003368 -1.145703 3.647419 10.000000 23 364.413554
1.220573 -1.393244 3.460373 7.000000 21 364.413557
1.650778 -1.884321 3.751930 77.000000 19 364.413560
2.238444 -2.555138 4.142247 3.000000 17 364.413562
0.164502 -0.217845 4.546785 99.000000 30 364.413570
0.304806 -0.383536 4.518826 99.000000 29 364.413572
0.664578 -0.778382 3.975312 93.000000 26 364.413575
0.912877 -1.046046 3.829712 91.000000 24 364.413578
1.084035 -1.241312 3.469896 32.000000 22 364.413580
1.341180 -1.535239 3.404635 6.000000 20 364.413583
2.527959 -2.893757 5.160933 12.000000 18 364.413585
2.148639 -2.459551 3.618753 9.000000 16 364.413588
2.141783 -2.438788 3.269389 8.000000 15 364.413545
2.036494 -2.318901 2.569976 12.000000 13 364.413548
1.971125 -2.245257 2.043453 17.000000 11 364.413551
1.915375 -2.181757 1.605623 25.000000 9 364.413553
1.856684 -2.115648 1.225582 29.000000 7 364.413556
1.806706 -2.059424 0.894693 27.000000 5 364.413558
1.772014 -2.019879 0.601615 31.000000 3 364.413561
1.733591 -1.976778 0.328530 29.000000 1 364.413563
2.073462 -2.368484 2.883818 11.000000 14 364.413571
1.995876 -2.279864 2.289868 17.000000 12 364.413574
1.929006 -2.204255 1.806190 23.000000 10 364.413576
1.880741 -2.149106 1.407651 28.000000 8 364.413579
1.822475 -2.083260 1.051955 30.000000 6 364.413581
1.775948 -2.030789 0.741389 32.000000 4 364.413584
1.746931 -1.998312 0.461942 32.000000 2 364.413586
1.729052 -1.978557 0.199671 32.000000 0 364.413589
0.058597 -0.112634 13.008778 6.000000 31 364.413600
0.444046 -0.536147 4.425999 99.000000 28 364.413602
0.574923 -0.695812 4.362908 92.000000 27 364.413605
0.789646 -0.918211 3.916420 94.000000 25 364.413607
1.017310 -1.169838 3.711854 13.000000 23 364.413610
1.217274 -1.399304 3.464762 11.000000 21 364.413612
1.649731 -1.896442 3.764328 82.000000 19 364.413615
2.210575 -2.541167 4.107715 4.000000 17 364.413618
0.163741 -0.218418 4.546785 99.000000 30 364.413625
0.303465 -0.384598 4.518826 99.000000 29 364.413628
0.661857 -0.780697 3.975312 93.000000 26 364.413630
0.910350 -1.050531 3.834405 91.000000 24 364.413633
1.081122 -1.246734 3.474396 25.000000 22 364.413636
1.342649 -1.547791 3.421699 7.000000 20 364.413638
2.515867 -2.900287 5.156943 12.000000 18 364.413641
2.117826 -2.441427 3.582001 10.000000 16 364.413643
2.112163 -2.422059 3.237848 9.000000 15 364.413601
2.010477 -2.305457 2.548012 12.000000 13 364.413604
1.949537 -2.236364 2.029745 17.000000 11 364.413606
1.890280 -2.168393 1.591715 26.000000 9 364.413609
1.834059 -2.104641 1.216217 29.000000 7 364.413611
1.786902 -2.051249 0.889056 28.000000 5 364.413614
1.748819 -2.007532 0.596952 32.000000 3 364.413616
1.713598 -1.967795 0.326745 29.000000 1 364.413619
2.045582 -2.353161 2.857219 12.000000 14 364.413627
1.971995 -2.268513 2.272209 17.000000 12 364.413629
1.904333 -2.191449 1.790996 23.000000 10 364.413632
1.858343 -2.138530 1.397161 29.000000 8 364.413634
1.799708 -2.071783 1.043742 30.000000 6 364.413637
1.756101 -2.022296 0.736700 33.000000 4 364.413639
1.726960 -1.989439 0.459183 33.000000 2 364.413642
1.709037 -1.969487 0.198865 32.000000 0 364.413645
0.058129 -0.112680 12.988778 6.000000 31 364.413655
0.442665 -0.538294 4.430939 101.000000 28 364.413658
0.572491 -0.697815 4.362908 90.000000 27 364.413660
0.786436 -0.920961 3.916420 94.000000 25 364.413663
1.013220 -1.173382 3.711854 13.000000 23 364.413665
1.212382 -1.403544 3.464762 9.000000 21 364.413668
1.646780 -1.906448 3.772594 89.000000 19 364.413671
2.176543 -2.519755 4.061671 4.000000 17 364.413673
0.162977 -0.218988 4.546785 98.000000 30 364.413681
0.302121 -0.385655 4.518826 99.000000 29 364.413683
0.659127 -0.783002 3.975312 93.000000 26 364.413686
0.906677 -1.053702 3.834405 91.000000 24 364.413689
1.076763 -1.250500 3.474396 17.000000 22 364.413691
1.340642 -1.556421 3.430230 7.000000 20 364.413694
2.507695 -2.911335 5.160933 14.000000 18 364.413696
2.087166 -2.423118 3.545249 10.000000 16 364.413699
2.080350 -2.402457 3.202802 9.000000 15 364.413656
1.987127 -2.294804 2.529185 11.000000 13 364.413659
1.925299 -2.224187 2.013296 17.000000 11 364.413662
1.865303 -2.154880 1.577807 26.000000 9 364.413664
1.811534 -2.093502 1.206852 29.000000 7 364.413667
1.764038 -2.039333 0.882010 28.000000 5 364.413669
1.728946 -1.998764 0.593222 32.000000 3 364.413672
1.693690 -1.958696 0.324961 32.000000 1 364.413674
2.020275 -2.340499 2.833945 11.000000 14 364.413682
1.950859 -2.260084 2.257493 18.000000 12 364.413685
1.879773 -2.178499 1.775801 23.000000 10 364.413687
1.836042 -2.127822 1.386670 29.000000 8 364.413690
1.780127 -2.063749 1.037171 31.000000 6 364.413692
1.733160 -2.010008 0.730838 33.000000 4 364.413695
1.707072 -1.980451 0.456423 33.000000 2 364.413698
1.689107 -1.960302 0.198058 32.000000 0 364.413700
0.057772 -0.112961 12.998778 7.000000 31 364.413711
0.440784 -0.539836 4.430939 101.000000 28 364.413713
0.570051 -0.699809 4.362908 90.000000 27 364.413716
0.783216 -0.923701 3.916420 94.000000 25 364.413718
0.984957 -1.148732 3.624406 7.000000 23 364.413721
1.205916 -1.405949 3.460373 7.000000 21 364.413724
1.641948 -1.914320 3.776727 91.000000 19 364.413726
2.144775 -2.500569 4.019464 5.000000 17 364.413729
0.162212 -0.219555 4.546785 100.000000 30 364.413736
0.300773 -0.386707 4.518826 99.000000 29 364.413739
0.656390 -0.785298 3.975312 93.000000 26 364.413742
0.902994 -1.056861 3.834405 89.000000 24 364.413744
1.086543 -1.270803 3.519405 16.000000 22 364.413747
1.345371 -1.572983 3.455826 8.000000 20 364.413749
2.497518 -2.920071 5.160933 14.000000 18 364.413752
2.069880 -2.420083 3.530549 11.000000 16 364.413754
2.051025 -2.385367 3.171262 10.000000 15 364.413712
1.961339 -2.281064 2.507221 13.000000 13 364.413715
1.901170 -2.211868 1.996848 18.000000 11 364.413717
1.840443 -2.141220 1.563899 26.000000 9 364.413720
1.789109 -2.082231 1.197486 30.000000 7 364.413722
1.744406 -2.030921 0.876374 29.000000 5 364.413725
1.709156 -1.989881 0.589491 32.000000 3 364.413727
1.673865 -1.949482 0.323176 32.000000 1 364.413730
1.992651 -2.324854 2.807346 11.000000 14 364.413738
1.927175 -2.248466 2.239834 19.000000 12 364.413740
1.855327 -2.165404 1.760607 24.000000 10 364.413743
1.813839 -2.116986 1.376180 30.000000 8 364.413745
1.757552 -2.052016 1.028958 31.000000 6 364.413748
1.713488 -2.001277 0.726149 33.000000 4 364.413750
1.687268 -1.971349 0.453664 34.000000 2 364.413753
1.669263 -1.951001 0.197252 32.000000 0 364.413756
0.057377 -0.113162 12.998778 7.000000 31 364.413766
0.438897 -0.541371 4.430939 101.000000 28 364.413769
0.567605 -0.701795 4.362908 92.000000 27 364.413771
0.779987 -0.926429 3.916420 93.000000 25 364.413774
0.982208 -1.153651 3.629009 7.000000 23 364.413776
1.202554 -1.411974 3.464762 6.000000 21 364.413779
1.635255 -1.920040 3.776727 91.000000 19 364.413781
2.115247 -2.483634 3.981095 6.000000 17 364.413784
0.161445 -0.220120 4.546785 100.000000 30 364.413792
0.299421 -0.387754 4.518826 98.000000 29 364.413794
0.653645 -0.787585 3.975312 93.000000 26 364.413797
0.899299 -1.060006 3.834405 89.000000 24 364.413799
1.099014 -1.294510 3.573415 11.000000 22 364.413802
1.346626 -1.585621 3.472890 8.000000 20 364.413804
2.489260 -2.931069 5.164923 14.000000 18 364.413807
2.985315 -3.515172 5.077793 4.000000 16 364.413810
2.021846 -2.368102 3.139721 10.000000 15 364.413767
1.938198 -2.270133 2.488394 14.000000 13 364.413770
1.879865 -2.202588 1.983140 18.000000 11 364.413772
1.818578 -2.130782 1.552309 26.000000 9 364.413775
1.769794 -2.074357 1.189994 30.000000 7 364.413778
1.721741 -2.018748 0.869328 30.000000 5 364.413780
1.689449 -1.980885 0.585761 33.000000 3 364.413783
1.654126 -1.940155 0.321391 33.000000 1 364.413785
1.967582 -2.311888 2.784072 11.000000 14 364.413793
1.903597 -2.236711 2.222175 19.000000 12 364.413796
1.830995 -2.152165 1.745412 25.000000 10 364.413798
1.791734 -2.106020 1.365690 30.000000 8 364.413801
1.738141 -2.043750 1.022387 32.000000 6 364.413803
1.693899 -1.992433 0.721460 34.000000 4 364.413806
1.667548 -1.962132 0.450905 34.000000 2 364.413808
1.649504 -1.941587 0.196446 32.000000 0 364.413811
0.056982 -0.113362 12.998778 7.000000 31 364.413822
0.437004 -0.542900 4.430939 101.000000 28 364.413824
0.565152 -0.703772 4.362908 90.000000 27 364.413827
0.776749 -0.929146 3.916420 93.000000 25 364.413829
0.968085 -1.145136 3.592188 7.000000 23 364.413832
1.199165 -1.417992 3.469150 9.000000 21 364.413834
1.630360 -1.927886 3.780860 92.000000 19 364.413837
2.085863 -2.466523 3.942726 6.000000 17 364.413839
0.160675 -0.220682 4.546785 99.000000 30 364.413847
0.298066 -0.388797 4.518826 98.000000 29 364.413850
0.650892 -0.789862 3.975312 93.000000 26 364.413852
0.895593 -1.063139 3.834405 89.000000 24 364.413855
1.091681 -1.295008 3.564413 10.000000 22 364.413857
1.334357 -1.582337 3.455826 9.000000 20 364.413860
2.479014 -2.939740 5.164923 14.000000 18 364.413863
2.986139 -3.541122 5.099844 3.000000 16 364.413865
1.992812 -2.350663 3.108180 9.000000 15 364.413823
1.915158 -2.259068 2.469568 14.000000 13 364.413825
1.855945 -2.189996 1.966691 18.000000 11 364.413828
1.793943 -2.116839 1.538401 26.000000 9 364.413830
1.747559 -2.062835 1.180629 31.000000 7 364.413833
1.702282 -2.010102 0.863691 30.000000 5 364.413836
1.669826 -1.971776 0.582030 33.000000 3 364.413838
1.634473 -1.930713 0.319606 33.000000 1 364.413841
1.942627 -2.298777 2.760798 12.000000 14 364.413848
1.882733 -2.227906 2.207459 20.000000 12 364.413851
1.809561 -2.142076 1.732750 25.000000 10 364.413854
1.769727 -2.094927 1.355199 31.000000 8 364.413856
1.718808 -2.035372 1.015816 32.000000 6 364.413859
1.677528 -1.987191 0.717943 34.000000 4 364.413861
1.647914 -1.952803 0.448146 34.000000 2 364.413864
1.633052 -1.935877 0.195842 33.000000 0 364.413866
0.056586 -0.113560 12.998778 8.000000 31 364.413877
0.435106 -0.544422 4.430939 101.000000 28 364.413880
0.562692 -0.705740 4.362908 92.000000 27 364.413882
0.773501 -0.931852 3.916420 95.000000 25 364.413885
0.962825 -1.147012 3.587586 11.000000 23 364.413887
1.195749 -1.424004 3.473539 13.000000 21 364.413890
1.623621 -1.933565 3.780860 92.000000 19 364.413892
2.056625 -2.449237 3.904356 7.000000 17 364.413895
0.159942 -0.221214 4.546785 99.000000 30 364.413903
0.296775 -0.389783 4.518826 98.000000 29 364.413905
0.648269 -0.792016 3.975312 93.000000 26 364.413908
0.893170 -1.067426 3.839097 89.000000 24 364.413910
1.089950 -1.302151 3.573415 9.000000 22 364.413913
1.303711 -1.556991 3.391837 11.000000 20 364.413916
2.468737 -2.948375 5.164923 13.000000 18 364.413918
1.966221 -2.335778 3.080143 9.000000 15 364.413878
1.892219 -2.247870 2.450741 14.000000 13 364.413881
1.834828 -2.180464 1.952984 19.000000 11 364.413883
1.772281 -2.106139 1.526810 27.000000 9 364.413886
1.728769 -2.054431 1.173137 30.000000 7 364.413889
1.683255 -2.001051 0.858054 31.000000 5 364.413891
1.650287 -1.962554 0.578300 33.000000 3 364.413894
1.614906 -1.921158 0.317821 34.000000 1 364.413896
1.917788 -2.285519 2.737525 12.000000 14 364.413904
1.859356 -2.215886 2.189800 20.000000 12 364.413907
1.785820 -2.128249 1.717555 26.000000 10 364.413909
1.748184 -2.083401 1.344709 30.000000 8 364.413912
1.699910 -2.026588 1.009246 32.000000 6 364.413914
1.658436 -1.977845 0.713254 35.000000 4 364.413917
1.628704 -1.943075 0.445386 34.000000 2 364.413919
1.613789 -1.925964 0.195035 33.000000 0 364.413922
0.056209 -0.113747 12.998778 8.000000 31 364.413933
0.433299 -0.545862 4.430939 101.000000 28 364.413935
0.560349 -0.707602 4.362908 92.000000 27 364.413938
0.770406 -0.934412 3.916420 95.000000 25 364.413940
0.949008 -1.138194 3.550766 9.000000 23 364.413943
1.194089 -1.431641 3.482316 14.000000 21 364.413945
1.617200 -1.938938 3.780860 92.000000 19 364.413948
2.030011 -2.433886 3.869824 6.000000 17 364.413950
0.159337 -0.222007 4.551776 99.000000 30 364.413958
0.295412 -0.390817 4.518826 98.000000 29 364.413961
0.645501 -0.794274 3.975312 93.000000 26 364.413963
0.889439 -1.070538 3.839097 91.000000 24 364.413966
1.081222 -1.300923 3.559912 7.000000 22 364.413968
1.274926 -1.533456 3.332114 15.000000 20 364.413971
2.458431 -2.956975 5.164923 13.000000 18 364.413974
1.955697 -2.352293 3.394568 10.000000 16 364.413976
1.940164 -2.320399 3.052107 10.000000 15 364.413934
1.869772 -2.236214 2.431914 15.000000 13 364.413936
1.811497 -2.167287 1.936535 20.000000 11 364.413939
1.751081 -2.095009 1.515220 27.000000 9 364.413942
1.706725 -2.042665 1.163772 30.000000 7 364.413944
1.660883 -1.988505 0.851008 31.000000 5 364.413947
1.630833 -1.953220 0.574569 33.000000 3 364.413949
1.595425 -1.911490 0.316036 34.000000 1 364.413952
1.893066 -2.272116 2.714250 13.000000 14 364.413960
1.836085 -2.203730 2.172141 21.000000 12 364.413962
1.764212 -2.118217 1.704893 27.000000 10 364.413965
1.728918 -2.075845 1.336317 31.000000 8 364.413967
1.680384 -2.018288 1.002675 32.000000 6 364.413970
1.638738 -1.968966 0.708564 35.000000 4 364.413972
1.608902 -1.933804 0.442627 34.000000 2 364.413975
1.594275 -1.916224 0.194229 33.000000 0 364.413977
0.055828 -0.114032 13.008778 10.000000 31 364.413988
0.431295 -0.547446 4.430939 101.000000 28 364.413991
0.557751 -0.709651 4.362908 92.000000 27 364.413993
0.767922 -0.938385 3.921192 95.000000 25 364.413996
0.944830 -1.141665 3.550766 9.000000 23 364.413998
1.190362 -1.437854 3.486705 16.000000 21 364.414001
1.610083 -1.944853 3.780860 91.000000 19 364.414003
2.002677 -2.419085 3.835291 6.000000 17 364.414006
0.158561 -0.222562 4.551776 99.000000 30 364.414014
0.294046 -0.391846 4.518826 98.000000 29 364.414016
0.642724 -0.796522 3.975312 94.000000 26 364.414019
0.885697 -1.073636 3.839097 91.000000 24 364.414021
1.075288 -1.303010 3.555411 7.000000 22 364.414024
1.264584 -1.531863 3.319316 14.000000 20 364.414027
2.448094 -2.965539 5.164923 13.000000 18 364.414029
1.941410 -2.350924 3.383542 10.000000 16 364.414032
1.913427 -2.305540 3.024071 10.000000 15 364.413989
1.849133 -2.228074 2.416225 15.000000 13 364.413992
1.787523 -2.154603 1.920086 21.000000 11 364.413994
1.732076 -2.087774 1.505948 28.000000 9 364.413997
1.687744 -2.034339 1.156280 32.000000 7 364.414000
1.641682 -1.979519 0.845371 31.000000 5 364.414002
1.614599 -1.947555 0.571772 34.000000 3 364.414005
1.579210 -1.905545 0.314698 34.000000 1 364.414007
1.870841 -2.261446 2.694301 13.000000 14 364.414015
1.812923 -2.191439 2.154482 22.000000 12 364.414018
1.743438 -2.107446 1.692231 27.000000 10 364.414020
1.707560 -2.064081 1.325827 32.000000 8 364.414023
1.661644 -2.009292 0.996104 33.000000 6 364.414025
1.619812 -1.959405 0.703875 35.000000 4 364.414028
1.593017 -1.927677 0.440558 35.000000 2 364.414030
1.574849 -1.906370 0.193423 32.000000 0 364.414033
0.055485 -0.114296 13.018777 10.000000 31 364.414044
0.429477 -0.548874 4.430939 101.000000 28 364.414046
0.555395 -0.711497 4.362908 92.000000 27 364.414049
0.764806 -0.940927 3.921192 94.000000 25 364.414051
0.944761 -1.149320 3.564573 9.000000 23 364.414054
1.187109 -1.443644 3.491094 18.000000 21 364.414056
1.603624 -1.950181 3.780860 94.000000 19 364.414059
1.976318 -2.403426 3.800759 6.000000 17 364.414062
0.157783 -0.223114 4.551776 99.000000 30 364.414069
0.292677 -0.392870 4.518826 98.000000 29 364.414072
0.639940 -0.798761 3.975312 94.000000 26 364.414074
0.881944 -1.076721 3.839097 89.000000 24 364.414077
1.040590 -1.269515 3.456393 9.000000 22 364.414080
1.259498 -1.536048 3.319316 3.000000 20 364.414082
2.438246 -2.973640 5.164923 13.000000 18 364.414085
1.915996 -2.336714 3.354141 10.000000 16 364.414087
1.889892 -2.292610 2.999539 9.000000 15 364.414045
1.826877 -2.216171 2.397398 15.000000 13 364.414047
1.764413 -2.141157 1.903638 22.000000 11 364.414050
1.711057 -2.076412 1.494358 29.000000 9 364.414053
1.668843 -2.025904 1.148787 33.000000 7 364.414055
1.622564 -1.970425 0.839734 31.000000 5 364.414058
1.595642 -1.937731 0.568041 34.000000 3 364.414060
1.560222 -1.895391 0.312913 34.000000 1 364.414063
1.849106 -2.250326 2.674352 13.000000 14 364.414071
1.790249 -2.178702 2.136823 23.000000 12 364.414073
1.722388 -2.096862 1.679569 27.000000 10 364.414076
1.688822 -2.056001 1.317435 32.000000 8 364.414078
1.642632 -2.000481 0.989533 33.000000 6 364.414081
1.603711 -1.953776 0.700358 35.000000 4 364.414083
1.573713 -1.917912 0.437798 35.000000 2 364.414086
1.558680 -1.900267 0.192819 32.000000 0 364.414088
0.055157 -0.114648 13.038776 10.000000 31 364.414099
0.427559 -0.550370 4.430939 101.000000 28 364.414102
0.552908 -0.713431 4.362908 92.000000 27 364.414104
0.761517 -0.943591 3.921192 94.000000 25 364.414107
0.941978 -1.154124 3.569176 9.000000 23 364.414109
1.182062 -1.447779 3.491094 30.000000 21 364.414112
1.596807 -1.955767 3.780860 91.000000 19 364.414114
1.949669 -2.387960 3.766226 6.000000 17 364.414117
0.157004 -0.223663 4.551776 98.000000 30 364.414125
0.291304 -0.393889 4.518826 98.000000 29 364.414127
0.637148 -0.800990 3.975312 94.000000 26 364.414130
0.878180 -1.079793 3.839097 89.000000 24 364.414132
1.034778 -1.271450 3.451892 14.000000 22 364.414135
2.429754 -2.984471 5.168912 10.000000 18 364.414140
1.894985 -2.327613 3.332090 11.000000 16 364.414143
1.866066 -2.279875 2.975007 9.000000 15 364.414100
1.806802 -2.207472 2.381710 16.000000 13 364.414103
1.741041 -2.127886 1.887189 22.000000 11 364.414106
1.692577 -2.068657 1.485086 28.000000 9 364.414108
1.650021 -2.017364 1.141295 33.000000 7 364.414111
1.603530 -1.961221 0.834098 31.000000 5 364.414113
1.576431 -1.928077 0.564311 34.000000 3 364.414116
1.544142 -1.889258 0.311574 34.000000 1 364.414118
1.827076 -2.239406 2.654403 13.000000 14 364.414126
1.767302 -2.166146 2.119164 23.000000 12 364.414129
1.701434 -2.086156 1.666907 27.000000 10 364.414131
1.670161 -2.047815 1.309042 33.000000 8 364.414134
1.623703 -1.991562 0.982962 34.000000 6 364.414136
1.584598 -1.944291 0.695669 35.000000 4 364.414139
1.557625 -1.911876 0.435729 35.000000 2 364.414141
1.539418 -1.890202 0.192012 33.000000 0 364.414144
0.054756 -0.114840 13.038776 11.000000 31 364.414155
0.425635 -0.551859 4.430939 101.000000 28 364.414157
0.550414 -0.715357 4.362908 92.000000 27 364.414160
0.758219 -0.946243 3.921192 95.000000 25 364.414162
0.939174 -1.158923 3.573778 10.000000 23 364.414165
1.177001 -1.451896 3.491094 29.000000 21 364.414167
1.589971 -1.961329 3.780860 90.000000 19 364.414170
1.925171 -2.374828 3.735531 8.000000 17 364.414173
0.156222 -0.224210 4.551776 98.000000 30 364.414180
0.289927 -0.394903 4.518826 98.000000 29 364.414183
0.634348 -0.803209 3.975312 94.000000 26 364.414185
0.874405 -1.082852 3.839097 91.000000 24 364.414188
1.028964 -1.273361 3.447391 12.000000 22 364.414191
1.979752 -2.449141 4.243348 4.000000 18 364.414196
1.874061 -2.318395 3.310039 11.000000 16 364.414198
1.842352 -2.267002 2.950475 10.000000 15 364.414156
1.786809 -2.198660 2.366021 16.000000 13 364.414158
1.720420 -2.117723 1.873482 23.000000 11 364.414161
1.674172 -2.060798 1.475814 29.000000 9 364.414164
1.631279 -2.008716 1.133803 33.000000 7 364.414166
1.587603 -1.955633 0.829870 33.000000 5 364.414169
1.560403 -1.922127 0.561513 34.000000 3 364.414171
1.524985 -1.879169 0.309789 35.000000 1 364.414174
1.805144 -2.228360 2.634454 13.000000 14 364.414182
1.744464 -2.153457 2.101505 23.000000 12 364.414184
1.680576 -2.075331 1.654245 27.000000 10 364.414187
1.651578 -2.039525 1.300650 33.000000 8 364.414189
1.604856 -1.982536 0.976392 35.000000 6 364.414192
1.568629 -1.938475 0.692152 36.000000 4 364.414194
1.538484 -1.901901 0.432970 36.000000 2 364.414197
1.523387 -1.883909 0.191408 33.000000 0 364.414200
0.054268 -0.114831 13.013778 12.000000 31 364.414210
0.423706 -0.553341 4.430939 101.000000 28 364.414213
0.547914 -0.717274 4.362908 91.000000 27 364.414215
0.754911 -0.948884 3.921192 95.000000 25 364.414218
0.933898 -1.160672 3.569176 12.000000 23 364.414220
1.173428 -1.457862 3.495482 27.000000 21 364.414223
1.583115 -1.966867 3.780860 92.000000 19 364.414226
1.900788 -2.361554 3.704835 9.000000 17 364.414228
0.155275 -0.224515 4.546785 98.000000 30 364.414236
0.288547 -0.395913 4.518826 98.000000 29 364.414238
0.631540 -0.805418 3.975312 94.000000 26 364.414241
0.870620 -1.085897 3.839097 91.000000 24 364.414244
1.024513 -1.276945 3.447391 12.000000 22 364.414246
1.259668 -1.569493 3.361975 3.000000 20 364.414249
1.950439 -2.430181 4.199464 5.000000 18 364.414251
1.851103 -2.306415 3.284313 11.000000 16 364.414254
1.820991 -2.256767 2.929448 10.000000 15 364.414211
1.766901 -2.189736 2.350332 16.000000 13 364.414214
1.697266 -2.104188 1.857033 23.000000 11 364.414217
1.655842 -2.052836 1.466542 30.000000 9 364.414219
1.612617 -1.999963 1.126311 33.000000 7 364.414222
1.568725 -1.946222 0.824233 33.000000 5 364.414224
1.541353 -1.912264 0.557782 34.000000 3 364.414227
1.505918 -1.868969 0.308005 34.000000 1 364.414229
1.780971 -2.214278 2.611180 14.000000 14 364.414237
1.721737 -2.140635 2.083847 24.000000 12 364.414240
1.659814 -2.064385 1.641582 28.000000 10 364.414242
1.633073 -2.031129 1.292258 33.000000 8 364.414245
1.589051 -1.977083 0.971464 35.000000 6 364.414247
1.549676 -1.928782 0.687463 37.000000 4 364.414250
1.522532 -1.895676 0.430900 36.000000 2 364.414252
1.504290 -1.873633 0.190602 33.000000 0 364.414255
0.053815 -0.114899 12.998778 13.000000 31 364.414266
0.421772 -0.554817 4.430939 101.000000 28 364.414268
0.545407 -0.719182 4.362908 90.000000 27 364.414271
0.751594 -0.951513 3.921192 95.000000 25 364.414273
0.928621 -1.162398 3.564573 10.000000 23 364.414276
1.169828 -1.463821 3.499871 25.000000 21 364.414278
1.577996 -1.974579 3.784993 94.000000 19 364.414281
1.876522 -2.348139 3.674140 9.000000 17 364.414284
0.154490 -0.225056 4.546785 98.000000 30 364.414291
0.287163 -0.396918 4.518826 98.000000 29 364.414294
0.629497 -0.808611 3.980152 94.000000 26 364.414296
0.866824 -1.088930 3.839097 91.000000 24 364.414299
1.020050 -1.280513 3.447391 11.000000 22 364.414302
1.254181 -1.573880 3.361975 3.000000 20 364.414304
1.921283 -2.411046 4.155579 5.000000 18 364.414307
1.828252 -2.294303 3.258587 11.000000 16 364.414309
1.799724 -2.246410 2.908421 10.000000 15 364.414267
1.747077 -2.180700 2.334643 17.000000 13 364.414270
1.676841 -2.093781 1.843325 24.000000 11 364.414272
1.634820 -2.041314 1.454952 30.000000 9 364.414275
1.594037 -1.991103 1.118819 34.000000 7 364.414277
1.552929 -1.940450 0.820006 33.000000 5 364.414280
1.525461 -1.906127 0.554984 35.000000 3 364.414282
1.490052 -1.862548 0.306666 32.000000 1 364.414285
1.759249 -2.202973 2.591231 14.000000 14 364.414293
1.699121 -2.127682 2.066188 24.000000 12 364.414295
1.641840 -2.056689 1.631453 29.000000 10 364.414298
1.614647 -2.022629 1.283866 34.000000 8 364.414300
1.570357 -1.967853 0.964893 35.000000 6 364.414303
1.533840 -1.922781 0.683946 37.000000 4 364.414305
1.503556 -1.885491 0.428141 36.000000 2 364.414308
1.488399 -1.867153 0.189997 33.000000 0 364.414311
0.053328 -0.114886 12.973780 14.000000 31 364.414321
0.419833 -0.556286 4.430939 101.000000 28 364.414324
0.542893 -0.721082 4.362908 92.000000 27 364.414326
0.748268 -0.954131 3.921192 95.000000 25 364.414329
0.922130 -1.162572 3.555368 9.000000 23 364.414331
1.164711 -1.467895 3.499871 22.000000 21 364.414334
1.571094 -1.980075 3.784993 94.000000 19 364.414337
1.848387 -2.329561 3.635770 9.000000 17 364.414339
0.153703 -0.225594 4.546785 98.000000 30 364.414347
0.285776 -0.397918 4.518826 99.000000 29 364.414349
0.626671 -0.810803 3.980152 93.000000 26 364.414352
0.863018 -1.091949 3.839097 89.000000 24 364.414355
1.015574 -1.284066 3.447391 8.000000 22 364.414357
1.272953 -1.608928 3.425965 5.000000 20 364.414360
1.897895 -2.398829 4.123663 6.000000 18 364.414362
1.805508 -2.282060 3.232861 11.000000 16 364.414365
1.778551 -2.235933 2.887393 10.000000 15 364.414322
1.727337 -2.171552 2.318954 17.000000 13 364.414325
1.656510 -2.083257 1.829618 24.000000 11 364.414328
1.616655 -2.033138 1.445680 31.000000 9 364.414330
1.575539 -1.982139 1.111327 34.000000 7 364.414333
1.534208 -1.930835 0.814369 34.000000 5 364.414335
1.509630 -1.899902 0.552186 35.000000 3 364.414338
1.474249 -1.856039 0.305327 32.000000 1 364.414340
1.737628 -2.191543 2.571282 14.000000 14 364.414348
1.679127 -2.117763 2.051472 24.000000 12 364.414351
1.621261 -2.045514 1.618791 29.000000 10 364.414353
1.596300 -2.014026 1.275473 33.000000 8 364.414356
1.551748 -1.958516 0.958322 35.000000 6 364.414358
1.515048 -1.912882 0.679256 37.000000 4 364.414361
1.487743 -1.879081 0.426071 35.000000 2 364.414364
1.469470 -1.856667 0.189191 33.000000 0 364.414366
0.052960 -0.115152 12.983778 14.000000 31 364.414377
0.417888 -0.557748 4.430939 100.000000 28 364.414379
0.540373 -0.722972 4.362908 92.000000 27 364.414382
0.744933 -0.956737 3.921192 93.000000 25 364.414384
0.916858 -1.164248 3.550766 9.000000 23 364.414387
1.162545 -1.475716 3.508648 18.000000 21 364.414390
1.564172 -1.985548 3.784993 94.000000 19 364.414392
1.832309 -2.325926 3.620422 10.000000 17 364.414395
0.152915 -0.226129 4.546785 98.000000 30 364.414402
0.284385 -0.398913 4.518826 99.000000 29 364.414405
0.623837 -0.812986 3.980152 93.000000 26 364.414408
0.859201 -1.094955 3.839097 89.000000 24 364.414410
1.011085 -1.287603 3.447391 8.000000 22 364.414413
1.289883 -1.642075 3.485688 10.000000 20 364.414415
1.878340 -2.391218 4.099727 6.000000 18 364.414418
1.782872 -2.269687 3.207134 11.000000 16 364.414420
1.755263 -2.222536 2.862861 10.000000 15 364.414378
1.707683 -2.162294 2.303265 17.000000 13 364.414381
1.636273 -2.072616 1.815911 25.000000 11 364.414383
1.595823 -2.021383 1.434089 32.000000 9 364.414386
1.559994 -1.976709 1.105708 34.000000 7 364.414388
1.518546 -1.924879 0.810141 34.000000 5 364.414391
1.490819 -1.889733 0.548456 36.000000 3 364.414393
1.458510 -1.849443 0.303989 35.000000 1 364.414396
1.718418 -2.182924 2.554658 14.000000 14 364.414404
1.656723 -2.104556 2.033813 24.000000 12 364.414406
1.603446 -2.037609 1.608661 29.000000 10 364.414409
1.578034 -2.005319 1.267081 34.000000 8 364.414411
1.536143 -1.952786 0.953394 36.000000 6 364.414414
1.499348 -1.906696 0.675739 37.000000 4 364.414416
1.468933 -1.868689 0.423312 34.000000 2 364.414419
1.453719 -1.850000 0.188586 33.000000 0 364.414422
0.052575 -0.115376 12.988778 16.000000 31 364.414433
0.415939 -0.559203 4.430939 96.000000 28 364.414436
0.537846 -0.724854 4.362908 91.000000 27 364.414438
0.741589 -0.959332 3.921192 93.000000 25 364.414441
0.911585 -1.165903 3.546163 7.000000 23 364.414443
1.154435 -1.475991 3.499871 17.000000 21 364.414446
1.557232 -1.990996 3.784993 94.000000 19 364.414448
2.584583 -3.304531 5.097647 5.000000 17 364.414451
0.152164 -0.226635 4.546785 98.000000 30 364.414459
0.283061 -0.399854 4.518826 98.000000 29 364.414461
0.621137 -0.815050 3.980152 94.000000 26 364.414464
0.855565 -1.097798 3.839097 91.000000 24 364.414466
1.006584 -1.291125 3.447391 10.000000 22 364.414469
1.296974 -1.663020 3.519815 13.000000 20 364.414471
1.853299 -2.376370 4.063821 7.000000 18 364.414474
1.760738 -2.256876 3.181408 10.000000 16 364.414477
1.736492 -2.214618 2.845339 11.000000 15 364.414434
1.688114 -2.152924 2.287576 18.000000 13 364.414437
1.616131 -2.061861 1.802203 25.000000 11 364.414439
1.577825 -2.012994 1.424817 32.000000 9 364.414442
1.541991 -1.967277 1.098216 35.000000 7 364.414445
1.503278 -1.918576 0.805914 35.000000 5 364.414447
1.475126 -1.883324 0.545658 36.000000 3 364.414450
1.442835 -1.842759 0.302650 35.000000 1 364.414452
1.696990 -2.171255 2.534708 15.000000 14 364.414460
1.636922 -2.094403 2.019097 25.000000 12 364.414463
1.586061 -2.029327 1.598531 29.000000 10 364.414465
1.560196 -1.996237 1.258689 34.000000 8 364.414468
1.518029 -1.942984 0.946823 36.000000 6 364.414470
1.484041 -1.900165 0.672222 38.000000 4 364.414473
1.453586 -1.861840 0.421243 34.000000 2 364.414475
1.438356 -1.842995 0.187982 33.000000 0 364.414478
0.052192 -0.115550 12.988778 17.000000 31 364.414489
0.414082 -0.560579 4.430939 96.000000 28 364.414491
0.535439 -0.726634 4.362908 92.000000 27 364.414494
0.738404 -0.961786 3.921192 94.000000 25 364.414496
0.905317 -1.165833 3.536958 6.000000 23 364.414499
1.142186 -1.470351 3.477928 17.000000 21 364.414501
1.550621 -1.996148 3.784993 94.000000 19 364.414504
2.618845 -3.371315 5.185896 4.000000 17 364.414506
0.151372 -0.227164 4.546785 98.000000 30 364.414514
0.281663 -0.400839 4.518826 98.000000 29 364.414517
0.618289 -0.817213 3.980152 95.000000 26 364.414519
0.851728 -1.100778 3.839097 91.000000 24 364.414522
1.002297 -1.294456 3.447391 11.000000 22 364.414524
1.312214 -1.694116 3.575272 11.000000 20 364.414527
1.830644 -2.363441 4.031905 7.000000 18 364.414530
1.738318 -2.244247 3.155682 10.000000 16 364.414532
1.713800 -2.200668 2.820807 11.000000 15 364.414490
1.666615 -2.140082 2.268750 18.000000 13 364.414492
1.599010 -2.054011 1.791238 25.000000 11 364.414495
1.560255 -2.004232 1.415545 32.000000 9 364.414497
1.523726 -1.958013 1.090724 35.000000 7 364.414500
1.484789 -1.908665 0.800277 35.000000 5 364.414503
1.456808 -1.872697 0.541928 36.000000 3 364.414505
1.430602 -1.839671 0.301758 35.000000 1 364.414508
1.678332 -2.162121 2.518085 15.000000 14 364.414515
1.617575 -2.083854 2.004381 26.000000 12 364.414518
