# .PCD v.7 - Point Cloud Data file format
VERSION .7
FIELDS x y z intensity ring timestamp
SIZE 4 4 4 4 2 8
TYPE F F F F U D
COUNT 1 1 1 1 1 1
WIDTH 907
HEIGHT 1
VIEWPOINT 0 0 0 1 0 0 0
POINTS 907
DATA ascii
-0.282097 -1.198058 1.289320 39.000000 15 364.028460
-0.277290 -1.177632 1.057568 39.000000 13 364.028463
-0.275757 -1.170204 0.872846 42.000000 11 364.028465
-0.272658 -1.157043 0.708547 40.000000 9 364.028468
-0.269411 -1.142372 0.562528 39.000000 7 364.028470
-0.261247 -1.106888 0.424022 27.000000 5 364.028473
-0.258398 -1.094819 0.305042 8.000000 3 364.028475
-0.256387 -1.085452 0.192882 14.000000 1 364.028478
-0.280834 -1.184351 1.164871 40.000000 14 364.028486
-0.277580 -1.170619 0.959559 48.000000 12 364.028488
-0.274162 -1.155303 0.783090 44.000000 10 364.028491
-0.272719 -1.149214 0.633469 42.000000 8 364.028493
-0.269657 -1.135427 0.495085 37.000000 6 364.028496
-0.267535 -1.125620 0.369765 16.000000 4 364.028498
-0.258959 -1.088693 0.248099 13.000000 2 364.028501
-0.262565 -1.102999 0.139413 30.000000 0 364.028504
-0.077415 -0.148815 17.683601 27.000000 31 364.028514
-0.282259 -1.059351 6.969718 105.000000 28 364.028517
-0.413213 -1.543692 7.706348 83.000000 27 364.028519
-0.539710 -2.189499 7.251855 4.000000 25 364.028522
-0.333428 -1.385719 3.417292 13.000000 23 364.028524
-0.315400 -1.311783 2.538754 32.000000 21 364.028527
-0.303423 -1.261961 1.978895 37.000000 19 364.028530
-0.295736 -1.229981 1.590678 39.000000 17 364.028532
-0.233255 -0.797677 7.695558 159.000000 29 364.028542
-0.456104 -1.795364 7.164349 16.000000 26 364.028545
-0.354393 -1.461635 4.144128 10.000000 24 364.028548
-0.326289 -1.347764 2.929795 22.000000 22 364.028550
-0.310693 -1.284305 2.231503 35.000000 20 364.028553
-0.298984 -1.235897 1.757891 38.000000 18 364.028555
-0.292031 -1.207145 1.424680 39.000000 16 364.028558
-0.286278 -1.197066 1.289320 39.000000 15 364.028515
-0.281399 -1.176657 1.057568 39.000000 13 364.028518
-0.279840 -1.169235 0.872846 42.000000 11 364.028521
-0.276695 -1.156085 0.708547 40.000000 9 364.028523
-0.273397 -1.141424 0.562528 39.000000 7 364.028526
-0.265109 -1.105970 0.424022 27.000000 5 364.028528
-0.262218 -1.093910 0.305042 8.000000 3 364.028531
-0.260175 -1.084551 0.192882 15.000000 1 364.028533
-0.284966 -1.183363 1.164871 40.000000 14 364.028541
-0.281665 -1.169643 0.959559 48.000000 12 364.028544
-0.277183 -1.150148 0.780558 45.000000 10 364.028546
-0.276729 -1.148255 0.633469 43.000000 8 364.028549
-0.273619 -1.134479 0.495085 37.000000 6 364.028551
-0.271463 -1.124679 0.369765 16.000000 4 364.028554
-0.262758 -1.087783 0.248099 13.000000 2 364.028557
-0.266414 -1.102076 0.139413 30.000000 0 364.028559
-0.077955 -0.148582 17.688601 28.000000 31 364.028570
-0.286361 -1.059859 6.979596 108.000000 28 364.028572
-0.419400 -1.545188 7.721034 86.000000 27 364.028575
-0.547350 -2.187602 7.251855 4.000000 25 364.028577
-0.337799 -1.382649 3.412690 13.000000 23 364.028580
-0.319409 -1.308347 2.534365 32.000000 21 364.028583
-0.307826 -1.260894 1.978895 37.000000 19 364.028585
-0.300027 -1.228941 1.590678 39.000000 17 364.028588
-0.236038 -0.796858 7.695558 160.000000 29 364.028598
-0.462368 -1.793761 7.164349 16.000000 26 364.028601
-0.359493 -1.460389 4.144128 10.000000 24 364.028603
-0.330472 -1.344501 2.925295 22.000000 22 364.028606
-0.315174 -1.283213 2.231503 35.000000 20 364.028608
-0.303297 -1.234846 1.757891 38.000000 18 364.028611
-0.295434 -1.202826 1.421004 39.000000 16 364.028613
-0.290454 -1.196060 1.289320 39.000000 15 364.028571
-0.285505 -1.175668 1.057568 44.000000 13 364.028574
-0.282932 -1.164188 0.870105 42.000000 11 364.028576
-0.279683 -1.150807 0.706229 42.000000 9 364.028579
-0.277380 -1.140463 0.562528 39.000000 7 364.028581
-0.268968 -1.105037 0.424022 28.000000 5 364.028584
-0.266035 -1.092988 0.305042 8.000000 3 364.028586
-0.263959 -1.083636 0.192882 13.000000 1 364.028589
-0.289095 -1.182361 1.164871 42.000000 14 364.028597
-0.284786 -1.164726 0.956616 48.000000 12 364.028599
-0.281196 -1.149173 0.780558 45.000000 10 364.028602
-0.280735 -1.147282 0.633469 42.000000 8 364.028604
-0.277577 -1.133517 0.495085 37.000000 6 364.028607
-0.275387 -1.123725 0.369765 16.000000 4 364.028609
-0.266553 -1.086859 0.248099 14.000000 2 364.028612
-0.270259 -1.101139 0.139413 29.000000 0 364.028615
-0.078473 -0.148309 17.688601 28.000000 31 364.028625
-0.292114 -1.066346 7.028988 95.000000 28 364.028628
-0.424791 -1.543714 7.721034 92.000000 27 364.028630
-0.554615 -2.184230 7.247083 4.000000 25 364.028633
-0.342624 -1.381462 3.412690 13.000000 23 364.028635
-0.323974 -1.307224 2.534365 31.000000 21 364.028638
-0.312225 -1.259812 1.978895 37.000000 19 364.028640
-0.303544 -1.224774 1.586842 39.000000 17 364.028643
-0.238818 -0.796029 7.695558 159.000000 29 364.028653
-0.468627 -1.792136 7.164349 16.000000 26 364.028656
-0.364170 -1.457451 4.139435 10.000000 24 364.028658
-0.334635 -1.341227 2.920794 22.000000 22 364.028661
-0.319651 -1.282105 2.231503 36.000000 20 364.028663
-0.307605 -1.233780 1.757891 38.000000 18 364.028666
-0.299631 -1.201787 1.421004 39.000000 16 364.028669
-0.294628 -1.195039 1.289320 39.000000 15 364.028626
-0.289607 -1.174664 1.057568 45.000000 13 364.028629
-0.286994 -1.163193 0.870105 44.000000 11 364.028631
-0.283698 -1.149823 0.706229 42.000000 9 364.028634
-0.281359 -1.139488 0.562528 39.000000 7 364.028637
-0.272824 -1.104092 0.424022 28.000000 5 364.028639
-0.269849 -1.092053 0.305042 8.000000 3 364.028642
-0.267740 -1.082708 0.192882 14.000000 1 364.028644
-0.292321 -1.177721 1.161546 42.000000 14 364.028652
-0.288850 -1.163725 0.956616 48.000000 12 364.028655
-0.285205 -1.148185 0.780558 47.000000 10 364.028657
-0.284738 -1.146295 0.633469 40.000000 8 364.028660
-0.281532 -1.132541 0.495085 37.000000 6 364.028662
-0.279308 -1.122757 0.369765 16.000000 4 364.028665
-0.270345 -1.085922 0.248099 13.000000 2 364.028667
-0.274101 -1.100189 0.139413 28.000000 0 364.028670
-0.078990 -0.148034 17.688601 29.000000 31 364.028681
-0.296251 -1.066817 7.038867 62.000000 28 364.028683
-0.421415 -1.510840 7.564387 65.000000 27 364.028686
-0.562236 -2.182281 7.247083 4.000000 25 364.028688
-0.346967 -1.378363 3.408087 13.000000 23 364.028691
-0.328535 -1.306085 2.534365 31.000000 21 364.028693
-0.316621 -1.258714 1.978895 37.000000 19 364.028696
-0.307818 -1.223707 1.586842 39.000000 17 364.028698
-0.241751 -0.795701 7.700529 159.000000 29 364.028709
-0.474880 -1.790489 7.164349 15.000000 26 364.028711
-0.369255 -1.456171 4.139435 10.000000 24 364.028714
-0.339315 -1.340050 2.920794 22.000000 22 364.028716
-0.323485 -1.278453 2.227237 35.000000 20 364.028719
-0.311910 -1.232699 1.757891 38.000000 18 364.028722
-0.303825 -1.200734 1.421004 39.000000 16 364.028724
-0.298797 -1.194003 1.289320 39.000000 15 364.028682
-0.293706 -1.173646 1.057568 45.000000 13 364.028684
-0.290037 -1.158128 0.867363 44.000000 11 364.028687
-0.287710 -1.148826 0.706229 42.000000 9 364.028689
-0.284208 -1.134002 0.560655 39.000000 7 364.028692
-0.276676 -1.103133 0.424022 28.000000 5 364.028695
-0.272464 -1.086339 0.304110 8.000000 3 364.028697
-0.271518 -1.081767 0.192882 12.000000 1 364.028700
-0.296430 -1.176693 1.161546 42.000000 14 364.028707
-0.292910 -1.162710 0.956616 48.000000 12 364.028710
-0.289212 -1.147182 0.780558 47.000000 10 364.028713
-0.288738 -1.145294 0.633469 40.000000 8 364.028715
-0.285484 -1.131552 0.495085 37.000000 6 364.028718
-0.282035 -1.117062 0.368592 16.000000 4 364.028720
-0.274134 -1.084971 0.248099 13.000000 2 364.028723
-0.277940 -1.099226 0.139413 28.000000 0 364.028725
-0.079506 -0.147757 17.688601 28.000000 31 364.028736
-0.301449 -1.071012 7.073442 52.000000 28 364.028739
-0.411161 -1.454494 7.290254 33.000000 27 364.028741
-0.569850 -2.180305 7.247083 4.000000 25 364.028744
-0.351293 -1.375250 3.403485 13.000000 23 364.028746
-0.333092 -1.304930 2.534365 32.000000 21 364.028749
-0.321013 -1.257601 1.978895 37.000000 19 364.028751
-0.312087 -1.222625 1.586842 39.000000 17 364.028754
-0.244527 -0.794852 7.700529 155.000000 29 364.028764
-0.481127 -1.788821 7.164349 14.000000 26 364.028767
-0.373906 -1.453202 4.134742 10.000000 24 364.028769
-0.343449 -1.336749 2.916293 22.000000 22 364.028772
-0.327946 -1.277316 2.227237 35.000000 20 364.028775
-0.316211 -1.231602 1.757891 38.000000 18 364.028777
-0.308014 -1.199666 1.421004 39.000000 16 364.028780
-0.302963 -1.192953 1.289320 39.000000 15 364.028737
-0.297801 -1.172613 1.057568 45.000000 13 364.028740
-0.294078 -1.157108 0.867363 44.000000 11 364.028742
-0.291718 -1.147815 0.706229 40.000000 9 364.028745
-0.288164 -1.133003 0.560655 39.000000 7 364.028748
-0.279341 -1.097511 0.422613 28.000000 5 364.028750
-0.276254 -1.085382 0.304110 8.000000 3 364.028753
-0.275292 -1.080812 0.192882 12.000000 1 364.028755
-0.300536 -1.175651 1.161546 40.000000 14 364.028763
-0.296967 -1.161680 0.956616 48.000000 12 364.028766
-0.293214 -1.146166 0.780558 47.000000 10 364.028768
-0.292734 -1.144279 0.633469 42.000000 8 364.028771
-0.289432 -1.130548 0.495085 37.000000 6 364.028773
-0.285933 -1.116071 0.368592 16.000000 4 364.028776
-0.277920 -1.084008 0.248099 12.000000 2 364.028778
-0.281775 -1.098249 0.139413 28.000000 0 364.028781
-0.080000 -0.147441 17.683601 28.000000 31 364.028792
-0.307106 -1.076677 7.117895 48.000000 28 364.028794
-0.397993 -1.389430 6.972064 35.000000 27 364.028797
-0.577457 -2.178303 7.247083 4.000000 25 364.028799
-0.356091 -1.374016 3.403485 13.000000 23 364.028802
-0.337645 -1.303760 2.534365 32.000000 21 364.028804
-0.324695 -1.253749 1.974762 37.000000 19 364.028807
-0.315549 -1.218425 1.583005 39.000000 17 364.028809
-0.247300 -0.793994 7.700529 152.000000 29 364.028820
-0.487368 -1.787130 7.164349 14.000000 26 364.028822
-0.378976 -1.451888 4.134742 10.000000 24 364.028825
-0.348113 -1.335542 2.916293 22.000000 22 364.028827
-0.332402 -1.276163 2.227237 35.000000 20 364.028830
-0.319749 -1.227574 1.753901 38.000000 18 364.028833
-0.312200 -1.198584 1.421004 39.000000 16 364.028835
-0.307126 -1.191888 1.289320 39.000000 15 364.028793
-0.301892 -1.171567 1.057568 44.000000 13 364.028795
-0.298115 -1.156075 0.867363 42.000000 11 364.028798
-0.295723 -1.146790 0.706229 40.000000 9 364.028801
-0.292118 -1.131990 0.560655 39.000000 7 364.028803
-0.283171 -1.096529 0.422613 28.000000 5 364.028806
-0.280041 -1.084411 0.304110 9.000000 3 364.028808
-0.279063 -1.079845 0.192882 13.000000 1 364.028811
-0.304638 -1.174595 1.161546 40.000000 14 364.028819
-0.300006 -1.156724 0.953673 44.000000 12 364.028821
-0.297213 -1.145135 0.780558 47.000000 10 364.028824
-0.295586 -1.138857 0.631371 42.000000 8 364.028826
-0.292189 -1.124960 0.493442 37.000000 6 364.028829
-0.289827 -1.115066 0.368592 15.000000 4 364.028831
-0.281702 -1.083031 0.248099 13.000000 2 364.028834
-0.285607 -1.097258 0.139413 28.000000 0 364.028836
-0.080492 -0.147123 17.678600 28.000000 31 364.028847
-0.314966 -1.089780 7.211741 41.000000 28 364.028850
-0.401704 -1.384121 6.952483 47.000000 27 364.028852
-0.585445 -2.177716 7.251855 4.000000 25 364.028855
-0.360388 -1.370875 3.398882 13.000000 23 364.028857
-0.341585 -1.300256 2.529977 32.000000 21 364.028860
-0.329070 -1.252608 1.974762 37.000000 19 364.028862
-0.319801 -1.217316 1.583005 38.000000 17 364.028865
-0.250070 -0.793126 7.700529 141.000000 29 364.028875
-0.493268 -1.784206 7.159510 14.000000 26 364.028878
-0.384042 -1.450556 4.134742 10.000000 24 364.028880
-0.352216 -1.332213 2.911792 22.000000 22 364.028883
-0.336855 -1.274995 2.227237 35.000000 20 364.028886
-0.324032 -1.226451 1.753901 38.000000 18 364.028888
-0.316382 -1.197487 1.421004 39.000000 16 364.028891
-0.311284 -1.190808 1.289320 39.000000 15 364.028848
-0.305980 -1.170506 1.057568 45.000000 13 364.028851
-0.302149 -1.155027 0.867363 44.000000 11 364.028853
-0.298603 -1.141464 0.703911 42.000000 9 364.028856
-0.296067 -1.130963 0.560655 39.000000 7 364.028859
-0.286997 -1.095534 0.422613 28.000000 5 364.028861
-0.283825 -1.083427 0.304110 9.000000 3 364.028864
-0.282831 -1.078864 0.192882 14.000000 1 364.028866
-0.308736 -1.173524 1.161546 40.000000 14 364.028874
-0.304041 -1.155670 0.953673 42.000000 12 364.028877
-0.300111 -1.139922 0.778025 45.000000 10 364.028879
-0.299560 -1.137819 0.631371 42.000000 8 364.028882
-0.296114 -1.123933 0.493442 37.000000 6 364.028884
-0.292478 -1.109347 0.367420 15.000000 4 364.028887
-0.285481 -1.082041 0.248099 14.000000 2 364.028889
-0.289436 -1.096255 0.139413 28.000000 0 364.028892
-0.080984 -0.146804 17.673601 27.000000 31 364.028903
-0.324233 -1.107314 7.335223 40.000000 28 364.028905
-0.407683 -1.386618 6.972064 65.000000 27 364.028908
-0.593436 -2.177100 7.256626 4.000000 25 364.028910
-0.365171 -1.369609 3.398882 13.000000 23 364.028913
-0.346122 -1.299055 2.529977 32.000000 21 364.028915
-0.333440 -1.251451 1.974762 37.000000 19 364.028918
-0.324048 -1.216192 1.583005 38.000000 17 364.028921
-0.252837 -0.792248 7.700529 131.000000 29 364.028931
-0.510358 -1.821229 7.314364 11.000000 26 364.028933
-0.388656 -1.447540 4.130049 10.000000 24 364.028936
-0.356864 -1.330976 2.911792 22.000000 22 364.028939
-0.340628 -1.271292 2.222971 35.000000 20 364.028941
-0.327531 -1.222401 1.749912 38.000000 18 364.028944
-0.320560 -1.196375 1.421004 39.000000 16 364.028946
-0.314525 -1.186267 1.285816 39.000000 15 364.028904
-0.310064 -1.169431 1.057568 44.000000 13 364.028906
-0.306179 -1.153965 0.867363 44.000000 11 364.028909
-0.302586 -1.140415 0.703911 40.000000 9 364.028912
-0.300013 -1.129923 0.560655 39.000000 7 364.028914
-0.290819 -1.094526 0.422613 28.000000 5 364.028917
-0.287605 -1.082429 0.304110 8.000000 3 364.028919
-0.286595 -1.077870 0.192882 13.000000 1 364.028922
-0.312831 -1.172440 1.161546 40.000000 14 364.028930
-0.308074 -1.154601 0.953673 40.000000 12 364.028932
-0.304088 -1.138867 0.778025 45.000000 10 364.028935
-0.303530 -1.136766 0.631371 40.000000 8 364.028937
-0.300036 -1.122893 0.493442 37.000000 6 364.028940
-0.296349 -1.108320 0.367420 15.000000 4 364.028942
-0.287976 -1.076254 0.247409 13.000000 2 364.028945
-0.293261 -1.095238 0.139413 28.000000 0 364.028947
-0.081473 -0.146482 17.668600 27.000000 31 364.028958
-0.335175 -1.130011 7.493279 52.000000 28 364.028961
-0.411648 -1.382259 6.957378 63.000000 27 364.028963
-0.600634 -2.173576 7.251855 4.000000 25 364.028966
-0.369950 -1.368326 3.398882 13.000000 23 364.028968
-0.350654 -1.297839 2.529977 32.000000 21 364.028971
-0.337072 -1.247563 1.970629 37.000000 19 364.028973
-0.327455 -1.211959 1.579168 38.000000 17 364.028976
-0.255436 -0.790853 7.695558 125.000000 29 364.028986
-0.516712 -1.819437 7.314364 10.000000 26 364.028989
-0.393253 -1.444509 4.125357 10.000000 24 364.028991
-0.361508 -1.329722 2.911792 22.000000 22 364.028994
-0.345064 -1.270096 2.222971 35.000000 20 364.028997
-0.331796 -1.221250 1.749912 38.000000 18 364.028999
-0.323845 -1.191977 1.417329 39.000000 16 364.029002
-0.318664 -1.185162 1.285816 39.000000 15 364.028959
-0.313133 -1.164582 1.054430 42.000000 13 364.028962
-0.310205 -1.152890 0.867363 42.000000 11 364.028965
-0.306565 -1.139352 0.703911 40.000000 9 364.028967
-0.303956 -1.128869 0.560655 39.000000 7 364.028970
-0.293390 -1.088872 0.421203 28.000000 5 364.028972
-0.291382 -1.081419 0.304110 8.000000 3 364.028975
-0.290356 -1.076863 0.192882 13.000000 1 364.028977
-0.316921 -1.171340 1.161546 40.000000 14 364.028985
-0.311046 -1.149618 0.950730 40.000000 12 364.028988
-0.308062 -1.137799 0.778025 45.000000 10 364.028990
-0.307496 -1.135700 0.631371 40.000000 8 364.028993
-0.303953 -1.121839 0.493442 37.000000 6 364.028995
-0.298944 -1.102587 0.366248 15.000000 4 364.028998
-0.291731 -1.075242 0.247409 13.000000 2 364.029000
-0.297082 -1.094207 0.139413 29.000000 0 364.029003
-0.081962 -0.146160 17.663601 28.000000 31 364.029014
-0.346503 -1.153388 7.656274 75.000000 28 364.029016
-0.417354 -1.383738 6.972064 62.000000 27 364.029019
-0.609829 -2.177218 7.270942 4.000000 25 364.029021
-0.374724 -1.367026 3.398882 13.000000 23 364.029024
-0.355182 -1.296607 2.529977 32.000000 21 364.029026
-0.341425 -1.246379 1.970629 37.000000 19 364.029029
-0.331683 -1.210809 1.579168 38.000000 17 364.029032
-0.258195 -0.789957 7.695558 123.000000 29 364.029042
-0.525844 -1.827292 7.353078 12.000000 26 364.029044
-0.398293 -1.443128 4.125357 10.000000 24 364.029047
-0.366726 -1.330551 2.916293 22.000000 22 364.029050
-0.349495 -1.268883 2.222971 36.000000 20 364.029052
-0.336057 -1.220085 1.749912 38.000000 18 364.029055
-0.328004 -1.190840 1.417329 39.000000 16 364.029057
-0.322799 -1.184043 1.285816 39.000000 15 364.029015
-0.317196 -1.163482 1.054430 44.000000 13 364.029017
-0.314227 -1.151800 0.867363 42.000000 11 364.029020
-0.310540 -1.138275 0.703911 40.000000 9 364.029023
-0.307894 -1.127801 0.560655 39.000000 7 364.029025
-0.297189 -1.087841 0.421203 27.000000 5 364.029028
-0.295155 -1.080395 0.304110 8.000000 3 364.029030
-0.292800 -1.071039 0.192436 14.000000 1 364.029033
-0.321008 -1.170227 1.161546 40.000000 14 364.029041
-0.315057 -1.148525 0.950730 46.000000 12 364.029043
-0.312032 -1.136717 0.778025 45.000000 10 364.029046
-0.311459 -1.134619 0.631371 40.000000 8 364.029048
-0.307867 -1.120771 0.493442 37.000000 6 364.029051
-0.302791 -1.101537 0.366248 15.000000 4 364.029053
-0.295483 -1.074218 0.247409 14.000000 2 364.029056
-0.300900 -1.093164 0.139413 28.000000 0 364.029059
-0.082472 -0.145873 17.663601 28.000000 31 364.029069
-0.354602 -1.165551 7.745181 96.000000 28 364.029072
-0.422181 -1.382272 6.972064 83.000000 27 364.029074
-0.617834 -2.176513 7.275713 4.000000 25 364.029077
-0.378971 -1.363827 3.394280 13.000000 23 364.029079
-0.359706 -1.295360 2.529977 32.000000 21 364.029082
-0.345774 -1.245180 1.970629 37.000000 19 364.029085
-0.335908 -1.209643 1.579168 39.000000 17 364.029087
-0.260951 -0.789050 7.695558 123.000000 29 364.029097
-0.526584 -1.806125 7.275651 16.000000 26 364.029100
-0.402863 -1.440067 4.120664 10.000000 24 364.029103
-0.371368 -1.329263 2.916293 22.000000 22 364.029105
-0.353922 -1.267656 2.222971 36.000000 20 364.029108
-0.340313 -1.218904 1.749912 38.000000 18 364.029110
-0.332159 -1.189687 1.417329 39.000000 16 364.029113
-0.326930 -1.182909 1.285816 39.000000 15 364.029070
-0.321256 -1.162367 1.054430 45.000000 13 364.029073
-0.318246 -1.150696 0.867363 42.000000 11 364.029076
-0.314512 -1.137184 0.703911 40.000000 9 364.029078
-0.311829 -1.126719 0.560655 39.000000 7 364.029081
-0.300984 -1.086797 0.421203 27.000000 5 364.029083
-0.298924 -1.079358 0.304110 8.000000 3 364.029086
-0.296536 -1.070011 0.192436 14.000000 1 364.029088
-0.325091 -1.169099 1.161546 40.000000 14 364.029096
-0.319065 -1.147418 0.950730 48.000000 12 364.029099
-0.315998 -1.135620 0.778025 45.000000 10 364.029101
-0.315417 -1.133525 0.631371 40.000000 8 364.029104
-0.311778 -1.119689 0.493442 37.000000 6 364.029106
-0.306634 -1.100474 0.366248 15.000000 4 364.029109
-0.299231 -1.073180 0.247409 13.000000 2 364.029111
-0.304714 -1.092107 0.139413 28.000000 0 364.029114
-0.082980 -0.145584 17.663601 28.000000 31 364.029125
-0.359813 -1.168018 7.769877 101.000000 28 364.029127
-0.427907 -1.383709 6.986750 73.000000 27 364.029130
-0.625840 -2.175779 7.280485 4.000000 25 364.029132
-0.383729 -1.362496 3.394280 13.000000 23 364.029135
-0.364225 -1.294096 2.529977 32.000000 21 364.029137
-0.350118 -1.243965 1.970629 37.000000 19 364.029140
-0.340128 -1.208464 1.579168 39.000000 17 364.029143
-0.263874 -0.788641 7.700529 123.000000 29 364.029153
-0.513640 -1.739137 7.014333 11.000000 26 364.029155
-0.407416 -1.436992 4.115971 10.000000 24 364.029158
-0.376006 -1.327959 2.916293 22.000000 22 364.029161
-0.357635 -1.263903 2.218705 35.000000 20 364.029163
-0.344566 -1.217709 1.749912 38.000000 18 364.029166
-0.336309 -1.188521 1.417329 39.000000 16 364.029168
-0.331057 -1.181760 1.285816 39.000000 15 364.029126
-0.325311 -1.161239 1.054430 45.000000 13 364.029129
-0.322261 -1.149578 0.867363 42.000000 11 364.029131
-0.318479 -1.136079 0.703911 40.000000 9 364.029134
-0.314508 -1.121160 0.558782 39.000000 7 364.029136
-0.304776 -1.085740 0.421203 27.000000 5 364.029139
-0.302690 -1.078308 0.304110 8.000000 3 364.029141
-0.300270 -1.068969 0.192436 15.000000 1 364.029144
-0.329170 -1.167957 1.161546 40.000000 14 364.029152
-0.323068 -1.146297 0.950730 48.000000 12 364.029154
-0.319960 -1.134511 0.778025 47.000000 10 364.029157
-0.319372 -1.132417 0.631371 42.000000 8 364.029159
-0.315684 -1.118594 0.493442 37.000000 6 364.029162
-0.310474 -1.099396 0.366248 15.000000 4 364.029164
-0.302975 -1.072129 0.247409 13.000000 2 364.029167
-0.307164 -1.086229 0.139211 28.000000 0 364.029170
-0.083511 -0.145331 17.668600 29.000000 31 364.029180
-0.364120 -1.167497 7.774816 101.000000 28 364.029183
-0.431821 -1.379292 6.972064 62.000000 27 364.029185
-0.388483 -1.361148 3.394280 12.000000 23 364.029190
-0.368083 -1.290513 2.525588 32.000000 21 364.029193
-0.353686 -1.240029 1.966496 37.000000 19 364.029196
-0.344345 -1.207269 1.579168 38.000000 17 364.029198
-0.266625 -0.787715 7.700529 122.000000 29 364.029208
-0.511414 -1.709619 6.903032 11.000000 26 364.029211
-0.412430 -1.435561 4.115971 10.000000 24 364.029214
-0.380639 -1.326638 2.916293 22.000000 22 364.029216
-0.362045 -1.262647 2.218705 35.000000 20 364.029219
-0.348815 -1.216499 1.749912 38.000000 18 364.029221
-0.339522 -1.184081 1.413654 39.000000 16 364.029224
-0.335180 -1.180598 1.285816 39.000000 15 364.029181
-0.328299 -1.156351 1.051292 45.000000 13 364.029184
-0.326272 -1.148446 0.867363 44.000000 11 364.029187
-0.321232 -1.130699 0.701593 40.000000 9 364.029189
-0.318420 -1.120056 0.558782 39.000000 7 364.029192
-0.309877 -1.089284 0.422613 27.000000 5 364.029194
-0.306452 -1.077245 0.304110 8.000000 3 364.029197
-0.303999 -1.067915 0.192436 14.000000 1 364.029199
-0.332219 -1.163211 1.158221 40.000000 14 364.029207
-0.327067 -1.145163 0.950730 48.000000 12 364.029210
-0.323918 -1.133387 0.778025 47.000000 10 364.029212
-0.322076 -1.126932 0.629273 42.000000 8 364.029215
-0.319587 -1.117486 0.493442 37.000000 6 364.029217
-0.314309 -1.098306 0.366248 15.000000 4 364.029220
-0.306716 -1.071064 0.247409 13.000000 2 364.029223
-0.310954 -1.085150 0.139211 28.000000 0 364.029225
-0.084017 -0.145038 17.668600 29.000000 31 364.029236
-0.368193 -1.166219 7.774816 104.000000 28 364.029238
-0.437864 -1.381658 6.991645 53.000000 27 364.029241
-0.446886 -1.513883 5.090264 8.000000 25 364.029243
-0.392689 -1.357907 3.389677 12.000000 23 364.029246
-0.372586 -1.289220 2.525588 32.000000 21 364.029249
-0.358013 -1.238787 1.966496 36.000000 19 364.029251
-0.347666 -1.202980 1.575331 38.000000 17 364.029254
-0.269547 -0.787284 7.705500 121.000000 29 364.029264
-0.515919 -1.703008 6.883675 17.000000 26 364.029267
-0.416956 -1.432455 4.111278 10.000000 24 364.029269
-0.384660 -1.323210 2.911792 22.000000 22 364.029272
-0.365722 -1.258871 2.214439 35.000000 20 364.029274
-0.353059 -1.215274 1.749912 38.000000 18 364.029277
-0.343653 -1.182888 1.413654 39.000000 16 364.029279
-0.338313 -1.175993 1.282311 39.000000 15 364.029237
-0.332334 -1.155198 1.051292 45.000000 13 364.029240
-0.329122 -1.143282 0.864622 42.000000 11 364.029242
-0.325177 -1.129571 0.701593 40.000000 9 364.029245
-0.322327 -1.118937 0.558782 39.000000 7 364.029247
-0.313677 -1.088195 0.422613 27.000000 5 364.029250
-0.310211 -1.076169 0.304110 8.000000 3 364.029252
-0.307725 -1.066847 0.192436 14.000000 1 364.029255
-0.336278 -1.162044 1.158221 40.000000 14 364.029263
-0.331063 -1.144014 0.950730 48.000000 12 364.029265
-0.327872 -1.132249 0.778025 47.000000 10 364.029268
-0.326008 -1.125801 0.629273 42.000000 8 364.029270
-0.322172 -1.111827 0.491800 37.000000 6 364.029273
-0.318141 -1.097202 0.366248 15.000000 4 364.029275
-0.310452 -1.069987 0.247409 12.000000 2 364.029278
-0.314740 -1.084058 0.139211 28.000000 0 364.029281
-0.084523 -0.144744 17.668600 29.000000 31 364.029291
-0.372262 -1.164926 7.774816 105.000000 28 364.029294
-0.443618 -1.383030 7.006331 40.000000 27 364.029296
-0.449600 -1.503729 5.061634 8.000000 25 364.029299
-0.397426 -1.356528 3.389677 13.000000 23 364.029301
-0.376411 -1.285613 2.521199 31.000000 21 364.029304
-0.362335 -1.237530 1.966496 36.000000 19 364.029306
-0.351864 -1.201759 1.575331 38.000000 17 364.029309
-0.272293 -0.786339 7.705500 120.000000 29 364.029319
-0.525550 -1.713222 6.932067 66.000000 26 364.029322
-0.421954 -1.430991 4.111278 10.000000 24 364.029324
-0.389276 -1.321859 2.911792 23.000000 22 364.029327
-0.370115 -1.257587 2.214439 35.000000 20 364.029329
-0.356448 -1.211142 1.745922 38.000000 18 364.029332
-0.347780 -1.181682 1.413654 39.000000 16 364.029335
-0.342416 -1.174805 1.282311 39.000000 15 364.029292
-0.336364 -1.154031 1.051292 44.000000 13 364.029295
-0.333110 -1.142126 0.864622 40.000000 11 364.029297
-0.329118 -1.128429 0.701593 40.000000 9 364.029300
-0.326231 -1.117805 0.558782 39.000000 7 364.029303
-0.317474 -1.087094 0.422613 27.000000 5 364.029305
-0.312588 -1.070364 0.303177 8.000000 3 364.029308
-0.311447 -1.065766 0.192436 14.000000 1 364.029310
-0.340332 -1.160863 1.158221 40.000000 14 364.029318
-0.335054 -1.142851 0.950730 48.000000 12 364.029321
-0.331823 -1.131098 0.778025 45.000000 10 364.029323
-0.329935 -1.124656 0.629273 42.000000 8 364.029326
-0.326051 -1.110696 0.491800 37.000000 6 364.029328
-0.321969 -1.096085 0.366248 15.000000 4 364.029331
-0.314185 -1.068897 0.247409 14.000000 2 364.029333
-0.318522 -1.082953 0.139211 28.000000 0 364.029336
-0.085028 -0.144448 17.668600 29.000000 31 364.029347
-0.376326 -1.163620 7.774816 106.000000 28 364.029349
-0.465119 -1.432797 7.265778 31.000000 27 364.029352
-0.402159 -1.355133 3.389677 13.000000 23 364.029357
-0.380896 -1.284291 2.521199 31.000000 21 364.029359
-0.365852 -1.233560 1.962363 36.000000 19 364.029362
-0.356056 -1.200523 1.575331 39.000000 17 364.029364
-0.275036 -0.785384 7.705500 120.000000 29 364.029375
-0.529661 -1.705371 6.907871 50.000000 26 364.029377
-0.426946 -1.429510 4.111278 10.000000 24 364.029380
-0.393266 -1.318406 2.907291 22.000000 22 364.029382
-0.374502 -1.256287 2.214439 35.000000 20 364.029385
-0.360673 -1.209891 1.745922 38.000000 18 364.029388
-0.351902 -1.180460 1.413654 39.000000 16 364.029390
-0.346515 -1.173603 1.282311 40.000000 15 364.029348
-0.340390 -1.152850 1.051292 44.000000 13 364.029350
-0.335910 -1.136946 0.861880 39.000000 11 364.029353
-0.334310 -1.131522 0.703911 40.000000 9 364.029355
-0.330131 -1.116660 0.558782 39.000000 7 364.029358
-0.319906 -1.081379 0.421203 26.000000 5 364.029361
-0.316323 -1.069267 0.303177 8.000000 3 364.029363
-0.315166 -1.064673 0.192436 14.000000 1 364.029366
-0.343319 -1.156088 1.154897 42.000000 14 364.029373
-0.339041 -1.141675 0.950730 48.000000 12 364.029376
-0.335769 -1.129933 0.778025 47.000000 10 364.029379
-0.333859 -1.123497 0.629273 40.000000 8 364.029381
-0.329926 -1.109551 0.491800 37.000000 6 364.029384
-0.324407 -1.090296 0.365075 14.000000 4 364.029386
-0.317915 -1.067794 0.247409 14.000000 2 364.029389
-0.322301 -1.081834 0.139211 28.000000 0 364.029391
-0.085532 -0.144150 17.668600 29.000000 31 364.029402
-0.380385 -1.162299 7.774816 105.000000 28 364.029405
-0.481567 -1.465986 7.442006 31.000000 27 364.029407
-0.461839 -1.506265 5.080721 8.000000 25 364.029410
-0.406887 -1.353721 3.389677 13.000000 23 364.029412
-0.385377 -1.282954 2.521199 32.000000 21 364.029415
-0.370156 -1.232275 1.962363 36.000000 19 364.029417
-0.360245 -1.199273 1.575331 39.000000 17 364.029420
-0.277597 -0.783916 7.700529 119.000000 29 364.029430
-0.534479 -1.699912 6.893353 28.000000 26 364.029433
-0.431434 -1.426359 4.106586 10.000000 24 364.029435
-0.397865 -1.317025 2.907291 22.000000 22 364.029438
-0.378131 -1.252476 2.210173 35.000000 20 364.029441
-0.364895 -1.208624 1.745922 38.000000 18 364.029443
-0.356021 -1.179225 1.413654 39.000000 16 364.029446
-0.350610 -1.172386 1.282311 39.000000 15 364.029403
-0.344413 -1.151655 1.051292 45.000000 13 364.029406
-0.339877 -1.135767 0.861880 39.000000 11 364.029408
-0.338258 -1.130348 0.703911 40.000000 9 364.029411
-0.334027 -1.115501 0.558782 39.000000 7 364.029414
-0.323679 -1.080256 0.421203 26.000000 5 364.029416
-0.318643 -1.063450 0.302244 8.000000 3 364.029419
-0.318880 -1.063566 0.192436 14.000000 1 364.029421
-0.347352 -1.154882 1.154897 42.000000 14 364.029429
-0.343024 -1.140484 0.950730 48.000000 12 364.029432
-0.339711 -1.128754 0.778025 47.000000 10 364.029434
-0.337779 -1.122325 0.629273 40.000000 8 364.029437
-0.333797 -1.108393 0.491800 37.000000 6 364.029439
-0.328211 -1.089157 0.365075 14.000000 4 364.029442
-0.321640 -1.066678 0.247409 13.000000 2 364.029444
-0.326075 -1.080703 0.139211 28.000000 0 364.029447
-0.086034 -0.143851 17.668600 29.000000 31 364.029458
-0.384440 -1.160964 7.774816 105.000000 28 364.029460
-0.502108 -1.510671 7.676977 57.000000 27 364.029463
-0.467094 -1.504643 5.080721 8.000000 25 364.029465
-0.411041 -1.350423 3.385075 13.000000 23 364.029468
-0.389853 -1.281601 2.521199 32.000000 21 364.029470
-0.374455 -1.230976 1.962363 36.000000 19 364.029473
-0.364429 -1.198008 1.575331 39.000000 17 364.029475
-0.280332 -0.782942 7.700529 119.000000 29 364.029486
-0.436410 -1.424844 4.106586 10.000000 24 364.029491
-0.402460 -1.315628 2.907291 22.000000 22 364.029493
-0.382501 -1.251148 2.210173 35.000000 20 364.029496
-0.369111 -1.207343 1.745922 38.000000 18 364.029499
-0.360135 -1.177975 1.413654 39.000000 16 364.029501
-0.354700 -1.171155 1.282311 39.000000 15 364.029459
-0.348430 -1.150446 1.051292 45.000000 13 364.029461
-0.343839 -1.134573 0.861880 39.000000 11 364.029464
-0.342202 -1.129160 0.703911 40.000000 9 364.029467
-0.337919 -1.114328 0.558782 39.000000 7 364.029469
-0.327447 -1.079119 0.421203 27.000000 5 364.029472
-0.322353 -1.062332 0.302244 8.000000 3 364.029474
-0.322591 -1.062446 0.192436 14.000000 1 364.029477
-0.351381 -1.153663 1.154897 42.000000 14 364.029485
-0.347003 -1.139280 0.950730 48.000000 12 364.029487
-0.343649 -1.127561 0.778025 47.000000 10 364.029490
-0.341694 -1.121139 0.629273 42.000000 8 364.029492
-0.337664 -1.107221 0.491800 37.000000 6 364.029495
-0.332011 -1.088004 0.365075 15.000000 4 364.029497
-0.325361 -1.065548 0.247409 12.000000 2 364.029500
-0.329845 -1.079558 0.139211 29.000000 0 364.029502
-0.086536 -0.143550 17.668600 29.000000 31 364.029513
-0.388490 -1.159615 7.774816 105.000000 28 364.029516
-0.508028 -1.510839 7.686768 34.000000 27 364.029518
-0.471895 -1.501579 5.075949 10.000000 25 364.029521
-0.415752 -1.348980 3.385075 13.000000 23 364.029523
-0.393619 -1.277942 2.516811 32.000000 21 364.029526
-0.378750 -1.229661 1.962363 36.000000 19 364.029528
-0.368608 -1.196729 1.575331 39.000000 17 364.029531
-0.283063 -0.781958 7.700529 120.000000 29 364.029541
-0.441381 -1.423312 4.106586 10.000000 24 364.029546
-0.406406 -1.312135 2.902790 23.000000 22 364.029549
-0.386866 -1.249805 2.210173 35.000000 20 364.029552
-0.373323 -1.206048 1.745922 38.000000 18 364.029554
-0.364245 -1.176711 1.413654 39.000000 16 364.029557
-0.358786 -1.169910 1.282311 39.000000 15 364.029514
-0.352444 -1.149222 1.051292 45.000000 13 364.029517
-0.347798 -1.133366 0.861880 42.000000 11 364.029519
-0.344841 -1.123724 0.701593 40.000000 9 364.029522
-0.341807 -1.113142 0.558782 39.000000 7 364.029525
-0.331212 -1.077969 0.421203 27.000000 5 364.029527
-0.326060 -1.061200 0.302244 8.000000 3 364.029530
-0.326297 -1.061314 0.192436 13.000000 1 364.029532
-0.355406 -1.152429 1.154897 44.000000 14 364.029540
-0.350978 -1.138062 0.950730 48.000000 12 364.029543
-0.346312 -1.122235 0.775493 47.000000 10 364.029545
-0.345606 -1.119940 0.629273 42.000000 8 364.029548
-0.341527 -1.106035 0.491800 37.000000 6 364.029550
-0.335807 -1.086839 0.365075 14.000000 4 364.029553
-0.329079 -1.064406 0.247409 10.000000 2 364.029555
-0.333612 -1.078400 0.139211 28.000000 0 364.029558
-0.087060 -0.143284 17.673601 30.000000 31 364.029569
-0.392536 -1.158252 7.774816 106.000000 28 364.029571
-0.474870 -1.492807 5.052090 9.000000 25 364.029576
-0.419877 -1.345656 3.380472 13.000000 23 364.029579
-0.398077 -1.276561 2.516811 32.000000 21 364.029581
-0.383040 -1.228331 1.962363 36.000000 19 364.029584
-0.372784 -1.195435 1.575331 39.000000 17 364.029587
-0.285791 -0.780966 7.700529 120.000000 29 364.029597
-0.446347 -1.421763 4.106586 10.000000 24 364.029602
-0.410983 -1.310708 2.902790 23.000000 22 364.029605
-0.391226 -1.248447 2.210173 35.000000 20 364.029607
-0.377531 -1.204737 1.745922 38.000000 18 364.029610
-0.368350 -1.175432 1.413654 39.000000 16 364.029612
-0.362867 -1.168650 1.282311 39.000000 15 364.029570
-0.356453 -1.147985 1.051292 45.000000 13 364.029572
-0.351752 -1.132146 0.861880 43.000000 11 364.029575
-0.348762 -1.122513 0.701593 40.000000 9 364.029578
-0.345690 -1.111942 0.558782 39.000000 7 364.029580
-0.334973 -1.076807 0.421203 27.000000 5 364.029583
-0.329762 -1.060055 0.302244 8.000000 3 364.029585
-0.330000 -1.060168 0.192436 12.000000 1 364.029588
-0.359427 -1.151182 1.154897 42.000000 14 364.029596
-0.354948 -1.136830 0.950730 50.000000 12 364.029598
-0.350227 -1.121019 0.775493 47.000000 10 364.029601
-0.349513 -1.118726 0.629273 43.000000 8 364.029603
-0.345385 -1.104837 0.491800 37.000000 6 364.029606
-0.339598 -1.085660 0.365075 14.000000 4 364.029608
-0.332792 -1.063251 0.247409 10.000000 2 364.029611
-0.335881 -1.072461 0.139010 28.000000 0 364.029613
-0.087583 -0.143015 17.678600 30.000000 31 364.029624
-0.396576 -1.156875 7.774816 106.000000 28 364.029627
-0.480535 -1.492561 5.056862 9.000000 25 364.029632
-0.424571 -1.344182 3.380472 13.000000 23 364.029634
-0.402531 -1.275163 2.516811 32.000000 21 364.029637
-0.387325 -1.226987 1.962363 36.000000 19 364.029639
-0.376954 -1.194126 1.575331 39.000000 17 364.029642
-0.288516 -0.779963 7.700529 120.000000 29 364.029652
-0.604666 -1.833232 7.464379 6.000000 26 364.029655
-0.451307 -1.420196 4.106586 10.000000 24 364.029657
-0.414897 -1.307190 2.898290 23.000000 22 364.029660
-0.395582 -1.247074 2.210173 35.000000 20 364.029663
-0.381734 -1.203412 1.745922 38.000000 18 364.029665
-0.371426 -1.170908 1.409979 39.000000 16 364.029668
-0.366945 -1.167376 1.282311 39.000000 15 364.029625
-0.359291 -1.143020 1.048154 45.000000 13 364.029628
-0.355702 -1.130911 0.861880 43.000000 11 364.029631
-0.352678 -1.121289 0.701593 40.000000 9 364.029633
-0.348178 -1.106306 0.556909 39.000000 7 364.029636
-0.338730 -1.075631 0.421203 27.000000 5 364.029638
-0.333460 -1.058898 0.302244 8.000000 3 364.029641
-0.333699 -1.059010 0.192436 12.000000 1 364.029643
-0.363443 -1.149920 1.154897 42.000000 14 364.029651
-0.358915 -1.135584 0.950730 50.000000 12 364.029654
-0.354138 -1.119790 0.775493 45.000000 10 364.029656
-0.353416 -1.117499 0.629273 43.000000 8 364.029659
-0.349240 -1.103624 0.491800 37.000000 6 364.029661
-0.343386 -1.084468 0.365075 14.000000 4 364.029664
-0.336502 -1.062083 0.247409 8.000000 2 364.029666
-0.339622 -1.071282 0.139010 27.000000 0 364.029669
-0.088082 -0.142709 17.678600 31.000000 31 364.029680
-0.400612 -1.155483 7.774816 105.000000 28 364.029682
-0.485280 -1.489455 5.052090 8.000000 25 364.029687
-0.429261 -1.342692 3.380472 13.000000 23 364.029690
-0.406979 -1.273750 2.516811 32.000000 21 364.029692
-0.390749 -1.222947 1.958230 36.000000 19 364.029695
-0.381120 -1.192803 1.575331 39.000000 17 364.029698
-0.291236 -0.778951 7.700529 120.000000 29 364.029708
-0.621815 -1.863323 7.595038 12.000000 26 364.029710
-0.456262 -1.418612 4.106586 10.000000 24 364.029713
-0.419686 -1.305660 2.898290 22.000000 22 364.029716
-0.400150 -1.245616 2.210173 35.000000 20 364.029718
-0.386142 -1.202005 1.745922 38.000000 18 364.029721
-0.375715 -1.169538 1.409979 39.000000 16 364.029723
-0.371017 -1.166088 1.282311 39.000000 15 364.029681
-0.363279 -1.141759 1.048154 45.000000 13 364.029683
-0.359647 -1.129662 0.861880 42.000000 11 364.029686
-0.356590 -1.120051 0.701593 40.000000 9 364.029689
-0.352037 -1.105084 0.556909 39.000000 7 364.029691
-0.342482 -1.074442 0.421203 27.000000 5 364.029694
-0.337339 -1.057668 0.302244 8.000000 3 364.029696
-0.337578 -1.057780 0.192436 14.000000 1 364.029699
-0.367655 -1.148580 1.154897 42.000000 14 364.029707
-0.361842 -1.130411 0.947787 48.000000 12 364.029709
-0.358240 -1.118484 0.775493 40.000000 10 364.029712
-0.357509 -1.116197 0.629273 42.000000 8 364.029714
-0.353282 -1.102337 0.491800 37.000000 6 364.029717
-0.347358 -1.083202 0.365075 15.000000 4 364.029719
-0.340392 -1.060842 0.247409 10.000000 2 364.029722
-0.343360 -1.070090 0.139010 28.000000 0 364.029725
-0.088604 -0.142385 17.678600 30.000000 31 364.029735
-0.404844 -1.154007 7.774816 98.000000 28 364.029738
-0.484670 -1.376742 7.040597 3.000000 27 364.029740
-0.490268 -1.486248 5.047319 9.000000 25 364.029743
-0.434179 -1.341109 3.380472 13.000000 23 364.029745
-0.410908 -1.269971 2.512422 32.000000 21 364.029748
-0.395229 -1.221506 1.958230 36.000000 19 364.029751
-0.385489 -1.191398 1.575331 38.000000 17 364.029753
-0.294089 -0.777879 7.700529 120.000000 29 364.029763
-0.623809 -1.846732 7.536968 11.000000 26 364.029766
-0.461458 -1.416930 4.106586 10.000000 24 364.029769
-0.424241 -1.304188 2.898290 22.000000 22 364.029771
-0.404495 -1.244211 2.210173 35.000000 20 364.029774
-0.390336 -1.200650 1.745922 38.000000 18 364.029776
-0.379795 -1.168220 1.409979 39.000000 16 364.029779
-0.375289 -1.164721 1.282311 39.000000 15 364.029736
-0.367461 -1.140420 1.048154 44.000000 13 364.029739
-0.363785 -1.128336 0.861880 42.000000 11 364.029742
-0.360693 -1.118736 0.701593 40.000000 9 364.029744
-0.356085 -1.103786 0.556909 39.000000 7 364.029747
-0.344944 -1.068614 0.419794 26.000000 5 364.029749
-0.341029 -1.056485 0.302244 8.000000 3 364.029752
-0.341268 -1.056595 0.192436 14.000000 1 364.029754
-0.371662 -1.147290 1.154897 40.000000 14 364.029762
-0.365786 -1.129141 0.947787 50.000000 12 364.029765
-0.362142 -1.117227 0.775493 39.000000 10 364.029767
-0.360004 -1.110625 0.627175 40.000000 8 364.029770
-0.357128 -1.101097 0.491800 37.000000 6 364.029772
-0.349637 -1.077360 0.363903 14.000000 4 364.029775
-0.342564 -1.054938 0.246719 11.000000 2 364.029777
-0.347280 -1.068825 0.139010 28.000000 0 364.029780
-0.089101 -0.142075 17.678600 30.000000 31 364.029791
-0.408610 -1.151855 7.769877 98.000000 28 364.029793
-0.490156 -1.376960 7.050388 7.000000 27 364.029796
-0.497344 -1.490194 5.066406 9.000000 25 364.029798
-0.438249 -1.337729 3.375870 13.000000 23 364.029801
-0.415338 -1.268529 2.512422 32.000000 21 364.029803
-0.399490 -1.220119 1.958230 37.000000 19 364.029806
-0.389646 -1.190045 1.575331 39.000000 17 364.029809
-0.296803 -0.776847 7.700529 120.000000 29 364.029819
-0.466401 -1.415311 4.106586 10.000000 24 364.029824
-0.428791 -1.302699 2.898290 23.000000 22 364.029827
-0.408836 -1.242792 2.210173 35.000000 20 364.029829
-0.393582 -1.196417 1.741933 38.000000 18 364.029832
-0.383870 -1.166887 1.409979 39.000000 16 364.029834
-0.378246 -1.160013 1.278807 39.000000 15 364.029792
-0.371440 -1.139130 1.048154 39.000000 13 364.029795
-0.367721 -1.127060 0.861880 42.000000 11 364.029797
-0.364595 -1.117471 0.701593 40.000000 9 364.029800
-0.359936 -1.102537 0.556909 39.000000 7 364.029802
-0.348672 -1.067404 0.419794 27.000000 5 364.029805
-0.344715 -1.055288 0.302244 8.000000 3 364.029807
-0.344954 -1.055397 0.192436 14.000000 1 364.029810
-0.375665 -1.145986 1.154897 42.000000 14 364.029818
-0.369725 -1.127857 0.947787 46.000000 12 364.029820
-0.366039 -1.115956 0.775493 39.000000 10 364.029823
-0.363879 -1.109361 0.627175 40.000000 8 364.029825
-0.360969 -1.099844 0.491800 37.000000 6 364.029828
-0.353395 -1.076133 0.363903 14.000000 4 364.029830
-0.346244 -1.053735 0.246719 15.000000 2 364.029833
-0.351008 -1.067606 0.139010 28.000000 0 364.029836
-0.089572 -0.141727 17.673601 30.000000 31 364.029846
-0.412628 -1.150422 7.769877 106.000000 28 364.029849
-0.495304 -1.376199 7.055283 13.000000 27 364.029851
-0.501109 -1.484204 5.052090 8.000000 25 364.029854
-0.442916 -1.336191 3.375870 13.000000 23 364.029856
-0.419764 -1.267071 2.512422 32.000000 21 364.029859
-0.403747 -1.218718 1.958230 37.000000 19 364.029862
-0.393797 -1.188678 1.575331 39.000000 17 364.029864
-0.299706 -0.776305 7.705500 119.000000 29 364.029874
-0.564358 -1.633106 6.685267 3.000000 26 364.029877
-0.471339 -1.413674 4.106586 10.000000 24 364.029880
-0.432647 -1.299128 2.893789 23.000000 22 364.029882
-0.413172 -1.241357 2.210173 35.000000 20 364.029885
-0.397756 -1.195035 1.741933 38.000000 18 364.029887
-0.387941 -1.165540 1.409979 39.000000 16 364.029890
-0.382293 -1.158686 1.278807 39.000000 15 364.029847
-0.375414 -1.137827 1.048154 39.000000 13 364.029850
-0.371653 -1.125769 0.861880 42.000000 11 364.029853
-0.368494 -1.116191 0.701593 40.000000 9 364.029855
-0.363782 -1.101273 0.556909 39.000000 7 364.029858
-0.352396 -1.066180 0.419794 27.000000 5 364.029860
-0.348396 -1.054078 0.302244 8.000000 3 364.029863
-0.348636 -1.054187 0.192436 12.000000 1 364.029865
-0.379663 -1.144667 1.154897 42.000000 14 364.029873
-0.373660 -1.126560 0.947787 46.000000 12 364.029876
-0.369932 -1.114672 0.775493 39.000000 10 364.029878
-0.367749 -1.108084 0.627175 40.000000 8 364.029881
-0.364806 -1.098577 0.491800 37.000000 6 364.029883
-0.357150 -1.074892 0.363903 14.000000 4 364.029886
-0.349920 -1.052520 0.246719 14.000000 2 364.029889
-0.353156 -1.061634 0.138808 28.000000 0 364.029891
-0.090066 -0.141413 17.673601 30.000000 31 364.029902
-0.416642 -1.148974 7.769877 106.000000 28 364.029904
-0.501499 -1.378288 7.074864 24.000000 27 364.029907
-0.506770 -1.483859 5.056862 8.000000 25 364.029909
-0.446957 -1.332784 3.371267 13.000000 23 364.029912
-0.424184 -1.265598 2.512422 32.000000 21 364.029915
-0.407998 -1.217301 1.958230 37.000000 19 364.029917
-0.397944 -1.187296 1.575331 39.000000 17 364.029920
-0.302414 -0.775254 7.705500 119.000000 29 364.029930
-0.569640 -1.629939 6.680429 5.000000 26 364.029933
-0.476271 -1.412021 4.106586 10.000000 24 364.029935
-0.437179 -1.297610 2.893789 23.000000 22 364.029938
-0.416670 -1.237436 2.205907 35.000000 20 364.029940
-0.401925 -1.193640 1.741933 38.000000 18 364.029943
-0.392007 -1.164178 1.409979 39.000000 16 364.029945
-0.386336 -1.157344 1.278807 39.000000 15 364.029903
-0.379383 -1.136510 1.048154 45.000000 13 364.029906
-0.375581 -1.124465 0.861880 40.000000 11 364.029908
-0.372388 -1.114898 0.701593 40.000000 9 364.029911
-0.367624 -1.099997 0.556909 39.000000 7 364.029913
-0.356116 -1.064944 0.419794 26.000000 5 364.029916
-0.352073 -1.052855 0.302244 8.000000 3 364.029918
-0.352314 -1.052963 0.192436 12.000000 1 364.029921
-0.382468 -1.139795 1.151572 42.000000 14 364.029929
-0.377590 -1.125249 0.947787 48.000000 12 364.029931
-0.373821 -1.113374 0.775493 47.000000 10 364.029934
-0.371615 -1.106794 0.627175 40.000000 8 364.029936
-0.367135 -1.092820 0.490157 37.000000 6 364.029939
-0.360900 -1.073639 0.363903 14.000000 4 364.029941
-0.353592 -1.051293 0.246719 13.000000 2 364.029944
-0.356859 -1.060394 0.138808 28.000000 0 364.029947
-0.090511 -0.141026 17.663601 30.000000 31 364.029958
-0.420650 -1.147513 7.769877 106.000000 28 364.029961
-0.505252 -1.373663 7.060178 39.000000 27 364.029963
-0.790439 -2.288138 7.781516 4.000000 25 364.029966
-0.451606 -1.331216 3.371267 13.000000 23 364.029968
-0.428599 -1.264110 2.512422 32.000000 21 364.029971
-0.412245 -1.215869 1.958230 37.000000 19 364.029973
-0.402086 -1.185900 1.575331 39.000000 17 364.029976
-0.304983 -0.774247 7.705500 119.000000 29 364.029986
-0.576299 -1.631599 6.694946 6.000000 26 364.029989
-0.480950 -1.410433 4.106586 10.000000 24 364.029991
-0.441706 -1.296076 2.893789 22.000000 22 364.029994
-0.420987 -1.235974 2.205907 35.000000 20 364.029996
-0.406089 -1.192230 1.741933 39.000000 18 364.029999
-0.394773 -1.159663 1.406304 39.000000 16 364.030002
-0.390373 -1.155989 1.278807 39.000000 15 364.029959
-0.383348 -1.135178 1.048154 45.000000 13 364.029962
-0.379504 -1.123147 0.861880 40.000000 11 364.029964
-0.376277 -1.113591 0.701593 40.000000 9 364.029967
-0.371270 -1.098772 0.556909 39.000000 7 364.029970
-0.359645 -1.063757 0.419794 26.000000 5 364.029972
-0.355746 -1.051620 0.302244 8.000000 3 364.029975
-0.355987 -1.051727 0.192436 14.000000 1 364.029977
-0.386445 -1.138453 1.151572 42.000000 14 364.029985
-0.381515 -1.123924 0.947787 50.000000 12 364.029988
-0.377511 -1.112128 0.775493 45.000000 10 364.029990
-0.375283 -1.105555 0.627175 42.000000 8 364.029993
-0.370757 -1.091597 0.490157 37.000000 6 364.029995
-0.362894 -1.067834 0.362731 14.000000 4 364.029998
-0.357076 -1.050114 0.246719 14.000000 2 364.030000
-0.360374 -1.059205 0.138808 28.000000 0 364.030003
-0.090953 -0.140689 17.658602 31.000000 31 364.030014
-0.424453 -1.146112 7.769877 105.000000 28 364.030016
-0.509449 -1.371025 7.055283 38.000000 27 364.030019
-0.796545 -2.281274 7.767201 4.000000 25 364.030021
-0.455384 -1.327863 3.366665 13.000000 23 364.030024
-0.432789 -1.262681 2.512422 32.000000 21 364.030026
-0.415362 -1.211833 1.954097 37.000000 19 364.030029
-0.404977 -1.181527 1.571494 38.000000 17 364.030031
-0.307683 -0.773177 7.705500 118.000000 29 364.030042
-0.585376 -1.639053 6.733659 6.000000 26 364.030044
-0.485871 -1.408746 4.106586 10.000000 24 364.030047
-0.446002 -1.294604 2.893789 22.000000 22 364.030049
-0.425083 -1.234571 2.205907 35.000000 20 364.030052
-0.410041 -1.190876 1.741933 38.000000 18 364.030055
-0.398819 -1.158278 1.406304 39.000000 16 364.030057
-0.394204 -1.154688 1.278807 39.000000 15 364.030015
-0.387110 -1.133901 1.048154 45.000000 13 364.030017
-0.383226 -1.121883 0.861880 43.000000 11 364.030020
-0.379968 -1.112337 0.701593 40.000000 9 364.030022
-0.373604 -1.093082 0.555036 39.000000 7 364.030025
-0.363356 -1.062495 0.419794 26.000000 5 364.030028
-0.359232 -1.050434 0.302244 8.000000 3 364.030030
-0.361085 -1.055253 0.192882 13.000000 1 364.030033
-0.390218 -1.137165 1.151572 42.000000 14 364.030040
-0.385240 -1.122653 0.947787 48.000000 12 364.030043
-0.381391 -1.110803 0.775493 45.000000 10 364.030046
-0.379140 -1.104239 0.627175 42.000000 8 364.030048
-0.374565 -1.090296 0.490157 37.000000 6 364.030051
-0.366619 -1.066561 0.362731 14.000000 4 364.030053
-0.362350 -1.053544 0.247409 14.000000 2 364.030056
-0.364069 -1.057941 0.138808 28.000000 0 364.030058
-0.091394 -0.140298 17.648602 31.000000 31 364.030069
-0.428451 -1.144623 7.769877 105.000000 28 364.030072
-0.513874 -1.368286 7.050388 37.000000 27 364.030074
-0.804503 -2.278480 7.767201 4.000000 25 364.030077
-0.460017 -1.326265 3.366665 12.000000 23 364.030079
-0.437194 -1.261163 2.512422 32.000000 21 364.030082
-0.419590 -1.210376 1.954097 37.000000 19 364.030084
-0.409099 -1.180107 1.571494 38.000000 17 364.030087
-0.310380 -0.772099 7.705500 118.000000 29 364.030097
-0.597503 -1.654745 6.806248 9.000000 26 364.030100
-0.490217 -1.405412 4.101892 10.000000 24 364.030102
-0.450518 -1.293039 2.893789 22.000000 22 364.030105
-0.429390 -1.233080 2.205907 35.000000 20 364.030108
-0.414195 -1.189438 1.741933 38.000000 18 364.030110
-0.402860 -1.156879 1.406304 39.000000 16 364.030113
-0.398233 -1.153305 1.278807 39.000000 15 364.030070
-0.391066 -1.132543 1.048154 45.000000 13 364.030073
-0.387140 -1.120538 0.861880 42.000000 11 364.030075
-0.383849 -1.111004 0.701593 40.000000 9 364.030078
-0.377417 -1.091772 0.555036 39.000000 7 364.030081
-0.367063 -1.061220 0.419794 26.000000 5 364.030083
-0.362896 -1.049174 0.302244 8.000000 3 364.030086
-0.364767 -1.053986 0.192882 12.000000 1 364.030088
-0.394185 -1.135796 1.151572 42.000000 14 364.030096
-0.389157 -1.121301 0.947787 48.000000 12 364.030099
-0.385266 -1.109465 0.775493 45.000000 10 364.030101
-0.382992 -1.102908 0.627175 42.000000 8 364.030104
-0.378369 -1.088982 0.490157 36.000000 6 364.030106
-0.370340 -1.065275 0.362731 14.000000 4 364.030109
-0.366026 -1.052273 0.247409 14.000000 2 364.030111
-0.367760 -1.056664 0.138808 28.000000 0 364.030114
-0.091884 -0.139978 17.648602 31.000000 31 364.030125
