# .PCD v.7 - Point Cloud Data file format
VERSION .7
FIELDS x y z intensity ring timestamp
SIZE 4 4 4 4 2 8
TYPE F F F F U D
COUNT 1 1 1 1 1 1
WIDTH 934
HEIGHT 1
VIEWPOINT 0 0 0 1 0 0 0
POINTS 934
DATA ascii
-1.793884 2.292749 3.928178 9.000000 18 365.063964
-1.765977 2.257085 3.185083 7.000000 16 365.063966
-1.638543 2.082952 2.684130 12.000000 15 365.063924
-0.232948 0.296122 0.386083 7.000000 13 365.063927
-0.239146 0.304111 0.338260 7.000000 11 365.063929
-0.247353 0.314552 0.295938 7.000000 9 365.063932
-0.246899 0.314086 0.249732 10.000000 7 365.063934
-0.249192 0.317118 0.208415 10.000000 5 365.063937
-0.254945 0.324439 0.169812 13.000000 3 365.063939
-2.153274 2.741238 0.405278 10.000000 1 365.063942
-0.227997 0.290763 0.410131 8.000000 14 365.063950
-0.231065 0.294679 0.356211 11.000000 12 365.063952
-0.235157 0.300006 0.309526 7.000000 10 365.063955
-0.238673 0.304496 0.266310 8.000000 8 365.063957
-0.245010 0.312693 0.227327 10.000000 6 365.063960
-0.248859 0.317720 0.188055 10.000000 4 365.063962
-3.000979 3.832794 0.770289 14.000000 2 365.063965
-2.170707 2.773383 0.235745 9.000000 0 365.063968
-0.023774 0.046886 4.474103 100.000000 31 365.063978
-0.956074 1.291404 10.214809 8.000000 28 365.063981
-0.958601 1.297637 7.779777 7.000000 27 365.063983
-1.165215 1.513436 6.149587 8.000000 25 365.063986
-1.286261 1.651647 4.991356 6.000000 23 365.063988
-1.599190 2.052746 4.834024 10.000000 21 365.063991
-1.788604 2.295888 4.347075 9.000000 19 365.063994
-1.746799 2.242231 3.478455 7.000000 17 365.063996
-0.151210 0.226229 4.531810 100.000000 30 365.064004
-0.637957 0.906793 10.280690 11.000000 29 365.064006
-1.074743 1.416637 6.878836 9.000000 26 365.064009
-1.169581 1.507233 5.242235 9.000000 24 365.064012
-1.371406 1.766067 4.685121 4.000000 22 365.064014
-1.597763 2.056836 4.330343 9.000000 20 365.064017
-1.789568 2.303758 3.936157 9.000000 18 365.064019
-1.756008 2.260558 3.181408 7.000000 16 365.064022
-1.651018 2.113954 2.715671 13.000000 15 365.063979
-0.231912 0.296933 0.386083 7.000000 13 365.063982
-0.238083 0.304943 0.338260 7.000000 11 365.063985
-0.246254 0.315413 0.295938 7.000000 9 365.063987
-0.245801 0.314946 0.249732 10.000000 7 365.063990
-0.248084 0.317986 0.208415 9.000000 5 365.063992
-0.253811 0.325327 0.169812 14.000000 3 365.063995
-2.131442 2.733029 0.403493 10.000000 1 365.063997
-0.226980 0.291557 0.410131 8.000000 14 365.064005
-0.230034 0.295484 0.356211 11.000000 12 365.064008
-0.234108 0.300825 0.309526 7.000000 10 365.064010
-0.237609 0.305328 0.266310 8.000000 8 365.064013
-0.243917 0.313546 0.227327 10.000000 6 365.064015
-0.247748 0.318587 0.188055 9.000000 4 365.064018
-2.996700 3.854976 0.772359 14.000000 2 365.064021
-2.145686 2.761218 0.234737 8.000000 0 365.064023
-0.023610 0.046969 4.474103 100.000000 31 365.064034
-0.953401 1.297238 10.234566 9.000000 28 365.064036
-0.951658 1.297690 7.760196 7.000000 27 365.064039
-1.156297 1.512748 6.130500 8.000000 25 365.064041
-1.280488 1.656127 4.991356 5.000000 23 365.064044
-1.770249 2.288762 4.322277 8.000000 19 365.064049
-1.750730 2.263530 3.501477 7.000000 17 365.064052
-0.150419 0.226755 4.531810 99.000000 30 365.064059
-0.634483 0.908576 10.275719 11.000000 29 365.064062
-1.066765 1.416361 6.859479 9.000000 26 365.064065
-1.137984 1.477130 5.124916 17.000000 24 365.064067
-1.328004 1.722552 4.559098 7.000000 22 365.064070
-1.590574 2.062401 4.330343 9.000000 20 365.064072
-1.788878 2.319537 3.952115 9.000000 18 365.064075
-1.756388 2.277412 3.196109 8.000000 16 365.064077
-0.228489 0.294664 0.382946 7.000000 13 365.064038
-0.237017 0.305773 0.338260 7.000000 11 365.064040
-0.245151 0.316271 0.295938 7.000000 9 365.064043
-0.244700 0.315802 0.249732 10.000000 7 365.064045
-0.246972 0.318850 0.208415 9.000000 5 365.064048
-0.249666 0.322327 0.168880 18.000000 3 365.064050
-2.106644 2.720765 0.401262 10.000000 1 365.064053
-0.228245 0.295302 0.413455 8.000000 14 365.064061
-0.226530 0.293087 0.353268 10.000000 12 365.064063
-0.230421 0.298229 0.306994 7.000000 10 365.064066
-0.239316 0.309747 0.268408 8.000000 8 365.064068
-0.242821 0.314396 0.227327 10.000000 6 365.064071
-0.243664 0.315602 0.186883 9.000000 4 365.064073
-2.983225 3.865413 0.772359 13.000000 2 365.064076
-2.120776 2.748914 0.233729 9.000000 0 365.064079
-0.023446 0.047051 4.474103 100.000000 31 365.064089
-0.949782 1.301813 10.244445 9.000000 28 365.064092
-0.945325 1.298534 7.745511 7.000000 27 365.064094
-1.147398 1.512015 6.111413 8.000000 25 365.064097
-1.277078 1.663686 5.000561 5.000000 23 365.064099
-1.933547 2.518002 5.882914 6.000000 21 365.064102
-1.751966 2.281535 4.297479 7.000000 19 365.064104
-1.752581 2.282341 3.520662 7.000000 17 365.064107
-0.149627 0.227279 4.531810 99.000000 30 365.064115
-0.631003 0.910347 10.270747 10.000000 29 365.064117
-1.059555 1.417054 6.844961 9.000000 26 365.064120
-1.126530 1.472870 5.096759 22.000000 24 365.064122
-1.318012 1.721989 4.545595 11.000000 22 365.064125
-1.583365 2.067941 4.330343 9.000000 20 365.064127
-1.780771 2.325767 3.952115 9.000000 18 365.064130
-1.748427 2.283530 3.196109 8.000000 16 365.064133
-1.853763 2.408017 3.066125 10.000000 15 365.064090
-0.227459 0.295460 0.382946 7.000000 13 365.064093
-0.235948 0.306598 0.338260 7.000000 11 365.064095
-0.241344 0.313614 0.293620 7.000000 9 365.064098
-0.246423 0.320329 0.251605 10.000000 7 365.064101
-0.245858 0.319710 0.208415 10.000000 5 365.064103
-0.248539 0.323197 0.168880 17.000000 3 365.064106
-2.084994 2.712308 0.399478 10.000000 1 365.064108
-0.227213 0.296097 0.413455 8.000000 14 365.064116
-0.225505 0.293876 0.353268 9.000000 12 365.064119
-0.229379 0.299031 0.306994 7.000000 10 365.064121
-0.238234 0.310580 0.268408 8.000000 8 365.064124
-0.241722 0.315242 0.227327 10.000000 6 365.064126
-0.242561 0.316451 0.186883 9.000000 4 365.064129
-2.939595 3.836493 0.765461 10.000000 2 365.064131
-2.095978 2.736469 0.232722 11.000000 0 365.064134
-0.023281 0.047133 4.474103 100.000000 31 365.064145
-0.946599 1.307009 10.259263 10.000000 28 365.064147
-0.938402 1.298524 7.725929 7.000000 27 365.064150
-1.138519 1.511239 6.092326 8.000000 25 365.064152
-1.265342 1.660364 4.977549 6.000000 23 365.064155
-1.930556 2.532357 5.900469 6.000000 21 365.064157
-1.754321 2.301193 3.539846 7.000000 17 365.064162
-0.148832 0.227800 4.531810 100.000000 30 365.064170
-0.627519 0.912104 10.265776 10.000000 29 365.064173
-1.051604 1.416704 6.825604 9.000000 26 365.064175
-1.121382 1.476793 5.096759 23.000000 24 365.064178
-1.302770 1.714441 4.514089 10.000000 22 365.064180
-1.582450 2.081760 4.347406 9.000000 20 365.064183
-1.772641 2.331969 3.952115 9.000000 18 365.064186
-1.744549 2.295017 3.203459 8.000000 16 365.064188
-1.847512 2.417307 3.069630 10.000000 15 365.064146
-0.226426 0.296252 0.382946 7.000000 13 365.064148
-0.232338 0.304097 0.335519 7.000000 11 365.064151
-0.240248 0.314454 0.293620 7.000000 9 365.064153
-0.245303 0.321187 0.251605 10.000000 7 365.064156
-0.244740 0.320566 0.208415 10.000000 5 365.064159
-0.247409 0.324062 0.168880 11.000000 3 365.064161
-2.063428 2.703734 0.397693 11.000000 1 365.064164
-0.226178 0.296888 0.413455 8.000000 14 365.064171
-0.224478 0.294661 0.353268 8.000000 12 365.064174
-0.228333 0.299830 0.306994 7.000000 10 365.064177
-0.234398 0.307799 0.266310 9.000000 8 365.064179
-0.240620 0.316083 0.227327 10.000000 6 365.064182
-0.241455 0.317296 0.186883 10.000000 4 365.064184
-2.911194 3.827024 0.762012 7.000000 2 365.064187
-2.074317 2.727861 0.231916 11.000000 0 365.064189
-0.023117 0.047214 4.474103 100.000000 31 365.064200
-0.942485 1.310936 10.264202 10.000000 28 365.064203
-0.932083 1.299309 7.711244 7.000000 27 365.064205
-1.130554 1.511616 6.078011 8.000000 25 365.064208
-1.256003 1.660097 4.963741 6.000000 23 365.064210
-1.595042 2.107473 3.954444 9.000000 19 365.064215
-1.754017 2.317527 3.555194 8.000000 17 365.064218
-0.148036 0.228318 4.531810 99.000000 30 365.064226
-0.624332 0.914289 10.265776 10.000000 29 365.064228
-1.043668 1.416315 6.806248 9.000000 26 365.064231
-1.113104 1.476564 5.082681 24.000000 24 365.064233
-1.292544 1.713988 4.500587 10.000000 22 365.064236
-1.767712 2.343263 3.960094 9.000000 18 365.064241
-1.738167 2.304102 3.207134 8.000000 16 365.064244
-1.839063 2.423741 3.069630 10.000000 15 365.064201
-0.225391 0.297041 0.382946 7.000000 13 365.064204
-0.231275 0.304906 0.335519 7.000000 11 365.064206
-0.239149 0.315291 0.293620 7.000000 9 365.064209
-0.244181 0.322042 0.251605 10.000000 7 365.064212
-0.243620 0.321419 0.208415 10.000000 5 365.064214
-0.243253 0.321051 0.167947 8.000000 3 365.064217
-2.041477 2.695399 0.395908 10.000000 1 365.064219
-0.225088 0.297715 0.413455 8.000000 14 365.064227
-0.220959 0.292258 0.350325 8.000000 12 365.064230
-0.227233 0.300665 0.306994 7.000000 10 365.064232
-0.233269 0.308656 0.266310 9.000000 8 365.064235
-0.236613 0.313195 0.225685 10.000000 6 365.064237
-0.240291 0.318178 0.186883 10.000000 4 365.064240
-2.046722 2.711161 0.230706 11.000000 0 365.064245
-0.022944 0.047298 4.474103 100.000000 31 365.064256
-0.936771 1.313117 10.254324 10.000000 28 365.064258
-0.924954 1.299398 7.691663 6.000000 27 365.064261
-1.121445 1.510952 6.058924 8.000000 25 365.064263
-1.245218 1.658440 4.945331 6.000000 23 365.064266
-1.328234 1.768373 4.118672 8.000000 21 365.064268
-1.578857 2.102055 3.933779 11.000000 19 365.064271
-1.751287 2.331631 3.566705 8.000000 17 365.064273
-0.147198 0.228859 4.531810 100.000000 30 365.064281
-0.619780 0.914802 10.245891 10.000000 29 365.064284
-1.035500 1.416069 6.786891 10.000000 26 365.064286
-1.104583 1.476488 5.068602 17.000000 24 365.064289
-1.282638 1.713260 4.487084 10.000000 22 365.064291
-1.739648 2.322882 3.916209 8.000000 18 365.064297
-1.734178 2.315582 3.214485 8.000000 16 365.064299
-1.834458 2.436163 3.076639 10.000000 15 365.064257
-0.224301 0.297865 0.382946 7.000000 13 365.064259
-0.227641 0.302411 0.332778 7.000000 11 365.064262
-0.237992 0.316166 0.293620 8.000000 9 365.064265
-0.240211 0.319230 0.249732 10.000000 7 365.064267
-0.242440 0.322309 0.208415 9.000000 5 365.064270
-0.242131 0.321899 0.167947 7.000000 3 365.064272
-2.023077 2.690568 0.394569 11.000000 1 365.064275
-0.224048 0.298499 0.413455 7.000000 14 365.064283
-0.219938 0.293027 0.350325 8.000000 12 365.064285
-0.226182 0.301457 0.306994 7.000000 10 365.064288
-0.232190 0.309469 0.266310 9.000000 8 365.064290
-0.235518 0.314019 0.225685 10.000000 6 365.064293
-0.239179 0.319015 0.186883 10.000000 4 365.064295
-2.013543 2.686663 0.559896 10.000000 2 365.064298
-2.036771 2.718645 0.230706 11.000000 0 365.064300
-0.022778 0.047378 4.474103 100.000000 31 365.064311
-0.930835 1.314476 10.239506 10.000000 28 365.064314
-0.918063 1.299292 7.672082 6.000000 27 365.064316
-1.113507 1.511250 6.044609 8.000000 25 365.064319
-1.235918 1.658077 4.931523 8.000000 23 365.064321
-1.322053 1.772999 4.118672 14.000000 21 365.064324
-1.576556 2.114321 3.946178 11.000000 19 365.064326
-1.746970 2.342870 3.574379 8.000000 17 365.064329
-0.146399 0.229371 4.531810 99.000000 30 365.064337
-0.614797 0.914300 10.216062 10.000000 29 365.064339
-1.027596 1.415603 6.767534 10.000000 26 365.064342
-1.096336 1.476179 5.054524 10.000000 24 365.064344
-1.271453 1.710735 4.469080 9.000000 22 365.064347
-2.171731 2.921021 6.023919 9.000000 20 365.064350
-1.693766 2.278148 3.832430 7.000000 18 365.064352
-1.730130 2.327063 3.221835 9.000000 16 365.064355
-1.823807 2.439695 3.073134 10.000000 15 365.064312
-0.223260 0.298646 0.382946 7.000000 13 365.064315
-0.226584 0.303204 0.332778 7.000000 11 365.064317
-0.236887 0.316994 0.293620 8.000000 9 365.064320
-0.239095 0.320067 0.249732 10.000000 7 365.064323
-0.241314 0.323154 0.208415 9.000000 5 365.064325
-0.241006 0.322742 0.167947 7.000000 3 365.064328
-1.963031 2.629770 0.386984 39.000000 1 365.064330
-0.223004 0.299279 0.413455 7.000000 14 365.064338
-0.218913 0.293793 0.350325 8.000000 12 365.064341
-0.225128 0.302244 0.306994 7.000000 10 365.064343
-0.231108 0.310277 0.266310 9.000000 8 365.064346
-0.231601 0.311052 0.224042 10.000000 6 365.064348
-0.238064 0.319848 0.186883 10.000000 4 365.064351
-1.968679 2.645997 0.551618 16.000000 2 365.064353
-1.982546 2.665607 0.227683 11.000000 0 365.064356
-0.022613 0.047457 4.474103 100.000000 31 365.064367
-0.924901 1.315810 10.224689 9.000000 28 365.064369
-0.911184 1.299154 7.652501 6.000000 27 365.064372
-1.106461 1.512717 6.035066 8.000000 25 365.064374
-1.224313 1.654529 4.908511 8.000000 23 365.064377
-1.311580 1.771826 4.105506 14.000000 21 365.064379
-1.569167 2.119811 3.946178 11.000000 19 365.064382
-1.736874 2.346377 3.570542 9.000000 17 365.064385
-0.145597 0.229881 4.531810 100.000000 30 365.064392
-0.610121 0.914219 10.191205 10.000000 29 365.064395
-1.019707 1.415100 6.748178 11.000000 26 365.064397
-1.089129 1.477219 5.045139 7.000000 24 365.064400
-1.261595 1.709906 4.455578 9.000000 22 365.064403
-2.156876 2.922288 6.011121 10.000000 20 365.064405
-1.612421 2.184622 3.668860 8.000000 18 365.064408
-1.726023 2.338543 3.229185 9.000000 16 365.064410
-1.817405 2.448911 3.076639 11.000000 15 365.064368
-0.222216 0.299424 0.382946 7.000000 13 365.064370
-0.225525 0.303993 0.332778 7.000000 11 365.064373
-0.235779 0.317819 0.293620 8.000000 9 365.064376
-0.235215 0.317176 0.247859 10.000000 7 365.064378
-0.240184 0.323994 0.208415 9.000000 5 365.064381
-0.239878 0.323581 0.167947 7.000000 3 365.064383
-1.918259 2.588592 0.381629 68.000000 1 365.064386
-0.219737 0.297054 0.410131 8.000000 14 365.064394
-0.217887 0.294556 0.350325 8.000000 12 365.064396
-0.221509 0.299562 0.304461 7.000000 10 365.064399
-0.230024 0.311082 0.266310 9.000000 8 365.064401
-0.230513 0.311858 0.224042 10.000000 6 365.064404
-0.236946 0.320677 0.186883 10.000000 4 365.064406
-1.947662 2.636920 0.548859 15.000000 2 365.064409
-1.931685 2.616243 0.224862 77.000000 0 365.064411
-0.022447 0.047536 4.474103 100.000000 31 365.064422
-0.918969 1.317118 10.209870 9.000000 28 365.064425
-0.904318 1.298983 7.632920 6.000000 27 365.064427
-1.098542 1.512944 6.020751 8.000000 25 365.064430
-1.213904 1.652495 4.890100 8.000000 23 365.064432
-1.302550 1.772532 4.096729 12.000000 21 365.064435
-1.586752 2.159290 4.008173 10.000000 19 365.064437
-1.726775 2.349842 3.566705 8.000000 17 365.064440
-0.144794 0.230388 4.531810 100.000000 30 365.064448
-0.605454 0.914117 10.166348 9.000000 29 365.064450
-1.012567 1.415581 6.733659 11.000000 26 365.064453
-1.081927 1.478227 5.035753 7.000000 24 365.064455
-1.253045 1.710786 4.446577 10.000000 22 365.064458
-2.140496 2.921385 5.994057 9.000000 20 365.064461
-1.563815 2.134319 3.577102 10.000000 18 365.064463
-1.721857 2.350023 3.236536 9.000000 16 365.064466
-1.808846 2.455240 3.076639 11.000000 15 365.064423
-0.218860 0.297063 0.379808 7.000000 13 365.064426
-0.224462 0.304778 0.332778 7.000000 11 365.064429
-0.234668 0.318640 0.293620 8.000000 9 365.064431
-0.234107 0.317995 0.247859 10.000000 7 365.064434
-0.236208 0.320967 0.207006 9.000000 5 365.064436
-0.238747 0.324416 0.167947 7.000000 3 365.064439
-1.891505 2.571203 0.378952 74.000000 1 365.064441
-0.218699 0.297819 0.410131 8.000000 14 365.064449
-0.216857 0.295314 0.350325 8.000000 12 365.064452
-0.220462 0.300333 0.304461 7.000000 10 365.064454
-0.228936 0.311883 0.266310 9.000000 8 365.064457
-0.229423 0.312661 0.224042 10.000000 6 365.064459
-0.235825 0.321502 0.186883 10.000000 4 365.064462
-1.926733 2.627728 0.546099 15.000000 2 365.064464
-1.904820 2.598794 0.223653 87.000000 0 365.064467
-0.022281 0.047614 4.474103 100.000000 31 365.064478
-0.913481 1.319040 10.199991 8.000000 28 365.064480
-0.897463 1.298781 7.613339 6.000000 27 365.064483
-1.089761 1.511923 6.001664 8.000000 25 365.064485
-1.203524 1.650408 4.871691 8.000000 23 365.064488
-1.292119 1.771262 4.083563 11.000000 21 365.064490
-1.718562 2.355855 3.566705 8.000000 17 365.064496
-0.143989 0.230892 4.531810 100.000000 30 365.064503
-0.600794 0.913993 10.141491 9.000000 29 365.064506
-1.005435 1.416030 6.719142 11.000000 26 365.064508
-1.075746 1.480598 5.031060 6.000000 24 365.064511
-1.243224 1.709865 4.433074 10.000000 22 365.064514
-1.554583 2.137328 3.573113 10.000000 18 365.064519
-1.719626 2.364244 3.247561 9.000000 16 365.064521
-1.800264 2.461539 3.076639 11.000000 15 365.064479
-0.217822 0.297825 0.379808 7.000000 13 365.064481
-0.223397 0.305560 0.332778 7.000000 11 365.064484
-0.233554 0.319458 0.293620 8.000000 9 365.064487
-0.232995 0.318810 0.247859 10.000000 7 365.064489
-0.235086 0.321789 0.207006 10.000000 5 365.064492
-0.237613 0.325248 0.167947 7.000000 3 365.064494
-1.882518 2.577790 0.378952 76.000000 1 365.064497
-0.215459 0.295563 0.406806 8.000000 14 365.064505
-0.215825 0.296070 0.350325 8.000000 12 365.064507
-0.219412 0.301101 0.304461 7.000000 10 365.064510
-0.225174 0.309012 0.264212 9.000000 8 365.064512
-0.231111 0.317277 0.225685 10.000000 6 365.064515
-0.234701 0.322324 0.186883 9.000000 4 365.064517
-1.908806 2.622426 0.544030 14.000000 2 365.064520
-1.892798 2.601387 0.223451 94.000000 0 365.064523
-0.022099 0.047650 4.469104 100.000000 31 365.064533
-0.907552 1.320300 10.185174 7.000000 28 365.064536
-0.890621 1.298546 7.593758 6.000000 27 365.064538
-1.081870 1.512074 5.987348 8.000000 25 365.064541
-1.194318 1.649851 4.857882 8.000000 23 365.064543
-1.281713 1.769940 4.070397 10.000000 21 365.064546
-1.743287 2.407351 4.438000 8.000000 19 365.064549
-0.143182 0.231393 4.531810 100.000000 30 365.064559
-0.595269 0.912505 10.101720 9.000000 29 365.064561
-0.999037 1.417475 6.709464 11.000000 26 365.064564
-1.071581 1.485744 5.035753 6.000000 24 365.064567
-1.234699 1.710662 4.424073 9.000000 22 365.064569
-1.802497 2.496446 5.106743 6.000000 20 365.064572
-1.547113 2.142741 3.573113 11.000000 18 365.064574
-1.711362 2.370232 3.247561 8.000000 16 365.064577
-1.791661 2.467808 3.076639 11.000000 15 365.064534
-0.216781 0.298584 0.379808 7.000000 13 365.064537
-0.222329 0.306338 0.332778 7.000000 11 365.064540
-0.229835 0.316685 0.291302 8.000000 9 365.064542
-0.231881 0.319621 0.247859 10.000000 7 365.064545
-0.233962 0.322608 0.207006 10.000000 5 365.064547
-0.236476 0.326075 0.167947 7.000000 3 365.064550
-1.861816 2.568217 0.377167 78.000000 1 365.064552
-0.214426 0.296313 0.406806 8.000000 14 365.064560
-0.214790 0.296821 0.350325 8.000000 12 365.064563
-0.218360 0.301865 0.304461 7.000000 10 365.064565
-0.224094 0.309796 0.264212 9.000000 8 365.064568
-0.230002 0.318082 0.225685 10.000000 6 365.064570
-0.233575 0.323141 0.186883 9.000000 4 365.064573
-1.890939 2.617030 0.541960 14.000000 2 365.064575
-1.872005 2.591778 0.222645 87.000000 0 365.064578
-0.021933 0.047727 4.469104 100.000000 31 365.064589
-0.902938 1.323460 10.185174 7.000000 28 365.064591
-0.884938 1.299963 7.583968 6.000000 27 365.064594
-1.073126 1.510970 5.968261 8.000000 25 365.064596
-1.183992 1.647664 4.839473 8.000000 23 365.064599
-1.271332 1.768567 4.057231 10.000000 21 365.064601
-1.738159 2.417991 4.446265 6.000000 19 365.064604
-1.580443 2.198592 3.317304 8.000000 17 365.064607
-0.142373 0.231891 4.531810 100.000000 30 365.064614
-0.589181 0.910093 10.052005 9.000000 29 365.064617
-0.992641 1.418892 6.699785 10.000000 26 365.064619
-1.056342 1.475444 4.988825 7.000000 24 365.064622
-1.224915 1.709651 4.410570 9.000000 22 365.064625
-1.790733 2.498483 5.098211 5.000000 20 365.064627
-1.553670 2.167727 3.605029 11.000000 18 365.064630
-1.705053 2.378947 3.251236 8.000000 16 365.064632
-1.785121 2.476940 3.080143 11.000000 15 365.064590
-0.213461 0.296181 0.376670 7.000000 13 365.064593
-0.218814 0.303720 0.330036 7.000000 11 365.064595
-0.228729 0.317486 0.291302 8.000000 9 365.064598
-0.230764 0.320429 0.247859 10.000000 7 365.064600
-0.232834 0.323423 0.207006 10.000000 5 365.064603
-0.235337 0.326899 0.167947 7.000000 3 365.064605
-1.844113 2.562574 0.375828 73.000000 1 365.064608
-0.213390 0.297060 0.406806 8.000000 14 365.064616
-0.213753 0.297569 0.350325 8.000000 12 365.064618
-0.217305 0.302625 0.304461 7.000000 10 365.064621
-0.223011 0.310577 0.264212 9.000000 8 365.064623
-0.228890 0.318883 0.225685 10.000000 6 365.064626
-0.232445 0.323954 0.186883 10.000000 4 365.064628
-1.876020 2.615567 0.540581 14.000000 2 365.064631
-1.874590 2.614538 0.223451 38.000000 0 365.064634
-0.021766 0.047804 4.469104 96.000000 31 365.064644
-0.898748 1.327247 10.190113 8.000000 28 365.064647
-0.879255 1.301357 7.574177 7.000000 27 365.064649
-1.064403 1.509824 5.949174 8.000000 25 365.064652
-1.173695 1.645425 4.821063 8.000000 23 365.064654
-1.259584 1.765194 4.039676 9.000000 21 365.064657
-1.544827 2.164950 3.259750 11.000000 17 365.064662
-0.141563 0.232387 4.531810 99.000000 30 365.064670
-0.583406 0.908100 10.007262 9.000000 29 365.064672
-0.986247 1.420282 6.690107 10.000000 26 365.064675
-1.047187 1.473496 4.970054 8.000000 24 365.064678
-1.216416 1.710367 4.401568 10.000000 22 365.064680
-1.277028 1.794940 3.673388 5.000000 20 365.064683
-1.589774 2.234533 3.704766 11.000000 18 365.064685
-1.671190 2.348974 3.203459 9.000000 16 365.064688
-1.776464 2.483156 3.080143 11.000000 15 365.064645
-0.212426 0.296924 0.376670 7.000000 13 365.064648
-0.217753 0.304482 0.330036 7.000000 11 365.064651
-0.227619 0.318282 0.291302 7.000000 9 365.064653
-0.229644 0.321232 0.247859 10.000000 7 365.064656
-0.231704 0.324233 0.207006 9.000000 5 365.064658
-0.231338 0.323722 0.167014 7.000000 3 365.064661
-1.826473 2.556839 0.374490 73.000000 1 365.064663
-0.210184 0.294762 0.403481 8.000000 14 365.064671
-0.210366 0.295022 0.347382 8.000000 12 365.064674
-0.216247 0.303382 0.304461 7.000000 10 365.064676
-0.221925 0.311353 0.264212 9.000000 8 365.064679
-0.227776 0.319680 0.225685 10.000000 6 365.064681
-0.231313 0.324764 0.186883 10.000000 4 365.064684
-1.858262 2.609997 0.538511 14.000000 2 365.064687
-1.865453 2.621065 0.223451 38.000000 0 365.064689
-0.021599 0.047879 4.469104 96.000000 31 365.064700
-0.893676 1.329731 10.185174 9.000000 28 365.064702
-0.874140 1.303572 7.569282 7.000000 27 365.064705
-1.055702 1.508635 5.930088 8.000000 25 365.064707
-1.164558 1.644729 4.807255 8.000000 23 365.064710
-1.247876 1.761760 4.022122 9.000000 21 365.064713
-2.175031 3.070747 5.599358 5.000000 19 365.064715
-1.537260 2.170330 3.259750 10.000000 17 365.064718
-0.140751 0.232880 4.531810 99.000000 30 365.064725
-0.577652 0.906077 9.962521 9.000000 29 365.064728
-0.979856 1.421644 6.680429 8.000000 26 365.064731
-1.037064 1.470091 4.946591 11.000000 24 365.064733
-1.206670 1.709266 4.388066 10.000000 22 365.064736
-1.279782 1.812169 3.698984 15.000000 20 365.064738
-1.705407 2.414865 3.988020 11.000000 18 365.064741
-1.608222 2.277254 3.100554 10.000000 16 365.064743
-1.769850 2.492250 3.083648 10.000000 15 365.064701
-0.209135 0.294490 0.373532 7.000000 13 365.064704
-0.214268 0.301830 0.327295 7.000000 11 365.064706
-0.226506 0.319075 0.291302 7.000000 9 365.064709
-0.228521 0.322032 0.247859 10.000000 7 365.064711
-0.227795 0.321127 0.205596 9.000000 5 365.064714
-0.230207 0.324527 0.167014 7.000000 3 365.064716
-1.811776 2.555074 0.373597 78.000000 1 365.064719
-0.209153 0.295494 0.403481 8.000000 14 365.064727
-0.209335 0.295755 0.347382 8.000000 12 365.064729
-0.215187 0.304135 0.304461 7.000000 10 365.064732
-0.220837 0.312126 0.264212 9.000000 8 365.064734
-0.226659 0.320473 0.225685 10.000000 6 365.064737
-0.227372 0.321600 0.185711 10.000000 4 365.064739
-1.843424 2.608380 0.537132 15.000000 2 365.064742
-1.844761 2.611239 0.222645 61.000000 0 365.064745
-0.021432 0.047954 4.469104 100.000000 31 365.064756
-0.891184 1.336075 10.209870 9.000000 28 365.064759
-0.869021 1.305768 7.564387 7.000000 27 365.064761
-1.047873 1.508631 5.915772 8.000000 25 365.064764
-1.154316 1.642390 4.788845 8.000000 23 365.064766
-1.237585 1.760225 4.008956 9.000000 21 365.064769
-2.154588 3.064509 5.574560 7.000000 19 365.064771
-1.529675 2.175682 3.259750 10.000000 17 365.064774
-0.139937 0.233370 4.531810 99.000000 30 365.064782
-0.571920 0.904025 9.917778 9.000000 29 365.064784
-0.973468 1.422979 6.670750 8.000000 26 365.064787
-1.027967 1.468048 4.927820 18.000000 24 365.064789
-1.196947 1.708117 4.374564 9.000000 22 365.064792
-1.253987 1.788863 3.643527 8.000000 20 365.064794
-1.741947 2.484971 4.091747 7.000000 18 365.064797
-1.539938 2.196797 2.986624 12.000000 16 365.064800
-1.763194 2.501328 3.087152 10.000000 15 365.064757
-0.208105 0.295218 0.373532 7.000000 13 365.064760
-0.213213 0.302576 0.327295 7.000000 11 365.064762
-0.225391 0.319864 0.291302 8.000000 9 365.064765
-0.227396 0.322828 0.247859 10.000000 7 365.064768
-0.226673 0.321921 0.205596 10.000000 5 365.064770
-0.226244 0.321312 0.166082 7.000000 3 365.064773
-1.794247 2.549165 0.372259 78.000000 1 365.064775
-0.208121 0.296222 0.403481 8.000000 14 365.064783
-0.208301 0.296484 0.347382 8.000000 12 365.064786
-0.214124 0.304884 0.304461 7.000000 10 365.064788
-0.219746 0.312895 0.264212 8.000000 8 365.064791
-0.225539 0.321262 0.225685 10.000000 6 365.064793
-0.226248 0.322392 0.185711 9.000000 4 365.064796
-1.828619 2.606690 0.535752 15.000000 2 365.064798
-1.827030 2.605391 0.222041 61.000000 0 365.064801
-0.021279 0.048070 4.474103 100.000000 31 365.064812
-0.885229 1.337234 10.195052 9.000000 28 365.064814
-0.863336 1.307094 7.554596 7.000000 27 365.064817
-1.039210 1.507361 5.896686 8.000000 25 365.064819
-1.145223 1.641602 4.775037 8.000000 23 365.064822
-1.227320 1.758641 3.995790 8.000000 21 365.064824
-2.124552 3.044320 5.524965 6.000000 19 365.064827
-1.540418 2.207299 3.298119 10.000000 17 365.064829
-0.139122 0.233857 4.531810 100.000000 30 365.064837
-0.566492 0.902397 9.878007 9.000000 29 365.064840
-0.966375 1.423247 6.656232 7.000000 26 365.064842
-1.018897 1.465960 4.909049 29.000000 24 365.064845
-1.186949 1.707128 4.361061 9.000000 22 365.064847
-1.248911 1.795588 3.647793 7.000000 20 365.064850
-2.116604 3.043108 4.981406 5.000000 18 365.064853
-1.526069 2.194077 2.975599 13.000000 16 365.064855
-1.725829 2.466558 3.038089 9.000000 15 365.064813
-0.207074 0.295943 0.373532 7.000000 13 365.064815
-0.212156 0.303319 0.327295 7.000000 11 365.064818
-0.224273 0.320648 0.291302 7.000000 9 365.064820
-0.226267 0.323620 0.247859 10.000000 7 365.064823
-0.225548 0.322710 0.205596 9.000000 5 365.064826
-0.225065 0.322139 0.166082 7.000000 3 365.064828
-1.776337 2.543476 0.370920 77.000000 1 365.064831
-0.207034 0.296983 0.403481 8.000000 14 365.064838
-0.207213 0.297245 0.347382 8.000000 12 365.064841
-0.213005 0.305667 0.304461 7.000000 10 365.064844
-0.218598 0.313698 0.264212 8.000000 8 365.064846
-0.221660 0.318211 0.224042 10.000000 6 365.064849
-0.225065 0.323219 0.185711 9.000000 4 365.064851
-1.810565 2.601181 0.533683 15.000000 2 365.064854
-1.812216 2.603552 0.221638 72.000000 0 365.064856
-0.021103 0.048148 4.474103 100.000000 31 365.064867
-0.873073 1.329426 10.111085 8.000000 28 365.064870
-0.861328 1.314509 7.579072 7.000000 27 365.064872
-1.031149 1.507461 5.882370 9.000000 25 365.064875
-1.135863 1.640970 4.761230 8.000000 23 365.064877
-1.215410 1.755248 3.978235 8.000000 21 365.064880
-2.110177 3.047459 5.516699 4.000000 19 365.064882
-1.568819 2.265644 3.374858 10.000000 17 365.064885
-0.138264 0.234365 4.531810 100.000000 30 365.064893
-0.561771 0.902200 9.853149 9.000000 29 365.064895
-0.957639 1.421563 6.632036 7.000000 26 365.064898
-1.010578 1.465422 4.894970 31.000000 24 365.064900
-1.178509 1.707677 4.352059 9.000000 22 365.064903
-1.235227 1.789205 3.626463 8.000000 20 365.064906
-2.152201 3.117446 5.089122 7.000000 18 365.064908
-1.516475 2.196601 2.971924 13.000000 16 365.064911
-1.665933 2.399630 2.950475 9.000000 15 365.064868
-0.205987 0.296699 0.373532 7.000000 13 365.064871
-0.211043 0.304094 0.327295 7.000000 11 365.064873
-0.220571 0.317829 0.288984 7.000000 9 365.064876
-0.225080 0.324447 0.247859 10.000000 7 365.064879
-0.224363 0.323534 0.205596 9.000000 5 365.064881
-0.223939 0.322923 0.166082 7.000000 3 365.064884
-1.758936 2.537382 0.369581 77.000000 1 365.064886
-0.205996 0.297704 0.403481 8.000000 14 365.064894
-0.206174 0.297967 0.347382 8.000000 12 365.064897
-0.211936 0.306409 0.304461 7.000000 10 365.064899
-0.214920 0.310727 0.262114 9.000000 8 365.064902
-0.220548 0.318983 0.224042 10.000000 6 365.064904
-0.223935 0.324003 0.185711 10.000000 4 365.064907
-1.798660 2.603411 0.532993 15.000000 2 365.064909
-1.796983 2.601955 0.221234 39.000000 0 365.064912
-0.020934 0.048221 4.474103 100.000000 31 365.064923
-0.862490 1.323351 10.041935 7.000000 28 365.064925
-0.858954 1.320922 7.598654 7.000000 27 365.064928
-1.022525 1.506108 5.863284 8.000000 25 365.064930
-1.125702 1.638483 4.742820 8.000000 23 365.064933
-1.205205 1.753557 3.965069 8.000000 21 365.064935
-1.264332 1.839592 3.351033 6.000000 19 365.064938
-1.691642 2.461336 3.651118 9.000000 17 365.064940
-0.137445 0.234846 4.531810 99.000000 30 365.064948
-0.556937 0.901429 9.823320 9.000000 29 365.064951
-0.949875 1.420714 6.612679 7.000000 26 365.064953
-1.001557 1.463244 4.876199 34.000000 24 365.064956
-1.168849 1.706390 4.338556 9.000000 22 365.064958
-1.226026 1.789203 3.617932 8.000000 20 365.064961
-2.136195 3.117481 5.077154 8.000000 18 365.064964
-1.510714 2.204678 2.975599 13.000000 16 365.064966
-1.552323 2.252729 2.768239 11.000000 15 365.064924
-0.204951 0.297417 0.373532 7.000000 13 365.064926
-0.207608 0.301385 0.324553 7.000000 11 365.064929
-0.219460 0.318597 0.288984 8.000000 9 365.064932
-0.223946 0.325230 0.247859 10.000000 7 365.064934
-0.223233 0.324316 0.205596 10.000000 5 365.064937
-0.222811 0.323703 0.166082 7.000000 3 365.064939
-1.738777 2.527096 0.367797 74.000000 1 365.064942
-0.204955 0.298421 0.403481 8.000000 14 365.064950
-0.205133 0.298685 0.347382 8.000000 12 365.064952
-0.208425 0.303592 0.301929 7.000000 10 365.064955
-0.213834 0.311475 0.262114 9.000000 8 365.064957
-0.219434 0.319751 0.224042 10.000000 6 365.064960
-0.220053 0.320774 0.184538 10.000000 4 365.064962
-1.775558 2.589253 0.529544 15.000000 2 365.064965
-1.779416 2.595850 0.220630 39.000000 0 365.064967
-0.020766 0.048294 4.474103 100.000000 31 365.064978
-0.850694 1.315261 9.957968 7.000000 28 365.064981
-0.858201 1.329902 7.632920 6.000000 27 365.064983
-1.014758 1.505953 5.848968 8.000000 25 365.064986
-1.116674 1.637561 4.729012 8.000000 23 365.064988
-1.195027 1.751816 3.951903 8.000000 21 365.064991
-1.253146 1.837020 3.338635 14.000000 19 365.064993
-1.688460 2.475171 3.662629 8.000000 17 365.064996
-0.136624 0.235324 4.531810 99.000000 30 365.065004
-0.553787 0.903368 9.823320 10.000000 29 365.065006
-0.941434 1.418780 6.588483 7.000000 26 365.065009
-0.992565 1.461022 4.857428 40.000000 24 365.065011
-1.159212 1.705057 4.325054 9.000000 22 365.065014
-1.213906 1.784846 3.600868 8.000000 20 365.065017
-2.108350 3.099996 5.037259 5.000000 18 365.065019
-1.531607 2.251986 3.030726 12.000000 16 365.065022
-1.518277 2.219867 2.722680 14.000000 15 365.064979
-0.206109 0.301344 0.376670 7.000000 13 365.064982
-0.206554 0.302108 0.324553 7.000000 11 365.064984
-0.218347 0.319361 0.288984 8.000000 9 365.064987
-0.220193 0.322183 0.245986 10.000000 7 365.064990
-0.222099 0.325093 0.205596 10.000000 5 365.064992
-0.221679 0.324479 0.166082 8.000000 3 365.064995
-1.721520 2.520813 0.366458 70.000000 1 365.064997
-0.203912 0.299135 0.403481 8.000000 14 365.065005
-0.204089 0.299399 0.347382 8.000000 12 365.065008
-0.207364 0.304318 0.301929 7.000000 10 365.065010
-0.210190 0.308469 0.260016 9.000000 8 365.065013
-0.218316 0.320515 0.224042 10.000000 6 365.065015
-0.218932 0.321540 0.184538 9.000000 4 365.065018
-1.758150 2.583153 0.527474 15.000000 2 365.065020
-1.767533 2.597915 0.220428 35.000000 0 365.065023
-0.020583 0.048325 4.469104 100.000000 31 365.065034
-0.833093 1.297948 9.804852 6.000000 28 365.065036
-0.856847 1.338035 7.662292 6.000000 27 365.065039
-1.007005 1.505761 5.834653 8.000000 25 365.065041
-1.107666 1.636595 4.715205 8.000000 23 365.065044
-1.184875 1.750025 3.938737 9.000000 21 365.065046
-1.234105 1.822742 3.305571 13.000000 19 365.065049
-1.701378 2.512906 3.708672 5.000000 17 365.065052
-0.135802 0.235800 4.531810 100.000000 30 365.065059
-0.550076 0.904383 9.813377 10.000000 29 365.065062
-0.932325 1.415755 6.559448 8.000000 26 365.065064
-0.981670 1.455893 4.829272 66.000000 24 365.065067
-1.149599 1.703677 4.311552 9.000000 22 365.065070
-1.203291 1.782587 3.588070 9.000000 20 365.065072
-1.571155 2.327567 3.122606 10.000000 16 365.065077
-1.508516 2.222203 2.719175 16.000000 15 365.065035
-0.205056 0.302061 0.376670 7.000000 13 365.065037
-0.205499 0.302827 0.324553 7.000000 11 365.065040
-0.214743 0.316455 0.286666 8.000000 9 365.065043
-0.219067 0.322949 0.245986 10.000000 7 365.065045
-0.220963 0.325866 0.205596 10.000000 5 365.065048
-0.220545 0.325250 0.166082 8.000000 3 365.065050
-1.704327 2.514439 0.365119 69.000000 1 365.065053
-0.202867 0.299845 0.403481 8.000000 14 365.065061
-0.203043 0.300109 0.347382 8.000000 12 365.065063
-0.206301 0.305040 0.301929 7.000000 10 365.065066
-0.209112 0.309201 0.260016 9.000000 8 365.065068
-0.217196 0.321275 0.224042 10.000000 6 365.065071
-0.217808 0.322303 0.184538 8.000000 4 365.065073
-1.726945 2.556446 0.521956 14.000000 2 365.065076
-1.744475 2.583367 0.219421 35.000000 0 365.065078
-0.020414 0.048396 4.469104 100.000000 31 365.065089
-0.818960 1.285773 9.691248 5.000000 28 365.065092
-0.855446 1.346175 7.691663 6.000000 27 365.065094
-0.998439 1.504289 5.815566 8.000000 25 365.065097
-1.097589 1.633964 4.696795 8.000000 23 365.065099
-1.174750 1.748185 3.925571 9.000000 21 365.065102
-1.224595 1.822367 3.297305 13.000000 19 365.065104
-2.057364 3.061662 4.491409 5.000000 17 365.065107
-0.134978 0.236273 4.531810 100.000000 30 365.065115
-0.546916 0.906297 9.813377 10.000000 29 365.065117
-0.924626 1.414788 6.540092 8.000000 26 365.065120
-0.980421 1.465047 4.848042 80.000000 24 365.065122
-1.140010 1.702251 4.298049 9.000000 22 365.065125
-1.191255 1.778110 3.571006 9.000000 20 365.065128
-1.241186 1.852643 3.026551 9.000000 18 365.065130
-1.672462 2.496394 3.335765 8.000000 16 365.065133
-1.500750 2.227455 2.719175 16.000000 15 365.065090
-0.201825 0.299547 0.373532 7.000000 13 365.065093
-0.204440 0.303543 0.324553 7.000000 11 365.065096
-0.213637 0.317203 0.286666 8.000000 9 365.065098
-0.217939 0.323712 0.245986 10.000000 7 365.065101
-0.219824 0.326635 0.205596 9.000000 5 365.065103
-0.219409 0.326018 0.166082 8.000000 3 365.065106
-1.689980 2.512109 0.364227 69.000000 1 365.065108
-0.199737 0.297451 0.400156 8.000000 14 365.065116
-0.201994 0.300816 0.347382 8.000000 12 365.065119
-0.205235 0.305758 0.301929 7.000000 10 365.065121
-0.208031 0.309929 0.260016 9.000000 8 365.065124
-0.213442 0.318110 0.222399 10.000000 6 365.065126
-0.216682 0.323061 0.184538 8.000000 4 365.065129
-1.671129 2.492533 0.510229 11.000000 2 365.065131
-1.721540 2.568690 0.218413 39.000000 0 365.065134
-0.020245 0.048467 4.469104 100.000000 31 365.065145
-0.799943 1.265632 9.518374 5.000000 28 365.065147
-0.853999 1.354321 7.721034 6.000000 27 365.065150
-0.990717 1.504023 5.801251 8.000000 25 365.065152
-1.088628 1.632909 4.682987 7.000000 23 365.065155
-1.164653 1.746296 3.912405 9.000000 21 365.065157
-1.215104 1.821948 3.289039 12.000000 19 365.065160
-2.101806 3.151507 4.610354 6.000000 17 365.065163
-0.134152 0.236742 4.531810 99.000000 30 365.065170
-0.543475 0.907743 9.808406 11.000000 29 365.065173
-0.916944 1.413786 6.520734 8.000000 26 365.065175
-0.982939 1.479961 4.885585 65.000000 24 365.065178
-1.130444 1.700779 4.284546 9.000000 22 365.065181
-1.180709 1.775742 3.558208 9.000000 20 365.065183
-1.226367 1.844416 3.006604 12.000000 18 365.065186
-1.663738 2.502217 3.335765 8.000000 16 365.065188
-1.502877 2.247503 2.736698 15.000000 15 365.065146
-0.200778 0.300249 0.373532 7.000000 13 365.065148
-0.203379 0.304255 0.324553 7.000000 11 365.065151
-0.212528 0.317947 0.286666 8.000000 9 365.065154
-0.216808 0.324471 0.245986 10.000000 7 365.065156
-0.218683 0.327401 0.205596 9.000000 5 365.065159
-0.218269 0.326782 0.166082 8.000000 3 365.065161
-1.672905 2.505568 0.362888 67.000000 1 365.065164
-0.198698 0.298146 0.400156 8.000000 14 365.065172
-0.200943 0.301520 0.347382 8.000000 12 365.065174
-0.204166 0.306473 0.301929 7.000000 10 365.065177
-0.206948 0.310653 0.260016 9.000000 8 365.065179
-0.212330 0.318853 0.222399 10.000000 6 365.065182
-0.215553 0.323815 0.184538 8.000000 4 365.065184
-1.621268 2.436508 0.499882 11.000000 2 365.065187
-1.712563 2.574684 0.218413 39.000000 0 365.065190
-0.020090 0.048579 4.474103 100.000000 31 365.065200
-0.791394 1.261833 9.468982 5.000000 28 365.065203
-0.852506 1.362474 7.750405 6.000000 27 365.065205
-0.982193 1.502472 5.782164 8.000000 25 365.065208
-1.078609 1.630182 4.664577 8.000000 23 365.065210
-1.154583 1.744357 3.899239 8.000000 21 365.065213
-1.205631 1.821486 3.280774 10.000000 19 365.065216
-2.051865 3.100011 4.525942 5.000000 17 365.065218
-0.133325 0.237209 4.531810 100.000000 30 365.065226
-0.540303 0.909634 9.808406 11.000000 29 365.065228
-0.909281 1.412747 6.501378 8.000000 26 365.065231
-1.001510 1.519404 5.002904 32.000000 24 365.065234
-1.122103 1.701079 4.275545 9.000000 22 365.065236
-1.168758 1.771145 3.541145 9.000000 20 365.065239
-1.216602 1.843654 2.998625 11.000000 18 365.065241
-1.669931 2.530646 3.365166 11.000000 16 365.065244
-0.199729 0.300948 0.373532 7.000000 13 365.065204
-0.202316 0.304963 0.324553 7.000000 11 365.065207
-0.211417 0.318686 0.286666 8.000000 9 365.065209
-0.215674 0.325226 0.245986 10.000000 7 365.065212
-0.217538 0.328162 0.205596 10.000000 5 365.065214
-0.217127 0.327542 0.166082 8.000000 3 365.065217
-1.655896 2.498938 0.361550 65.000000 1 365.065219
-0.197656 0.298838 0.400156 8.000000 14 365.065227
-0.202119 0.305591 0.350325 8.000000 12 365.065230
-0.203095 0.307184 0.301929 7.000000 10 365.065232
-0.208365 0.315159 0.262114 9.000000 8 365.065235
-0.211216 0.319592 0.222399 10.000000 6 365.065237
-0.214421 0.324566 0.184538 8.000000 4 365.065240
-1.530884 2.318180 0.479187 22.000000 2 365.065242
-1.673289 2.534782 0.216196 70.000000 0 365.065245
-0.019920 0.048649 4.474103 100.000000 31 365.065256
-0.782060 1.256670 9.409710 5.000000 28 365.065258
-0.850966 1.370633 7.779777 6.000000 27 365.065261
-0.973691 1.500879 5.763077 8.000000 25 365.065263
-1.069695 1.629038 4.650769 8.000000 23 365.065266
-1.144541 1.742369 3.886073 8.000000 21 365.065268
-1.194630 1.818627 3.268375 9.000000 19 365.065271
-0.132496 0.237673 4.531810 99.000000 30 365.065281
-0.537124 0.911515 9.808406 12.000000 29 365.065284
-0.901636 1.411672 6.482021 8.000000 26 365.065286
-1.017927 1.556106 5.110837 9.000000 24 365.065289
-1.112580 1.699520 4.262043 9.000000 22 365.065292
-1.158282 1.768669 3.528347 9.000000 20 365.065294
-1.208508 1.845368 2.994635 11.000000 18 365.065297
-1.685232 2.573330 3.412944 16.000000 16 365.065299
-1.744119 2.648098 3.195793 10.000000 15 365.065257
-0.196536 0.298393 0.370394 7.000000 13 365.065260
-0.201250 0.305667 0.324553 7.000000 11 365.065262
-0.210304 0.319422 0.286666 8.000000 9 365.065265
-0.214537 0.325977 0.245986 10.000000 7 365.065267
-0.216392 0.328919 0.205596 10.000000 5 365.065270
-0.213283 0.324194 0.165149 8.000000 3 365.065272
-1.507610 2.292495 0.338793 13.000000 1 365.065275
-0.194562 0.296404 0.396831 8.000000 14 365.065283
-0.201051 0.306294 0.350325 8.000000 12 365.065285
-0.202022 0.307891 0.301929 7.000000 10 365.065288
-0.207264 0.315885 0.262114 8.000000 8 365.065290
-0.210099 0.320328 0.222399 10.000000 6 365.065293
-0.213287 0.325312 0.184538 9.000000 4 365.065295
-1.517354 2.315226 0.477808 26.000000 2 365.065298
-1.650742 2.519713 0.215189 73.000000 0 365.065301
-0.019750 0.048718 4.474103 100.000000 31 365.065311
-0.775628 1.256086 9.385014 5.000000 28 365.065314
-0.848845 1.377930 7.804253 6.000000 27 365.065316
-0.965212 1.499245 5.743990 8.000000 25 365.065319
-1.060803 1.627851 4.636962 8.000000 23 365.065321
-1.134527 1.740333 3.872907 8.000000 21 365.065324
-1.185201 1.818071 3.260109 9.000000 19 365.065327
-1.221325 1.873489 2.753273 9.000000 17 365.065329
-0.131666 0.238134 4.531810 99.000000 30 365.065337
-0.533939 0.913384 9.808406 13.000000 29 365.065339
-0.894010 1.410561 6.462664 8.000000 26 365.065342
-1.024704 1.578466 5.171844 6.000000 24 365.065345
-1.104268 1.699740 4.253041 9.000000 22 365.065347
-1.149258 1.768328 3.519815 9.000000 20 365.065350
-1.198774 1.844521 2.986656 10.000000 18 365.065352
-1.689171 2.599094 3.438669 18.000000 16 365.065355
-1.736816 2.657155 3.199298 10.000000 15 365.065312
-0.195493 0.299077 0.370394 7.000000 13 365.065315
-0.200182 0.306368 0.324553 7.000000 11 365.065318
-0.209187 0.320155 0.286666 8.000000 9 365.065320
-0.213398 0.326723 0.245986 10.000000 7 365.065323
-0.212620 0.325656 0.204187 10.000000 5 365.065325
-0.212150 0.324937 0.165149 8.000000 3 365.065328
-1.494155 2.289403 0.337901 13.000000 1 365.065330
-0.193526 0.297082 0.396831 8.000000 14 365.065338
-0.199980 0.306994 0.350325 8.000000 12 365.065341
-0.200946 0.308594 0.301929 7.000000 10 365.065343
-0.206160 0.316606 0.262114 8.000000 8 365.065346
-0.208980 0.321059 0.222399 10.000000 6 365.065348
-0.212150 0.326055 0.184538 9.000000 4 365.065351
-1.503863 2.312205 0.476428 28.000000 2 365.065354
-1.522117 2.341165 0.206321 10.000000 0 365.065356
-0.019567 0.048745 4.469104 100.000000 31 365.065367
-0.767181 1.252159 9.335621 5.000000 28 365.065369
-0.847215 1.386098 7.833624 6.000000 27 365.065372
-0.955953 1.496312 5.720132 8.000000 25 365.065374
-1.051931 1.626623 4.623154 9.000000 23 365.065377
-1.124542 1.738248 3.859741 8.000000 21 365.065380
-1.174262 1.815109 3.247710 8.000000 19 365.065382
-1.214777 1.877741 2.753273 10.000000 17 365.065385
-0.130834 0.238592 4.531810 99.000000 30 365.065392
-0.531283 0.916166 9.818349 13.000000 29 365.065395
-0.886403 1.409413 6.443307 8.000000 26 365.065398
-1.014515 1.574780 5.148379 6.000000 24 365.065400
-1.094788 1.698094 4.239538 10.000000 22 365.065403
-1.138838 1.765753 3.507017 9.000000 20 365.065405
-1.189061 1.843629 2.978677 10.000000 18 365.065408
-1.729471 2.666193 3.202802 10.000000 15 365.065368
-0.194448 0.299757 0.370394 7.000000 13 365.065371
-0.199112 0.307065 0.324553 7.000000 11 365.065373
-0.208068 0.320883 0.286666 8.000000 9 365.065376
-0.212256 0.327466 0.245986 10.000000 7 365.065378
-0.211481 0.326396 0.204187 9.000000 5 365.065381
-0.208343 0.321553 0.164217 8.000000 3 365.065383
-1.483447 2.290425 0.337454 15.000000 1 365.065386
-0.192488 0.297755 0.396831 8.000000 14 365.065394
-0.196713 0.304296 0.347382 8.000000 12 365.065396
-0.197528 0.305672 0.299397 7.000000 10 365.065399
-0.205054 0.317324 0.262114 9.000000 8 365.065401
-0.207858 0.321787 0.222399 11.000000 6 365.065404
-0.211011 0.326793 0.184538 9.000000 4 365.065406
-1.511896 2.342405 0.480567 23.000000 2 365.065409
-1.516644 2.350662 0.206523 10.000000 0 365.065412
-0.019396 0.048813 4.469104 100.000000 31 365.065422
-0.761595 1.252838 9.320804 5.000000 28 365.065425
-0.845538 1.394271 7.862996 5.000000 27 365.065427
-0.948325 1.495855 5.705816 8.000000 25 365.065430
-1.044137 1.626997 4.613949 9.000000 23 365.065432
-1.115878 1.738131 3.850964 8.000000 21 365.065435
-1.164878 1.814461 3.239444 8.000000 19 365.065437
-1.206484 1.879272 2.749436 9.000000 17 365.065440
-0.130000 0.239047 4.531810 99.000000 30 365.065448
-0.528613 0.918941 9.828292 13.000000 29 365.065450
-0.878815 1.408230 6.423951 8.000000 26 365.065453
-1.007153 1.575404 5.138994 6.000000 24 365.065455
-1.085333 1.696401 4.226036 10.000000 22 365.065458
-1.128450 1.763128 3.494220 9.000000 20 365.065460
-1.179369 1.842691 2.970698 10.000000 18 365.065463
-1.712433 2.660219 3.188784 11.000000 15 365.065423
-0.193400 0.300434 0.370394 7.000000 13 365.065426
-0.198039 0.307758 0.324553 7.000000 11 365.065428
-0.206947 0.321607 0.286666 8.000000 9 365.065431
-0.211112 0.328205 0.245986 10.000000 7 365.065434
-0.210341 0.327132 0.204187 9.000000 5 365.065436
-0.207220 0.322278 0.164217 8.000000 3 365.065439
-1.478136 2.299778 0.337901 17.000000 1 365.065441
-0.191448 0.298425 0.396831 8.000000 14 365.065449
-0.195650 0.304981 0.347382 8.000000 12 365.065452
-0.196459 0.306360 0.299397 7.000000 10 365.065454
-0.203945 0.318038 0.262114 9.000000 8 365.065457
-0.206733 0.322510 0.222399 10.000000 6 365.065459
-0.209869 0.327528 0.184538 9.000000 4 365.065462
-1.503710 2.347668 0.480567 23.000000 2 365.065464
-1.481490 2.313867 0.204507 10.000000 0 365.065467
-0.019226 0.048881 4.469104 100.000000 31 365.065478
-0.755613 1.252827 9.301046 5.000000 28 365.065480
-0.843814 1.402450 7.892367 6.000000 27 365.065483
-0.935941 1.487779 5.662871 9.000000 25 365.065485
-1.035303 1.625688 4.600142 9.000000 23 365.065488
-1.105943 1.735954 3.837798 8.000000 21 365.065490
-1.154002 1.811396 3.227045 8.000000 19 365.065493
-1.189581 1.867249 2.726414 9.000000 17 365.065495
-0.129165 0.239500 4.531810 99.000000 30 365.065503
-0.525931 0.921709 9.838235 12.000000 29 365.065506
-0.871246 1.407012 6.404594 8.000000 26 365.065508
-1.000723 1.577453 5.134301 5.000000 24 365.065511
-1.074736 1.692826 4.208032 10.000000 22 365.065513
-1.119492 1.762653 3.485688 9.000000 20 365.065516
-1.169698 1.841708 2.962719 10.000000 18 365.065519
-1.203842 1.895475 2.512528 6.000000 16 365.065521
-1.687778 2.642137 3.160748 11.000000 15 365.065479
-0.192350 0.301108 0.370394 7.000000 13 365.065481
-0.196963 0.308447 0.324553 7.000000 11 365.065484
-0.205823 0.322328 0.286666 8.000000 9 365.065486
-0.207471 0.325032 0.244113 10.000000 7 365.065489
-0.206617 0.323820 0.202778 9.000000 5 365.065492
-0.206093 0.322999 0.164217 9.000000 3 365.065494
-1.464743 2.296526 0.337008 13.000000 1 365.065497
-0.190405 0.299092 0.396831 8.000000 14 365.065504
-0.194584 0.305662 0.347382 8.000000 12 365.065507
-0.195389 0.307044 0.299397 7.000000 10 365.065510
-0.202833 0.318748 0.262114 9.000000 8 365.065512
-0.205606 0.323230 0.222399 10.000000 6 365.065515
-0.208724 0.328259 0.184538 9.000000 4 365.065517
-1.596450 2.511721 0.506780 15.000000 2 365.065520
-1.478763 2.327458 0.204910 8.000000 0 365.065522
-0.019055 0.048947 4.469104 95.000000 31 365.065533
-0.749640 1.252789 9.281290 5.000000 28 365.065536
-0.842044 1.410633 7.921739 6.000000 27 365.065538
-0.916508 1.468230 5.576980 9.000000 25 365.065541
-1.026491 1.624337 4.586334 8.000000 23 365.065543
-1.096036 1.733728 3.824632 9.000000 21 365.065546
-1.144664 1.810656 3.218779 8.000000 19 365.065548
-1.181343 1.868681 2.722577 9.000000 17 365.065551
-0.128328 0.239949 4.531810 99.000000 30 365.065559
-0.523498 0.924933 9.853149 12.000000 29 365.065561
-0.863696 1.405757 6.385237 8.000000 26 365.065564
-0.992453 1.576555 5.120223 6.000000 24 365.065566
-1.064177 1.689197 4.190029 10.000000 22 365.065569
-1.109161 1.759931 3.472890 10.000000 20 365.065572
-1.158441 1.838130 2.950751 10.000000 18 365.065574
-1.195411 1.896797 2.508853 9.000000 16 365.065577
-0.191298 0.301777 0.370394 7.000000 13 365.065537
-0.195885 0.309133 0.324553 7.000000 11 365.065539
-0.204697 0.323044 0.286666 8.000000 9 365.065542
-0.206335 0.325755 0.244113 10.000000 7 365.065545
-0.205486 0.324540 0.202778 9.000000 5 365.065547
-0.204965 0.323717 0.164217 9.000000 3 365.065550
-1.456718 2.301625 0.337008 13.000000 1 365.065552
-0.189360 0.299755 0.396831 8.000000 14 365.065560
-0.191357 0.302922 0.344439 8.000000 12 365.065563
-0.194316 0.307724 0.299397 7.000000 10 365.065565
-0.201719 0.319454 0.262114 9.000000 8 365.065568
-0.204477 0.323946 0.222399 10.000000 6 365.065570
-0.207577 0.328985 0.184538 9.000000 4 365.065573
-1.587673 2.517278 0.506780 15.000000 2 365.065575
-1.462636 2.319928 0.204306 6.000000 0 365.065578
-0.018884 0.049014 4.469104 95.000000 31 365.065589
-0.743677 1.252725 9.261533 5.000000 28 365.065591
-0.840226 1.418822 7.951109 6.000000 27 365.065594
-0.900368 1.453644 5.510176 10.000000 25 365.065596
-1.018739 1.624600 4.577129 8.000000 23 365.065599
