# .PCD v.7 - Point Cloud Data file format
VERSION .7
FIELDS x y z intensity ring timestamp
SIZE 4 4 4 4 2 8
TYPE F F F F U D
COUNT 1 1 1 1 1 1
WIDTH 945
HEIGHT 1
VIEWPOINT 0 0 0 1 0 0 0
POINTS 945
DATA ascii
1.095137 1.267405 2.532710 23.000000 19 365.486671
1.757752 2.034236 3.294282 10.000000 17 365.486674
0.157846 0.158179 3.693220 13.000000 30 365.486682
0.293828 0.308957 3.927228 16.000000 29 365.486684
0.698180 0.787491 4.086614 95.000000 26 365.486687
0.971927 1.120477 4.087814 92.000000 24 365.486689
1.214960 1.401627 3.897475 7.000000 22 365.486692
1.073674 1.239066 2.751947 16.000000 20 365.486695
1.213629 1.400573 2.527864 24.000000 18 365.486697
1.812379 2.091542 3.078504 12.000000 16 365.486700
1.816432 2.107341 2.813798 13.000000 15 365.486657
1.839577 2.134189 2.353470 17.000000 13 365.486660
1.850023 2.145550 1.942018 17.000000 11 365.486662
1.875624 2.175236 1.589397 20.000000 9 365.486665
1.883939 2.184109 1.253677 18.000000 7 365.486668
1.269500 1.471252 0.660767 26.000000 5 365.486670
1.280432 1.483922 0.463588 26.000000 3 365.486673
1.291725 1.496482 0.270077 14.000000 1 365.486675
1.834227 2.121239 2.577932 16.000000 14 365.486683
1.852358 2.142204 2.145653 21.000000 12 365.486686
1.862682 2.153383 1.758074 20.000000 10 365.486688
1.895051 2.190799 1.426533 21.000000 8 365.486691
1.842075 2.128804 1.068382 17.000000 6 365.486693
1.282105 1.481151 0.563197 27.000000 4 365.486696
1.299855 1.501127 0.368817 23.000000 2 365.486698
1.298434 1.498957 0.173673 12.000000 0 365.486701
0.035650 0.028449 3.674134 8.000000 31 365.486712
0.366265 0.400988 3.452965 9.000000 28 365.486714
0.482324 0.526777 3.457291 10.000000 27 365.486717
0.836687 0.950531 4.092974 94.000000 25 365.486719
1.114097 1.279848 4.057044 9.000000 23 365.486722
1.061797 1.220191 3.030284 13.000000 21 365.486724
1.097707 1.261452 2.528577 23.000000 19 365.486727
1.766946 2.030507 3.298119 10.000000 17 365.486729
0.158397 0.157627 3.693220 14.000000 30 365.486737
0.294905 0.307929 3.927228 15.000000 29 365.486740
0.700924 0.785050 4.086614 95.000000 26 365.486742
0.975832 1.117077 4.087814 92.000000 24 365.486745
1.221278 1.399018 3.901976 7.000000 22 365.486747
1.079708 1.237276 2.756213 16.000000 20 365.486750
1.218510 1.396328 2.527864 23.000000 18 365.486753
1.821898 2.087757 3.082179 12.000000 16 365.486755
1.826115 2.103681 2.817302 12.000000 15 365.486713
1.849568 2.130694 2.356607 17.000000 13 365.486715
1.860243 2.142236 1.944760 18.000000 11 365.486718
1.883205 2.168676 1.589397 20.000000 9 365.486721
1.894591 2.181019 1.255550 18.000000 7 365.486723
1.277774 1.470433 0.662176 26.000000 5 365.486726
1.288826 1.483151 0.464520 26.000000 3 365.486728
1.300208 1.495723 0.270523 15.000000 1 365.486731
1.844073 2.117640 2.581257 16.000000 14 365.486739
1.862479 2.138773 2.148596 22.000000 12 365.486741
1.870188 2.146868 1.758074 20.000000 10 365.486744
1.905668 2.187593 1.428631 21.000000 8 365.486746
1.902238 2.182886 1.096308 19.000000 6 365.486749
1.290461 1.480330 0.564369 27.000000 4 365.486751
1.305087 1.496581 0.368817 23.000000 2 365.486754
1.306942 1.498180 0.173875 13.000000 0 365.486756
0.035713 0.028300 3.669134 8.000000 31 365.486767
0.366610 0.398564 3.443087 8.000000 28 365.486770
0.484160 0.525090 3.457291 10.000000 27 365.486772
0.839999 0.947604 4.092974 95.000000 25 365.486775
1.118558 1.275951 4.057044 9.000000 23 365.486777
1.067629 1.218279 3.034673 13.000000 21 365.486780
1.102103 1.257613 2.528577 23.000000 19 365.486782
1.774023 2.024326 3.298119 10.000000 17 365.486785
0.158947 0.157073 3.693220 14.000000 30 365.486793
0.295978 0.306898 3.927228 15.000000 29 365.486795
0.703660 0.782598 4.086614 95.000000 26 365.486798
0.979726 1.113664 4.087814 91.000000 24 365.486800
1.226154 1.394747 3.901976 7.000000 22 365.486803
1.085742 1.235458 2.760479 17.000000 20 365.486806
1.221387 1.389802 2.523874 24.000000 18 365.486808
1.833650 2.086478 3.089529 12.000000 16 365.486811
1.835794 2.099978 2.820807 12.000000 15 365.486768
1.859556 2.127156 2.359745 17.000000 13 365.486771
1.870461 2.138877 1.947501 18.000000 11 365.486773
1.893680 2.165424 1.591715 19.000000 9 365.486776
1.905246 2.177882 1.257423 19.000000 7 365.486779
1.286058 1.469574 0.663585 26.000000 5 365.486781
1.293995 1.478643 0.464520 26.000000 3 365.486784
1.305421 1.491175 0.270523 15.000000 1 365.486786
1.853916 2.113998 2.584581 16.000000 14 365.486794
1.872599 2.135297 2.151539 22.000000 12 365.486797
1.880513 2.143567 1.760607 20.000000 10 365.486799
1.916285 2.184339 1.430729 21.000000 8 365.486802
1.916076 2.183332 1.099593 19.000000 6 365.486804
1.298828 1.479470 0.565542 27.000000 4 365.486807
1.313571 1.495737 0.369507 23.000000 2 365.486809
1.312164 1.493609 0.173875 12.000000 0 365.486812
0.035775 0.028152 3.664134 8.000000 31 365.486823
0.367470 0.396712 3.438148 8.000000 28 365.486825
0.485990 0.523397 3.457291 10.000000 27 365.486828
0.842307 0.943552 4.088202 94.000000 25 365.486830
1.123005 1.272039 4.057044 9.000000 23 365.486833
1.073461 1.216341 3.039062 13.000000 21 365.486835
1.106486 1.253758 2.528577 23.000000 19 365.486838
1.781079 2.018121 3.298119 10.000000 17 365.486841
0.159494 0.156518 3.693220 15.000000 30 365.486848
0.297047 0.305863 3.927228 15.000000 29 365.486851
0.705543 0.779205 4.081775 95.000000 26 365.486853
0.982463 1.108946 4.083121 92.000000 24 365.486856
1.232458 1.392089 3.906476 8.000000 22 365.486859
1.091776 1.233614 2.764745 17.000000 20 365.486861
1.226231 1.385530 2.523874 24.000000 18 365.486864
1.843169 2.082603 3.093204 12.000000 16 365.486866
1.845470 2.096235 2.824311 13.000000 15 365.486824
1.869542 2.123574 2.362883 15.000000 13 365.486826
1.880680 2.135473 1.950243 18.000000 11 365.486829
1.904155 2.162125 1.594033 19.000000 9 365.486832
1.915901 2.174696 1.259296 19.000000 7 365.486834
1.297524 1.472274 0.666403 24.000000 5 365.486837
1.302396 1.477803 0.465453 27.000000 3 365.486839
1.313912 1.490345 0.270969 14.000000 1 365.486842
1.863756 2.110312 2.587906 17.000000 14 365.486850
1.882717 2.131777 2.154482 21.000000 12 365.486852
1.890839 2.140221 1.763139 20.000000 10 365.486855
1.926903 2.181038 1.432827 20.000000 8 365.486857
1.933068 2.187246 1.104521 20.000000 6 365.486860
1.307204 1.478568 0.566714 27.000000 4 365.486862
1.318784 1.491143 0.369507 23.000000 2 365.486865
1.320680 1.492761 0.174076 12.000000 0 365.486867
0.035837 0.028003 3.659134 8.000000 31 365.486878
0.368322 0.394859 3.433208 8.000000 28 365.486881
0.487814 0.521697 3.457291 9.000000 27 365.486883
0.845596 0.940607 4.088202 95.000000 25 365.486886
1.127438 1.268111 4.057044 9.000000 23 365.486888
1.079291 1.214377 3.043450 13.000000 21 365.486891
1.110856 1.249888 2.528577 23.000000 19 365.486893
1.788112 2.011892 3.298119 10.000000 17 365.486896
0.160039 0.155960 3.693220 15.000000 30 365.486904
0.298113 0.304824 3.927228 16.000000 29 365.486906
0.708259 0.776737 4.081775 95.000000 26 365.486909
0.986328 1.105510 4.083121 91.000000 24 365.486911
1.237310 1.387778 3.906476 8.000000 22 365.486914
1.096075 1.229795 2.764745 17.000000 20 365.486917
1.231060 1.381242 2.523874 24.000000 18 365.486919
1.852683 2.078687 3.096879 12.000000 16 365.486922
1.855142 2.092448 2.827816 13.000000 15 365.486879
1.879526 2.119947 2.366021 15.000000 13 365.486882
1.890897 2.132024 1.952984 18.000000 11 365.486885
1.914631 2.158780 1.596351 18.000000 9 365.486887
1.926557 2.171463 1.261169 18.000000 7 365.486890
1.305840 1.471324 0.667813 24.000000 5 365.486892
1.307547 1.473247 0.465453 28.000000 3 365.486895
1.319106 1.485749 0.270969 14.000000 1 365.486897
1.873593 2.106584 2.591231 17.000000 14 365.486905
1.892833 2.128213 2.157425 21.000000 12 365.486908
1.898298 2.133608 1.763139 19.000000 10 365.486910
1.934505 2.174299 1.432827 20.000000 8 365.486913
1.940691 2.180485 1.104521 19.000000 6 365.486915
1.315589 1.477627 0.567886 28.000000 4 365.486918
1.327275 1.490228 0.370196 23.000000 2 365.486920
1.325883 1.488142 0.174076 12.000000 0 365.486923
0.035897 0.027854 3.654134 8.000000 31 365.486934
0.369698 0.393571 3.433208 8.000000 28 365.486936
0.489632 0.519991 3.457291 9.000000 27 365.486939
0.848874 0.937649 4.088202 95.000000 25 365.486941
1.131858 1.264168 4.057044 9.000000 23 365.486944
1.085122 1.212388 3.047839 12.000000 21 365.486946
1.113335 1.243906 2.524444 23.000000 19 365.486949
1.795124 2.005638 3.298119 10.000000 17 365.486952
0.160583 0.155400 3.693220 15.000000 30 365.486959
0.299175 0.303782 3.927228 16.000000 29 365.486962
0.710966 0.774260 4.081775 95.000000 26 365.486964
0.990180 1.102060 4.083121 91.000000 24 365.486967
1.243844 1.384854 3.910977 9.000000 22 365.486970
1.102318 1.227710 2.769011 17.000000 20 365.486972
1.236114 1.376720 2.523874 24.000000 18 365.486975
1.862554 2.074405 3.100554 12.000000 16 365.486977
1.864810 2.088620 2.831321 13.000000 15 365.486935
1.889507 2.116278 2.369159 17.000000 13 365.486937
1.901113 2.128529 1.955726 17.000000 11 365.486940
1.922155 2.152083 1.596351 18.000000 9 365.486943
1.934125 2.164725 1.261169 18.000000 7 365.486945
1.314165 1.470333 0.669222 24.000000 5 365.486948
1.316212 1.472107 0.466385 27.000000 3 365.486950
1.327863 1.484616 0.271415 15.000000 1 365.486953
1.883793 2.102485 2.594556 16.000000 14 365.486961
1.903317 2.124271 2.160369 21.000000 12 365.486963
1.908983 2.129846 1.765671 18.000000 10 365.486966
1.945490 2.170573 1.434926 19.000000 8 365.486968
1.951822 2.176873 1.106164 19.000000 6 365.486971
1.320996 1.472795 0.567886 28.000000 4 365.486973
1.332728 1.485353 0.370196 22.000000 2 365.486976
1.334406 1.487223 0.174278 12.000000 0 365.486979
0.035963 0.027698 3.649134 8.000000 31 365.486989
0.371139 0.392214 3.433208 8.000000 28 365.486992
0.491534 0.518193 3.457291 10.000000 27 365.486994
0.852305 0.934532 4.088202 91.000000 25 365.486997
1.135175 1.258560 4.052441 9.000000 23 365.486999
1.091162 1.210181 3.052227 12.000000 21 365.487002
1.117887 1.239817 2.524444 23.000000 19 365.487005
1.802463 1.999045 3.298119 10.000000 17 365.487007
0.161124 0.154839 3.693220 15.000000 30 365.487015
0.300234 0.302736 3.927228 16.000000 29 365.487017
0.713664 0.771774 4.081775 95.000000 26 365.487020
0.994021 1.098597 4.083121 91.000000 24 365.487023
1.250131 1.382119 3.915478 10.000000 22 365.487025
1.108346 1.225789 2.773277 16.000000 20 365.487028
1.240913 1.372397 2.523874 23.000000 18 365.487030
1.871696 2.070732 3.104230 12.000000 16 365.487033
1.874837 2.084423 2.834825 13.000000 15 365.486990
1.899854 2.112233 2.372296 17.000000 13 365.486993
1.908902 2.121547 1.955726 17.000000 11 365.486996
1.932993 2.148317 1.598669 18.000000 9 365.486998
1.944770 2.161407 1.263042 18.000000 7 365.487001
1.319289 1.465737 0.669222 24.000000 5 365.487003
1.321343 1.467504 0.466385 27.000000 3 365.487006
1.333037 1.479972 0.271415 15.000000 1 365.487008
1.893622 2.098668 2.597881 16.000000 14 365.487016
1.913429 2.120615 2.163312 20.000000 12 365.487019
1.918923 2.126705 1.768204 18.000000 10 365.487021
1.952677 2.164110 1.434926 18.000000 8 365.487024
1.965359 2.177400 1.109449 20.000000 6 365.487026
1.329130 1.472014 0.569059 30.000000 4 365.487029
1.340966 1.484601 0.370886 22.000000 2 365.487031
1.342938 1.486263 0.174479 12.000000 0 365.487034
0.036017 0.027556 3.644135 8.000000 31 365.487045
0.372437 0.390981 3.433208 7.000000 28 365.487047
0.493250 0.516560 3.457291 10.000000 27 365.487050
0.854389 0.930600 4.083430 91.000000 25 365.487052
1.138029 1.253343 4.047839 9.000000 23 365.487055
1.096780 1.208330 3.056616 12.000000 21 365.487057
1.121992 1.236103 2.524444 23.000000 19 365.487060
1.811237 1.995431 3.301956 10.000000 17 365.487063
0.161874 0.154474 3.698211 16.000000 30 365.487070
0.301289 0.301686 3.927228 16.000000 29 365.487073
0.716354 0.769278 4.081775 95.000000 26 365.487075
0.996688 1.093845 4.078429 92.000000 24 365.487078
1.256414 1.379357 3.919979 9.000000 22 365.487081
1.112618 1.221913 2.773277 16.000000 20 365.487083
1.245695 1.368057 2.523874 23.000000 18 365.487086
1.881556 2.066365 3.107905 12.000000 16 365.487088
1.884133 2.080838 2.838330 12.000000 15 365.487046
1.909461 2.108807 2.375434 17.000000 13 365.487049
1.918734 2.118304 1.958467 17.000000 11 365.487051
1.940106 2.141895 1.598669 17.000000 9 365.487054
1.955416 2.158040 1.264916 18.000000 7 365.487056
1.327619 1.464677 0.670631 25.000000 5 365.487059
1.326457 1.462882 0.466385 27.000000 3 365.487061
1.341541 1.478999 0.271862 16.000000 1 365.487064
1.903448 2.094810 2.601206 16.000000 14 365.487072
1.923537 2.116915 2.166255 20.000000 12 365.487074
1.929605 2.122848 1.770736 18.000000 10 365.487077
1.963649 2.160297 1.437024 18.000000 8 365.487079
1.966972 2.163194 1.106164 18.000000 6 365.487082
1.334516 1.467132 0.569059 30.000000 4 365.487084
1.349731 1.483339 0.371576 23.000000 2 365.487087
1.348118 1.481566 0.174479 12.000000 0 365.487090
0.036081 0.027400 3.639135 8.000000 31 365.487100
0.373868 0.389613 3.433208 7.000000 28 365.487103
0.495140 0.514749 3.457291 10.000000 27 365.487105
0.857794 0.927462 4.083430 94.000000 25 365.487108
1.142615 1.249163 4.047839 8.000000 23 365.487110
1.102818 1.206070 3.061005 12.000000 21 365.487113
1.128414 1.234059 2.528577 23.000000 19 365.487116
1.818539 1.988779 3.301956 10.000000 17 365.487118
0.162650 0.154078 3.703203 16.000000 30 365.487126
0.302013 0.300204 3.922256 16.000000 29 365.487128
0.719169 0.766647 4.081775 95.000000 26 365.487131
1.000690 1.090185 4.078429 91.000000 24 365.487134
1.262694 1.376567 3.924480 8.000000 22 365.487136
1.118639 1.219944 2.777543 17.000000 20 365.487139
1.248426 1.361479 2.519885 24.000000 18 365.487141
1.891049 2.062283 3.111580 12.000000 16 365.487144
1.894150 2.076553 2.841834 12.000000 15 365.487101
1.919801 2.104670 2.378572 17.000000 13 365.487104
1.929303 2.114346 1.961208 17.000000 11 365.487107
1.950930 2.138043 1.600987 17.000000 9 365.487109
1.966438 2.154283 1.266788 19.000000 7 365.487112
1.332979 1.459802 0.670631 25.000000 5 365.487114
1.334868 1.461871 0.467318 27.000000 3 365.487117
1.346696 1.474307 0.271862 15.000000 1 365.487119
1.913269 2.090907 2.604530 16.000000 14 365.487127
1.936373 2.116151 2.172141 21.000000 12 365.487130
1.939914 2.119279 1.773269 17.000000 10 365.487132
1.974242 2.156777 1.439122 18.000000 8 365.487135
1.958565 2.138900 1.097950 11.000000 6 365.487137
1.339629 1.462465 0.569059 29.000000 4 365.487140
1.354900 1.478618 0.371576 22.000000 2 365.487143
1.356915 1.480298 0.174681 12.000000 0 365.487145
0.036140 0.027251 3.634135 9.000000 31 365.487156
0.374685 0.387747 3.428269 7.000000 28 365.487158
0.496934 0.513018 3.457291 10.000000 27 365.487161
0.861026 0.924462 4.083430 94.000000 25 365.487163
1.145645 1.243730 4.043236 8.000000 23 365.487166
1.108644 1.203976 3.065393 12.000000 21 365.487169
1.132715 1.230113 2.528577 23.000000 19 365.487171
1.825470 1.982419 3.301956 10.000000 17 365.487174
0.163611 0.153904 3.713186 17.000000 30 365.487181
0.303059 0.299148 3.922256 16.000000 29 365.487184
0.721841 0.764132 4.081775 95.000000 26 365.487187
1.004490 1.086685 4.078429 92.000000 24 365.487189
1.267491 1.372151 3.924480 9.000000 22 365.487192
1.124660 1.217948 2.781808 17.000000 20 365.487194
1.253171 1.357113 2.519885 24.000000 18 365.487197
1.902835 2.060651 3.118930 12.000000 16 365.487199
1.903800 2.072555 2.845339 13.000000 15 365.487157
1.929770 2.100823 2.381710 16.000000 13 365.487160
1.939501 2.110678 1.963950 16.000000 11 365.487162
1.961379 2.134482 1.603305 17.000000 9 365.487165
1.977083 2.150819 1.268662 18.000000 7 365.487167
1.341313 1.458671 0.672040 26.000000 5 365.487170
1.339963 1.457202 0.467318 27.000000 3 365.487172
1.355205 1.473262 0.272308 15.000000 1 365.487175
1.923087 2.086962 2.607855 16.000000 14 365.487183
1.946486 2.112352 2.175084 20.000000 12 365.487185
1.950222 2.115665 1.775801 17.000000 10 365.487188
1.981759 2.149873 1.439122 18.000000 8 365.487190
1.953214 2.118164 1.091380 11.000000 6 365.487193
1.348022 1.461353 0.570231 29.000000 4 365.487195
1.363412 1.477519 0.372266 22.000000 2 365.487198
1.365463 1.479223 0.174882 12.000000 0 365.487201
0.036198 0.027101 3.629135 9.000000 31 365.487212
0.376036 0.386437 3.428269 7.000000 28 365.487215
0.498722 0.511280 3.457291 10.000000 27 365.487217
0.863226 0.920362 4.078659 94.000000 25 365.487220
1.149980 1.239724 4.043236 9.000000 23 365.487222
1.114469 1.201855 3.069782 12.000000 21 365.487225
1.138916 1.228215 2.532710 22.000000 19 365.487227
1.834558 1.978385 3.305793 10.000000 17 365.487230
0.164360 0.153529 3.718178 17.000000 30 365.487238
0.304484 0.298461 3.927228 16.000000 29 365.487240
0.724503 0.761608 4.081775 95.000000 26 365.487243
1.008277 1.083172 4.078429 94.000000 24 365.487245
1.272273 1.367718 3.924480 10.000000 22 365.487248
1.132456 1.217834 2.790340 16.000000 20 365.487250
1.257901 1.352730 2.519885 23.000000 18 365.487253
1.912326 2.056479 3.122606 12.000000 16 365.487256
1.913444 2.068514 2.848843 13.000000 15 365.487213
1.939734 2.096931 2.384847 16.000000 13 365.487216
1.946857 2.103895 1.963950 16.000000 11 365.487218
1.971826 2.130874 1.605623 17.000000 9 365.487221
1.984579 2.143904 1.268662 17.000000 7 365.487224
1.349657 1.457500 0.673449 26.000000 5 365.487226
1.348379 1.456120 0.468251 27.000000 3 365.487229
1.360340 1.468523 0.272308 15.000000 1 365.487231
1.930360 2.080237 2.607855 16.000000 14 365.487239
1.956598 2.108507 2.178028 19.000000 12 365.487242
1.960528 2.112004 1.778333 17.000000 10 365.487244
1.989251 2.142942 1.439122 18.000000 8 365.487247
1.944528 2.094030 1.083166 11.000000 6 365.487249
1.353115 1.456638 0.570231 29.000000 4 365.487252
1.371932 1.476379 0.372956 22.000000 2 365.487254
1.370618 1.474448 0.174882 12.000000 0 365.487257
0.036255 0.026952 3.624135 9.000000 31 365.487268
0.377383 0.385122 3.428269 7.000000 28 365.487270
0.500503 0.509536 3.457291 10.000000 27 365.487273
0.866434 0.917343 4.078659 94.000000 25 365.487275
1.155634 1.237129 4.047839 9.000000 23 365.487278
1.120292 1.199709 3.074171 12.000000 21 365.487280
1.147037 1.228345 2.540976 21.000000 19 365.487283
1.841453 1.971970 3.305793 10.000000 17 365.487285
0.165321 0.153346 3.728161 20.000000 30 365.487293
0.305524 0.297397 3.927228 16.000000 29 365.487296
0.727158 0.759074 4.081775 95.000000 26 365.487298
1.012052 1.079646 4.078429 92.000000 24 365.487301
1.277039 1.363269 3.924480 9.000000 22 365.487303
1.138483 1.215778 2.794606 16.000000 20 365.487306
1.262615 1.348331 2.519885 23.000000 18 365.487309
1.924127 2.054740 3.129956 12.000000 16 365.487311
1.925515 2.067042 2.855852 12.000000 15 365.487269
1.949696 2.092996 2.387985 16.000000 13 365.487271
1.957040 2.100145 1.966691 15.000000 11 365.487274
1.982273 2.127219 1.607941 16.000000 9 365.487276
1.979406 2.123400 1.261169 11.000000 7 365.487279
1.354736 1.452780 0.673449 25.000000 5 365.487282
1.353453 1.451405 0.468251 27.000000 3 365.487284
1.365457 1.463765 0.272308 14.000000 1 365.487287
1.940159 2.076214 2.611180 15.000000 14 365.487294
1.966706 2.104618 2.180971 19.000000 12 365.487297
1.970833 2.108297 1.780866 17.000000 10 365.487300
1.999819 2.139301 1.441220 17.000000 8 365.487302
1.938924 2.073433 1.076596 11.000000 6 365.487305
1.361512 1.455456 0.571403 29.000000 4 365.487307
1.380461 1.475196 0.373645 21.000000 2 365.487310
1.379170 1.473302 0.175084 12.000000 0 365.487312
0.036311 0.026803 3.619136 9.000000 31 365.487323
0.379271 0.384355 3.433208 6.000000 28 365.487326
0.502279 0.507786 3.457291 10.000000 27 365.487328
0.869631 0.914313 4.078659 94.000000 25 365.487331
1.159945 1.233088 4.047839 10.000000 23 365.487333
1.126114 1.197536 3.078559 12.000000 21 365.487336
1.153246 1.226384 2.545109 18.000000 19 365.487338
1.850521 1.967865 3.309630 10.000000 17 365.487341
0.166070 0.152963 3.733152 22.000000 30 365.487349
0.306944 0.296699 3.932199 16.000000 29 365.487351
0.728929 0.755626 4.076936 95.000000 26 365.487354
1.014629 1.074852 4.073736 91.000000 24 365.487356
1.280296 1.357219 3.919979 9.000000 22 365.487359
1.144510 1.213694 2.798872 16.000000 20 365.487362
1.267314 1.343916 2.519885 23.000000 18 365.487364
1.933614 2.050478 3.133631 12.000000 16 365.487367
1.935158 2.062909 2.859357 12.000000 15 365.487324
1.959653 2.089017 2.391123 16.000000 13 365.487327
1.964359 2.093301 1.966691 15.000000 11 365.487329
1.992718 2.123517 1.610259 16.000000 9 365.487332
1.974114 2.102957 1.253677 10.000000 7 365.487335
1.363083 1.451539 0.674859 25.000000 5 365.487337
1.361874 1.450252 0.469183 27.000000 3 365.487340
1.370559 1.458990 0.272308 14.000000 1 365.487342
1.949954 2.072149 2.614505 15.000000 14 365.487350
1.974040 2.097740 2.180971 19.000000 12 365.487353
1.978180 2.101405 1.780866 16.000000 10 365.487355
2.007274 2.132307 1.441220 17.000000 8 365.487358
1.929962 2.049462 1.068382 11.000000 6 365.487360
1.366584 1.450694 0.571403 29.000000 4 365.487363
1.388998 1.473973 0.374335 20.000000 2 365.487365
1.387732 1.472114 0.175285 12.000000 0 365.487368
0.036330 0.026630 3.609136 8.000000 31 365.487379
0.380610 0.383029 3.433208 6.000000 28 365.487381
0.504048 0.506029 3.457291 10.000000 27 365.487384
0.872817 0.911272 4.078659 93.000000 25 365.487386
1.164242 1.229032 4.047839 10.000000 23 365.487389
1.131935 1.195338 3.082948 12.000000 21 365.487391
1.161389 1.226437 2.553375 18.000000 19 365.487394
1.857379 1.961394 3.309630 10.000000 17 365.487396
0.166817 0.152577 3.738144 24.000000 30 365.487404
0.308364 0.295995 3.937171 17.000000 29 365.487407
0.731562 0.753077 4.076936 95.000000 26 365.487409
1.018375 1.071303 4.073736 92.000000 24 365.487412
1.283526 1.351163 3.915478 8.000000 22 365.487414
1.150535 1.211583 2.803138 16.000000 20 365.487417
1.271997 1.339484 2.519885 23.000000 18 365.487420
1.943094 2.046174 3.137306 12.000000 16 365.487422
1.944796 2.058734 2.862861 12.000000 15 365.487380
1.969606 2.084993 2.394261 16.000000 13 365.487382
1.974526 2.089470 1.969433 15.000000 11 365.487385
2.003161 2.119768 1.612577 16.000000 9 365.487388
1.968704 2.082578 1.246185 10.000000 7 365.487390
1.368141 1.446772 0.674859 25.000000 5 365.487393
1.370303 1.449059 0.470116 26.000000 3 365.487395
1.379065 1.457815 0.272754 14.000000 1 365.487398
1.959744 2.068040 2.617830 15.000000 14 365.487406
1.984131 2.093771 2.183914 18.000000 12 365.487408
1.988470 2.097616 1.783398 16.000000 10 365.487411
2.011583 2.121994 1.439122 14.000000 8 365.487413
1.920856 2.025579 1.060169 12.000000 6 365.487416
1.374985 1.449442 0.572576 28.000000 4 365.487418
1.397544 1.472708 0.375025 20.000000 2 365.487421
1.396302 1.470884 0.175487 12.000000 0 365.487423
0.036386 0.026481 3.604136 9.000000 31 365.487434
0.381945 0.381698 3.433208 6.000000 28 365.487437
0.505812 0.504267 3.457291 10.000000 27 365.487439
0.875992 0.908220 4.078659 93.000000 25 365.487442
1.168525 1.224960 4.047839 9.000000 23 365.487444
1.137754 1.193113 3.087337 13.000000 21 365.487447
1.167605 1.224412 2.557508 17.000000 19 365.487449
1.864214 1.954898 3.309630 10.000000 17 365.487452
0.167564 0.152187 3.743136 26.000000 30 365.487460
0.309395 0.294916 3.937171 17.000000 29 365.487462
0.734187 0.750519 4.076936 95.000000 26 365.487465
1.022109 1.067742 4.073736 92.000000 24 365.487467
1.286729 1.345100 3.910977 7.000000 22 365.487470
1.156560 1.209444 2.807404 16.000000 20 365.487473
1.276665 1.335035 2.519885 23.000000 18 365.487475
1.952568 2.041829 3.140981 12.000000 16 365.487478
1.954429 2.054516 2.866366 12.000000 15 365.487435
1.976872 2.078106 2.394261 15.000000 13 365.487438
1.984690 2.085595 1.972174 15.000000 11 365.487440
2.013602 2.115973 1.614895 16.000000 9 365.487443
1.959979 2.058904 1.236820 10.000000 7 365.487446
1.376492 1.445462 0.676268 25.000000 5 365.487448
1.378741 1.447824 0.471049 26.000000 3 365.487451
1.384146 1.452992 0.272754 14.000000 1 365.487453
1.972107 2.066590 2.624480 15.000000 14 365.487461
1.991427 2.086832 2.183914 17.000000 12 365.487464
1.995779 2.090662 1.783398 16.000000 10 365.487466
2.003308 2.098544 1.428631 11.000000 8 365.487469
1.911608 2.001786 1.051955 12.000000 6 365.487471
1.380036 1.444633 0.572576 28.000000 4 365.487474
1.406097 1.471401 0.375715 19.000000 2 365.487476
1.404880 1.469613 0.175688 12.000000 0 365.487479
0.036440 0.026331 3.599136 9.000000 31 365.487490
0.383827 0.380909 3.438148 6.000000 28 365.487492
0.506845 0.501782 3.452396 10.000000 27 365.487495
0.879157 0.905156 4.078659 93.000000 25 365.487497
1.172794 1.220874 4.047839 9.000000 23 365.487500
1.143571 1.190862 3.091726 13.000000 21 365.487502
1.173821 1.222359 2.561640 16.000000 19 365.487505
1.871027 1.948379 3.309630 10.000000 17 365.487508
0.168094 0.151601 3.743136 27.000000 30 365.487515
0.310811 0.294201 3.942142 18.000000 29 365.487518
0.735919 0.747056 4.072097 95.000000 26 365.487520
1.025829 1.064168 4.073736 91.000000 24 365.487523
1.297460 1.346874 3.928980 7.000000 22 365.487526
1.162583 1.207278 2.811670 16.000000 20 365.487528
1.279227 1.328400 2.515895 24.000000 18 365.487531
1.964386 2.039885 3.148332 12.000000 16 365.487533
1.964055 2.050257 2.869870 12.000000 15 365.487491
1.986807 2.074003 2.397398 15.000000 13 365.487493
1.994851 2.081673 1.974916 14.000000 11 365.487496
2.027106 2.115328 1.619532 16.000000 9 365.487499
1.954322 2.038664 1.229328 11.000000 7 365.487501
1.381529 1.440649 0.676268 25.000000 5 365.487504
1.387186 1.446548 0.471981 25.000000 3 365.487506
1.392657 1.451745 0.273200 13.000000 1 365.487509
1.981897 2.062386 2.627805 15.000000 14 365.487517
2.001500 2.082782 2.186857 17.000000 12 365.487519
2.006053 2.086791 1.785931 15.000000 10 365.487522
1.994894 2.075179 1.418141 11.000000 8 365.487524
1.905490 1.981485 1.045385 12.000000 6 365.487527
1.388440 1.443310 0.573748 28.000000 4 365.487529
1.414659 1.470052 0.376405 19.000000 2 365.487532
1.410001 1.464700 0.175688 12.000000 0 365.487534
0.036532 0.026204 3.599136 9.000000 31 365.487545
0.384600 0.379022 3.433208 6.000000 28 365.487548
0.508593 0.500010 3.452396 10.000000 27 365.487550
0.882312 0.902082 4.078659 93.000000 25 365.487553
1.177049 1.216773 4.047839 10.000000 23 365.487555
1.149387 1.188585 3.096114 13.000000 21 365.487558
1.180037 1.220277 2.565773 16.000000 19 365.487560
1.877817 1.941836 3.309630 10.000000 17 365.487563
0.168839 0.151205 3.748127 28.000000 30 365.487571
0.311836 0.293114 3.942142 18.000000 29 365.487573
0.738523 0.744482 4.072097 95.000000 26 365.487576
1.029538 1.060580 4.073736 91.000000 24 365.487578
1.306703 1.347026 3.942483 7.000000 22 365.487581
1.166791 1.203212 2.811670 16.000000 20 365.487584
1.283856 1.323927 2.515895 23.000000 18 365.487586
1.973855 2.035449 3.152007 12.000000 16 365.487589
1.973676 2.045955 2.873375 12.000000 15 365.487546
1.996737 2.069857 2.400536 15.000000 13 365.487549
2.005009 2.077706 1.977657 14.000000 11 365.487552
2.037554 2.111427 1.621850 16.000000 9 365.487554
1.945327 2.015153 1.219963 11.000000 7 365.487557
1.389881 1.439268 0.677677 25.000000 5 365.487559
1.395639 1.445231 0.472914 25.000000 3 365.487562
1.401176 1.450457 0.273646 13.000000 1 365.487564
1.991680 2.058139 2.631129 15.000000 14 365.487572
2.011569 2.078688 2.189800 17.000000 12 365.487575
2.016323 2.082873 1.788463 15.000000 10 365.487577
1.986342 2.051899 1.407651 11.000000 8 365.487580
1.895969 1.957859 1.037171 12.000000 6 365.487582
1.393469 1.438455 0.573748 27.000000 4 365.487585
1.419781 1.465105 0.376405 21.000000 2 365.487587
1.418583 1.463356 0.175890 12.000000 0 365.487590
0.036586 0.026054 3.594137 9.000000 31 365.487601
0.385921 0.377677 3.433208 6.000000 28 365.487603
0.510335 0.498231 3.452396 10.000000 27 365.487606
0.885455 0.898997 4.078659 93.000000 25 365.487608
1.181289 1.212656 4.047839 10.000000 23 365.487611
1.156872 1.187999 3.104891 13.000000 21 365.487613
1.184290 1.216150 2.565773 16.000000 19 365.487616
1.889057 1.939863 3.317304 10.000000 17 365.487619
0.169366 0.150615 3.748127 27.000000 30 365.487626
0.312858 0.292024 3.942142 18.000000 29 365.487629
0.741117 0.741900 4.072097 95.000000 26 365.487631
1.033234 1.056980 4.073736 91.000000 24 365.487634
1.317484 1.348688 3.960486 7.000000 22 365.487637
1.172806 1.200998 2.815936 16.000000 20 365.487639
1.286364 1.317281 2.511906 24.000000 18 365.487642
1.985685 2.033398 3.159357 11.000000 16 365.487644
1.983291 2.041611 2.876880 12.000000 15 365.487602
2.006663 2.065667 2.403674 14.000000 13 365.487604
2.015163 2.073693 1.980399 14.000000 11 365.487607
2.032562 2.091593 1.612577 12.000000 9 365.487610
1.936193 1.991729 1.210598 11.000000 7 365.487612
1.394897 1.434408 0.677677 24.000000 5 365.487615
1.404100 1.443872 0.473846 26.000000 3 365.487617
1.409703 1.449127 0.274093 15.000000 1 365.487620
2.001459 2.053849 2.634454 15.000000 14 365.487628
2.021634 2.074548 2.192743 17.000000 12 365.487630
2.026591 2.078909 1.790996 15.000000 10 365.487633
1.980821 2.031953 1.399259 11.000000 8 365.487635
1.886307 1.934324 1.028958 13.000000 6 365.487638
1.401876 1.437061 0.574920 27.000000 4 365.487640
1.428346 1.463684 0.377094 20.000000 2 365.487643
1.423682 1.458395 0.175890 12.000000 0 365.487646
0.036639 0.025904 3.589137 9.000000 31 365.487656
0.386680 0.375787 3.428269 6.000000 28 365.487659
0.511340 0.495739 3.447501 10.000000 27 365.487661
0.888588 0.895900 4.078659 93.000000 25 365.487664
1.184146 1.207131 4.043236 10.000000 23 365.487666
1.162689 1.185664 3.109280 13.000000 21 365.487669
1.190498 1.214018 2.569906 15.000000 19 365.487672
1.875615 1.912657 3.282771 9.000000 17 365.487674
0.169673 0.149833 3.743136 27.000000 30 365.487682
0.313875 0.290930 3.942142 18.000000 29 365.487684
0.743702 0.739308 4.072097 95.000000 26 365.487687
1.036917 1.053367 4.073736 91.000000 24 365.487690
1.326765 1.348738 3.973989 8.000000 22 365.487692
1.176991 1.196897 2.815936 16.000000 20 365.487695
1.290954 1.312782 2.511906 24.000000 18 365.487697
1.995148 2.028871 3.163032 11.000000 16 365.487700
1.995393 2.039774 2.883889 12.000000 15 365.487657
2.016583 2.061433 2.406812 14.000000 13 365.487660
2.025314 2.069635 1.983140 14.000000 11 365.487663
2.030555 2.074986 1.605623 10.000000 9 365.487665
1.926918 1.968395 1.201232 12.000000 7 365.487668
1.403252 1.432957 0.679086 24.000000 5 365.487670
1.409132 1.438961 0.473846 26.000000 3 365.487673
1.418238 1.447755 0.274539 15.000000 1 365.487675
2.011231 2.049515 2.637779 15.000000 14 365.487683
2.031694 2.070363 2.195687 16.000000 12 365.487686
2.033835 2.071822 1.790996 15.000000 10 365.487688
1.972005 2.008833 1.388768 11.000000 8 365.487691
1.876503 1.910881 1.020744 12.000000 6 365.487693
1.410290 1.435627 0.576092 27.000000 4 365.487696
1.433446 1.458689 0.377094 20.000000 2 365.487698
1.428764 1.453417 0.175890 10.000000 0 365.487701
0.036691 0.025754 3.584137 10.000000 31 365.487712
0.387429 0.373896 3.423330 6.000000 28 365.487714
0.513067 0.493951 3.447501 10.000000 27 365.487717
0.890654 0.891736 4.073887 93.000000 25 365.487719
1.188353 1.202990 4.043236 9.000000 23 365.487722
1.168504 1.183303 3.113669 13.000000 21 365.487724
1.194728 1.209855 2.569906 15.000000 19 365.487727
1.864259 1.887849 3.252075 9.000000 17 365.487730
0.170195 0.149239 3.743136 26.000000 30 365.487737
0.315282 0.290194 3.947114 18.000000 29 365.487740
0.746278 0.736708 4.072097 95.000000 26 365.487742
1.039373 1.048516 4.069043 92.000000 24 365.487745
1.336063 1.348740 3.987491 12.000000 22 365.487748
1.182997 1.194634 2.820202 15.000000 20 365.487750
1.295529 1.308268 2.511906 24.000000 18 365.487753
2.004603 2.024303 3.166708 11.000000 16 365.487755
2.005003 2.035337 2.887393 12.000000 15 365.487713
2.026499 2.057154 2.409950 14.000000 13 365.487716
2.035461 2.065531 1.985882 14.000000 11 365.487718
2.028457 2.058419 1.598669 10.000000 9 365.487721
1.917504 1.945149 1.191867 12.000000 7 365.487723
1.408245 1.428051 0.679086 23.000000 5 365.487726
1.417595 1.437532 0.474779 25.000000 3 365.487728
1.426780 1.446341 0.274985 15.000000 1 365.487731
2.018373 2.042482 2.637779 15.000000 14 365.487739
2.041750 2.066134 2.198630 16.000000 12 365.487741
2.047117 2.070843 1.796060 13.000000 10 365.487744
1.963051 1.985799 1.378278 12.000000 8 365.487746
1.866559 1.887529 1.012531 12.000000 6 365.487749
1.415293 1.430695 0.576092 27.000000 4 365.487751
1.442013 1.457197 0.377784 22.000000 2 365.487754
1.433829 1.448421 0.175890 8.000000 0 365.487757
0.036743 0.025604 3.579137 10.000000 31 365.487767
0.388732 0.372541 3.423330 7.000000 28 365.487770
0.514788 0.492157 3.447501 10.000000 27 365.487772
0.893761 0.888622 4.073887 94.000000 25 365.487775
1.192545 1.198835 4.043236 9.000000 23 365.487777
1.172627 1.179217 3.113669 13.000000 21 365.487780
1.200928 1.207673 2.574039 15.000000 19 365.487783
0.170495 0.148455 3.738144 26.000000 30 365.487793
0.316293 0.289091 3.947114 18.000000 29 365.487795
0.748845 0.734098 4.072097 95.000000 26 365.487798
1.043026 1.044881 4.069043 92.000000 24 365.487801
1.345377 1.348693 4.000994 12.000000 22 365.487803
1.189001 1.192344 2.824468 15.000000 20 365.487806
1.300088 1.303738 2.511906 24.000000 18 365.487808
2.016445 2.022094 3.174058 11.000000 16 365.487811
2.014607 2.030858 2.890898 12.000000 15 365.487768
2.036409 2.052832 2.413087 14.000000 13 365.487771
2.048549 2.064349 1.991365 13.000000 11 365.487774
2.023148 2.038748 1.589397 9.000000 9 365.487776
1.911218 1.925284 1.184375 13.000000 7 365.487779
1.416602 1.426530 0.680495 23.000000 5 365.487781
1.426066 1.436060 0.475712 25.000000 3 365.487784
1.431820 1.441351 0.274985 15.000000 1 365.487786
2.028125 2.038071 2.641104 15.000000 14 365.487794
2.051800 2.061859 2.201573 16.000000 12 365.487797
2.048250 2.057573 1.790996 10.000000 10 365.487799
1.953961 1.962852 1.367788 12.000000 8 365.487802
1.859807 1.867617 1.005960 13.000000 6 365.487804
1.423709 1.429189 0.577265 28.000000 4 365.487807
1.447091 1.452154 0.377784 22.000000 2 365.487810
1.438876 1.443407 0.175890 7.000000 0 365.487812
0.036832 0.025476 3.579137 10.000000 31 365.487823
0.390030 0.371182 3.423330 7.000000 28 365.487825
0.516503 0.490357 3.447501 10.000000 27 365.487828
0.896858 0.885497 4.073887 94.000000 25 365.487830
1.195340 1.193284 4.038633 9.000000 23 365.487833
1.178432 1.176809 3.118057 13.000000 21 365.487836
1.207128 1.205462 2.578172 15.000000 19 365.487838
1.455451 1.453435 2.538404 9.000000 17 365.487841
0.171012 0.147859 3.738144 25.000000 30 365.487848
0.317300 0.287985 3.947114 17.000000 29 365.487851
0.751403 0.731480 4.072097 95.000000 26 365.487854
1.046668 1.041234 4.069043 91.000000 24 365.487856
1.353163 1.347062 4.009995 9.000000 22 365.487859
1.195004 1.190027 2.828734 15.000000 20 365.487861
1.304631 1.299192 2.511906 24.000000 18 365.487864
2.025893 2.017436 3.177733 11.000000 16 365.487866
2.024205 2.026336 2.894403 12.000000 15 365.487824
2.046313 2.048465 2.416225 14.000000 13 365.487827
2.055743 2.057186 1.991365 13.000000 11 365.487829
2.011462 2.012871 1.575489 10.000000 9 365.487832
1.901540 1.902207 1.175010 13.000000 7 365.487834
1.421573 1.421576 0.680495 23.000000 5 365.487837
1.431070 1.431073 0.475712 26.000000 3 365.487839
1.436842 1.436345 0.274985 14.000000 1 365.487842
2.037870 2.033617 2.644428 14.000000 14 365.487850
2.061846 2.057540 2.204516 16.000000 12 365.487852
2.043211 2.038232 1.780866 9.000000 10 365.487855
1.944735 1.939993 1.357298 13.000000 8 365.487857
1.852939 1.847775 0.999389 13.000000 6 365.487860
1.432131 1.427643 0.578437 27.000000 4 365.487862
1.455658 1.450590 0.378474 21.000000 2 365.487865
1.447445 1.441901 0.176092 7.000000 0 365.487868
0.036921 0.025347 3.579137 10.000000 31 365.487878
0.391889 0.370351 3.428269 8.000000 28 365.487881
0.518212 0.488551 3.447501 10.000000 27 365.487883
0.899943 0.882361 4.073887 93.000000 25 365.487886
1.199498 1.189104 4.038633 9.000000 23 365.487888
1.184233 1.174375 3.122446 13.000000 21 365.487891
1.215325 1.205204 2.586438 15.000000 19 365.487893
1.451411 1.439316 2.523056 12.000000 17 365.487896
0.171307 0.147074 3.733152 22.000000 30 365.487904
0.318304 0.286876 3.947114 17.000000 29 365.487906
0.753952 0.728853 4.072097 93.000000 26 365.487909
1.050296 1.037574 4.069043 91.000000 24 365.487911
1.359406 1.343861 4.014497 9.000000 22 365.487914
1.201005 1.187682 2.833000 15.000000 20 365.487916
1.309158 1.294630 2.511906 24.000000 18 365.487919
2.035333 2.012735 3.181408 11.000000 16 365.487922
2.036324 2.024287 2.901412 12.000000 15 365.487879
2.056212 2.044054 2.419363 14.000000 13 365.487882
2.068843 2.055892 1.996848 13.000000 11 365.487884
1.999622 1.987100 1.561581 10.000000 9 365.487887
1.895012 1.882489 1.167518 13.000000 7 365.487890
1.429931 1.419986 0.681905 23.000000 5 365.487892
1.439542 1.429531 0.476644 26.000000 3 365.487895
1.441848 1.431320 0.274985 10.000000 1 365.487897
2.050261 2.031749 2.651078 14.000000 14 365.487905
2.071887 2.053175 2.207459 16.000000 12 365.487908
2.047250 2.028053 1.778333 9.000000 10 365.487910
1.935374 1.917222 1.346807 13.000000 8 365.487913
1.845955 1.828005 0.992819 13.000000 6 365.487915
1.437106 1.422635 0.578437 27.000000 4 365.487918
1.460713 1.445500 0.378474 21.000000 2 365.487920
1.456021 1.440354 0.176293 11.000000 0 365.487923
0.037009 0.025218 3.579137 9.000000 31 365.487934
0.393179 0.368981 3.428269 8.000000 28 365.487936
0.519914 0.486739 3.447501 10.000000 27 365.487939
0.903018 0.879214 4.073887 91.000000 25 365.487941
1.202249 1.183540 4.034031 9.000000 23 365.487944
1.190032 1.171915 3.126835 13.000000 21 365.487946
1.221529 1.202928 2.590571 16.000000 19 365.487949
1.454141 1.431992 2.519219 15.000000 17 365.487951
0.171598 0.146288 3.728161 22.000000 30 365.487959
0.319303 0.285763 3.947114 17.000000 29 365.487962
0.756491 0.726216 4.072097 92.000000 26 365.487964
1.052679 1.032693 4.064351 92.000000 24 365.487967
1.365642 1.340634 4.018998 10.000000 22 365.487969
1.207004 1.185310 2.837266 15.000000 20 365.487972
1.311518 1.287940 2.507916 24.000000 18 365.487975
2.047185 2.010369 3.188759 11.000000 16 365.487977
2.045916 2.019672 2.904916 12.000000 15 365.487935
2.068876 2.042334 2.425639 14.000000 13 365.487937
2.070055 2.042784 1.991365 10.000000 11 365.487940
1.987626 1.961438 1.547673 11.000000 9 365.487942
1.885070 1.859584 1.158153 13.000000 7 365.487945
1.438294 1.418354 0.683314 22.000000 5 365.487948
1.448021 1.427946 0.477577 26.000000 3 365.487950
1.446835 1.426279 0.274985 10.000000 1 365.487953
2.060003 2.027199 2.654403 14.000000 14 365.487960
2.081923 2.048766 2.210402 16.000000 12 365.487963
2.029730 1.996707 1.758074 10.000000 10 365.487966
1.925877 1.894541 1.336317 13.000000 8 365.487968
1.838856 1.808305 0.986248 13.000000 6 365.487971
1.445529 1.421017 0.579609 28.000000 4 365.487973
1.465750 1.440392 0.378474 21.000000 2 365.487976
1.464604 1.438763 0.176495 12.000000 0 365.487978
0.037135 0.025110 3.584137 9.000000 31 365.487989
0.395033 0.368136 3.433208 8.000000 28 365.487992
0.521610 0.484921 3.447501 10.000000 27 365.487994
0.905008 0.875018 4.069116 93.000000 25 365.487997
1.206373 1.179336 4.034031 8.000000 23 365.487999
1.195829 1.169429 3.131223 12.000000 21 365.488002
1.229745 1.202592 2.598837 16.000000 19 365.488004
1.466008 1.433632 2.530730 17.000000 17 365.488007
0.172107 0.145688 3.728161 20.000000 30 365.488015
0.320299 0.284647 3.947114 17.000000 29 365.488017
0.758111 0.722704 4.067257 87.000000 26 365.488020
1.056277 1.029012 4.064351 91.000000 24 365.488022
1.371873 1.337378 4.023498 10.000000 22 365.488025
1.211134 1.181089 2.837266 15.000000 20 365.488028
1.316006 1.283355 2.507916 24.000000 18 365.488030
2.056617 2.005578 3.192434 11.000000 16 365.488033
2.055500 2.015014 2.908421 12.000000 15 365.487990
2.078772 2.037824 2.428777 14.000000 13 365.487993
2.065226 2.023839 1.980399 8.000000 11 365.487995
1.975475 1.935883 1.533765 11.000000 9 365.487998
1.874992 1.836772 1.148787 14.000000 7 365.488001
1.443236 1.413325 0.683314 22.000000 5 365.488003
1.456506 1.426320 0.478509 26.000000 3 365.488006
1.455364 1.424703 0.275431 10.000000 1 365.488008
2.072408 2.025216 2.661053 14.000000 14 365.488016
2.091952 2.044311 2.213346 16.000000 12 365.488019
2.021267 1.974547 1.745412 10.000000 10 365.488021
1.919493 1.875121 1.327925 13.000000 8 365.488024
1.831643 1.788678 0.979677 14.000000 6 365.488026
1.453959 1.419358 0.580782 28.000000 4 365.488029
1.467225 1.431808 0.377784 15.000000 2 365.488031
1.473193 1.437131 0.176696 12.000000 0 365.488034
0.037222 0.024980 3.584137 9.000000 31 365.488045
0.396316 0.366755 3.433208 8.000000 28 365.488047
0.523299 0.483098 3.447501 11.000000 27 365.488050
0.908056 0.871854 4.069116 91.000000 25 365.488052
1.210482 1.175118 4.034031 8.000000 23 365.488055
1.201622 1.166917 3.135612 12.000000 21 365.488057
1.235954 1.200253 2.602970 16.000000 19 365.488060
1.466403 1.424039 2.523056 18.000000 17 365.488062
0.172615 0.145087 3.728161 20.000000 30 365.488070
0.321290 0.283527 3.947114 18.000000 29 365.488073
0.760629 0.720053 4.067257 84.000000 26 365.488075
1.059863 1.025319 4.064351 91.000000 24 365.488078
1.376533 1.332582 4.023498 10.000000 22 365.488080
1.217124 1.178669 2.841532 15.000000 20 365.488083
1.320478 1.278753 2.507916 23.000000 18 365.488086
2.066041 2.000745 3.196109 11.000000 16 365.488088
2.067632 2.012803 2.915430 11.000000 15 365.488046
2.088662 2.033271 2.431914 14.000000 13 365.488048
2.072278 2.016618 1.980399 8.000000 11 365.488051
1.966346 1.913527 1.522174 12.000000 9 365.488054
1.864777 1.814053 1.139422 14.000000 7 365.488056
1.451600 1.411623 0.684723 22.000000 5 365.488059
1.464998 1.424652 0.479442 26.000000 3 365.488061
1.463898 1.423086 0.275877 11.000000 1 365.488064
2.082145 2.020570 2.664378 14.000000 14 365.488072
2.096175 2.034181 2.210402 14.000000 12 365.488074
2.009581 1.949468 1.730217 10.000000 10 365.488077
1.909738 1.852609 1.317435 13.000000 8 365.488079
1.820924 1.765835 0.971464 14.000000 6 365.488082
1.458905 1.414274 0.580782 28.000000 4 365.488084
1.472214 1.426678 0.377784 13.000000 2 365.488087
1.481789 1.435456 0.176898 13.000000 0 365.488089
0.037309 0.024850 3.584137 9.000000 31 365.488100
0.398166 0.365894 3.438148 9.000000 28 365.488103
0.524982 0.481268 3.447501 11.000000 27 365.488105
0.911094 0.868679 4.069116 91.000000 25 365.488108
1.214577 1.170885 4.034031 9.000000 23 365.488110
1.207413 1.164379 3.140001 12.000000 21 365.488113
1.242162 1.197884 2.607103 16.000000 19 365.488115
1.473673 1.421136 2.526893 18.000000 17 365.488118
0.172897 0.144299 3.723169 20.000000 30 365.488126
0.322278 0.282404 3.947114 18.000000 29 365.488128
0.762221 0.716532 4.062418 72.000000 26 365.488131
1.063435 1.021613 4.064351 92.000000 24 365.488133
1.382746 1.329278 4.027999 10.000000 22 365.488136
1.223110 1.176221 2.845798 15.000000 20 365.488139
1.324934 1.274136 2.507916 24.000000 18 365.488141
2.075455 1.995871 3.199784 11.000000 16 365.488144
2.077209 2.008051 2.918934 11.000000 15 365.488101
2.098546 2.028674 2.435052 14.000000 13 365.488104
2.055250 1.986126 1.958467 9.000000 11 365.488106
1.953899 1.888180 1.508266 12.000000 9 365.488109
1.854427 1.791428 1.130057 14.000000 7 365.488112
1.459970 1.409880 0.686132 22.000000 5 365.488114
1.477029 1.426354 0.481307 26.000000 3 365.488117
1.476023 1.424885 0.276770 16.000000 1 365.488119
2.091874 2.015881 2.667703 14.000000 14 365.488127
2.097441 2.021242 2.204516 12.000000 12 365.488130
1.997744 1.924495 1.715023 10.000000 10 365.488132
1.899850 1.830187 1.306944 14.000000 8 365.488135
1.793061 1.726710 0.955037 16.000000 6 365.488137
1.467334 1.412544 0.581954 28.000000 4 365.488140
1.473616 1.418096 0.377094 13.000000 2 365.488142
1.490391 1.433738 0.177099 12.000000 0 365.488145
0.037434 0.024741 3.589137 9.000000 31 365.488156
0.399441 0.364502 3.438148 9.000000 28 365.488158
0.526659 0.479432 3.447501 10.000000 27 365.488161
0.914121 0.865494 4.069116 93.000000 25 365.488163
1.220068 1.167989 4.038633 9.000000 23 365.488166
1.214931 1.163471 3.148778 11.000000 21 365.488168
1.250400 1.197434 2.615369 16.000000 19 365.488171
1.476309 1.413767 2.523056 18.000000 17 365.488174
0.173400 0.143694 3.723169 19.000000 30 365.488181
0.323262 0.281277 3.947114 18.000000 29 365.488184
0.763798 0.713009 4.057579 60.000000 26 365.488186
1.066995 1.017895 4.064351 92.000000 24 365.488189
1.387378 1.324443 4.027999 9.000000 22 365.488192
1.229095 1.173746 2.850064 15.000000 20 365.488194
1.327193 1.267422 2.503927 24.000000 18 365.488197
2.087313 1.993297 3.207134 11.000000 16 365.488199
2.089351 2.005728 2.925943 12.000000 15 365.488157
2.105614 2.021336 2.435052 13.000000 13 365.488159
2.047086 1.964464 1.944760 9.000000 11 365.488162
1.944495 1.866011 1.496676 12.000000 9 365.488165
1.837250 1.762479 1.116946 14.000000 7 365.488167
1.468345 1.408096 0.687541 22.000000 5 365.488170
1.485544 1.424590 0.482240 23.000000 3 365.488172
1.488178 1.426616 0.277662 17.000000 1 365.488175
2.104294 2.013730 2.674352 13.000000 14 365.488183
2.092803 2.002730 2.192743 10.000000 12 365.488185
1.985758 1.899629 1.699828 10.000000 10 365.488188
1.889830 1.807858 1.296454 14.000000 8 365.488190
1.771773 1.694330 0.941895 19.000000 6 365.488193
1.475769 1.410772 0.583126 27.000000 4 365.488195
1.485718 1.419786 0.378474 14.000000 2 365.488198
1.498999 1.431978 0.177301 12.000000 0 365.488200
0.037520 0.024610 3.589137 9.000000 31 365.488211
0.400711 0.363106 3.438148 8.000000 28 365.488214
0.528329 0.477591 3.447501 10.000000 27 365.488216
0.917136 0.862297 4.069116 94.000000 25 365.488219
1.224137 1.163723 4.038633 9.000000 23 365.488221
1.220720 1.160874 3.153167 12.000000 21 365.488224
1.256611 1.195001 2.619502 16.000000 19 365.488226
1.481235 1.408605 2.523056 18.000000 17 365.488229
0.173900 0.143088 3.723169 19.000000 30 365.488237
0.323837 0.279799 3.942142 17.000000 29 365.488239
0.764437 0.708628 4.047901 40.000000 26 365.488242
1.069289 1.012977 4.059658 91.000000 24 365.488244
1.390642 1.317851 4.023498 9.000000 22 365.488247
1.235281 1.171027 2.854329 15.000000 20 365.488250
1.331830 1.262549 2.503927 24.000000 18 365.488252
2.097065 1.987965 3.210809 11.000000 16 365.488255
2.098921 2.000883 2.929448 11.000000 15 365.488212
2.115475 2.016660 2.438190 13.000000 13 365.488215
2.035768 1.939999 1.928311 9.000000 11 365.488218
1.934961 1.843931 1.485086 12.000000 9 365.488220
1.823251 1.736869 1.105708 14.000000 7 365.488223
1.473251 1.402962 0.687541 21.000000 5 365.488225
1.494314 1.422522 0.483173 17.000000 3 365.488228
1.497004 1.424585 0.278108 17.000000 1 365.488230
2.114368 2.008576 2.677677 13.000000 14 365.488238
2.085477 1.981127 2.178028 10.000000 12 365.488241
1.973949 1.874525 1.684634 11.000000 10 365.488243
1.879988 1.785293 1.285964 14.000000 8 365.488246
1.743721 1.655312 0.925469 16.000000 6 365.488248
1.484456 1.408700 0.584299 27.000000 4 365.488251
1.494505 1.417740 0.379164 21.000000 2 365.488253
1.503989 1.426737 0.177301 12.000000 0 365.488256
0.037610 0.024472 3.589137 9.000000 31 365.488267
0.401461 0.361115 3.433208 8.000000 28 365.488269
0.530076 0.475652 3.447501 11.000000 27 365.488272
0.920291 0.858930 4.069116 94.000000 25 365.488274
1.226973 1.157888 4.034031 10.000000 23 365.488277
1.228451 1.159681 3.161944 12.000000 21 365.488279
1.263029 1.192319 2.623635 16.000000 19 365.488282
1.484056 1.400965 2.519219 17.000000 17 365.488285
0.174198 0.142268 3.718178 18.000000 30 365.488292
0.324860 0.278610 3.942142 17.000000 29 365.488295
0.767955 0.706673 4.052740 32.000000 26 365.488297
1.072994 1.009051 4.059658 91.000000 24 365.488300
1.395234 1.312989 4.023498 9.000000 22 365.488303
1.241260 1.168496 2.858595 14.000000 20 365.488305
1.336229 1.257892 2.503927 24.000000 18 365.488308
2.108929 1.985281 3.218160 11.000000 16 365.488310
2.111421 1.998079 2.936457 11.000000 15 365.488268
2.122852 2.008893 2.438190 12.000000 13 365.488270
2.024639 1.915283 1.911862 10.000000 11 365.488273
1.922397 1.818559 1.471178 12.000000 9 365.488276
1.795922 1.698322 1.086977 15.000000 7 365.488278
1.481870 1.400848 0.688951 22.000000 5 365.488281
1.499270 1.417297 0.483173 17.000000 3 365.488283
1.505587 1.422772 0.278555 17.000000 1 365.488286
