# .PCD v.7 - Point Cloud Data file format
VERSION .7
FIELDS x y z intensity ring timestamp
SIZE 4 4 4 4 2 8
TYPE F F F F U D
COUNT 1 1 1 1 1 1
WIDTH 911
HEIGHT 1
VIEWPOINT 0 0 0 1 0 0 0
POINTS 911
DATA ascii
-0.216988 -1.119447 0.614587 40.000000 8 365.728403
-0.215078 -1.108558 0.481944 35.000000 6 365.728406
-0.211295 -1.088044 0.358041 13.000000 4 365.728408
-0.210691 -1.083924 0.246029 14.000000 2 365.728411
-0.214626 -1.103143 0.139010 29.000000 0 365.728414
-0.015481 -0.039933 3.354146 8.000000 31 365.728425
-0.125730 -0.566599 3.690050 8.000000 28 365.728428
-0.173539 -0.777579 3.853804 8.000000 27 365.728430
-0.241997 -1.194250 3.940279 9.000000 25 365.728433
-0.227414 -1.154979 2.832772 24.000000 23 365.728435
-0.225737 -1.147492 2.209605 36.000000 21 365.728438
-0.223373 -1.135461 1.772247 39.000000 19 365.728440
-0.222527 -1.131147 1.456385 39.000000 17 365.728443
-0.054940 -0.201935 3.448631 8.000000 30 365.728451
-0.092879 -0.376642 3.569286 8.000000 29 365.728453
-0.210600 -1.002879 3.980152 4.000000 26 365.728456
-0.236623 -1.190790 3.355742 19.000000 24 365.728458
-0.228900 -1.152956 2.493215 32.000000 22 365.728461
-0.225122 -1.134934 1.962749 37.000000 20 365.728463
-0.223359 -1.126037 1.594321 39.000000 18 365.728466
-0.221861 -1.118470 1.314425 42.000000 16 365.728469
-0.219006 -1.120463 1.201707 40.000000 15 365.728426
-0.217897 -1.114778 0.997950 42.000000 13 365.728429
-0.217189 -1.110126 0.826241 40.000000 11 365.728431
-0.217186 -1.110096 0.678413 39.000000 9 365.728434
-0.215760 -1.101787 0.541925 37.000000 7 365.728437
-0.211376 -1.078401 0.412748 24.000000 5 365.728439
-0.210891 -1.074934 0.299446 8.000000 3 365.728442
-0.212033 -1.079759 0.191544 15.000000 1 365.728444
-0.220401 -1.117238 1.095049 45.000000 14 365.728452
-0.218768 -1.108951 0.906582 46.000000 12 365.728455
-0.218324 -1.105682 0.747636 42.000000 10 365.728457
-0.220894 -1.118683 0.614587 40.000000 8 365.728460
-0.218946 -1.107800 0.481944 35.000000 6 365.728462
-0.215091 -1.087300 0.358041 13.000000 4 365.728465
-0.214473 -1.083182 0.246029 14.000000 2 365.728467
-0.217313 -1.097525 0.138808 29.000000 0 365.728470
-0.015627 -0.039876 3.354146 8.000000 31 365.728481
-0.127463 -0.564618 3.680171 8.000000 28 365.728483
-0.175710 -0.773960 3.839119 8.000000 27 365.728486
-0.246071 -1.191892 3.935507 9.000000 25 365.728488
-0.231262 -1.152223 2.828170 24.000000 23 365.728491
-0.229942 -1.146657 2.209605 36.000000 21 365.728493
-0.227533 -1.134635 1.772247 39.000000 19 365.728496
-0.226671 -1.130324 1.456385 39.000000 17 365.728498
-0.055566 -0.201464 3.443639 8.000000 30 365.728506
-0.094062 -0.375798 3.564315 8.000000 29 365.728509
-0.214099 -1.002138 3.980152 4.000000 26 365.728511
-0.240778 -1.189957 3.355742 19.000000 24 365.728514
-0.232924 -1.152150 2.493215 32.000000 22 365.728516
-0.228565 -1.131585 1.958483 37.000000 20 365.728519
-0.227289 -1.125250 1.594321 39.000000 18 365.728522
-0.225569 -1.117728 1.314425 42.000000 16 365.728524
-0.223111 -1.119653 1.201707 40.000000 15 365.728482
-0.221982 -1.113972 0.997950 40.000000 13 365.728484
-0.221257 -1.109322 0.826241 40.000000 11 365.728487
-0.221253 -1.109293 0.678413 39.000000 9 365.728489
-0.218698 -1.096481 0.540052 37.000000 7 365.728492
-0.215139 -1.077657 0.412748 24.000000 5 365.728495
-0.213679 -1.069374 0.298514 8.000000 3 365.728497
-0.215801 -1.079013 0.191544 15.000000 1 365.728500
-0.224299 -1.116462 1.095049 45.000000 14 365.728507
-0.222638 -1.108180 0.906582 46.000000 12 365.728510
-0.221989 -1.104952 0.747636 42.000000 10 365.728513
-0.224602 -1.117944 0.614587 40.000000 8 365.728515
-0.222618 -1.107068 0.481944 35.000000 6 365.728518
-0.218696 -1.086581 0.358041 13.000000 4 365.728520
-0.218064 -1.082465 0.246029 14.000000 2 365.728523
-0.221143 -1.096759 0.138808 29.000000 0 365.728525
-0.015739 -0.039785 3.349146 8.000000 31 365.728536
-0.128986 -0.562678 3.670293 8.000000 28 365.728539
-0.177587 -0.770396 3.824433 7.000000 27 365.728541
-0.250022 -1.191070 3.935507 9.000000 25 365.728544
-0.235081 -1.151449 2.828170 24.000000 23 365.728546
-0.233743 -1.145888 2.209605 36.000000 21 365.728549
-0.231294 -1.133874 1.772247 39.000000 19 365.728551
-0.229777 -1.126425 1.452549 39.000000 17 365.728554
-0.056269 -0.201268 3.443639 8.000000 30 365.728562
-0.095109 -0.374433 3.554372 8.000000 29 365.728564
-0.217596 -1.001384 3.980152 4.000000 26 365.728567
-0.244931 -1.189109 3.355742 19.000000 24 365.728569
-0.236304 -1.149238 2.488714 32.000000 22 365.728572
-0.232317 -1.130821 1.958483 37.000000 20 365.728575
-0.230412 -1.121538 1.590332 39.000000 18 365.728577
-0.229469 -1.116934 1.314425 42.000000 16 365.728580
-0.226823 -1.118907 1.201707 40.000000 15 365.728537
-0.225675 -1.113229 0.997950 40.000000 13 365.728540
-0.224934 -1.108582 0.826241 40.000000 11 365.728542
-0.224931 -1.108553 0.678413 39.000000 9 365.728545
-0.222524 -1.095711 0.540052 37.000000 7 365.728548
-0.218899 -1.076899 0.412748 24.000000 5 365.728550
-0.217224 -1.068659 0.298514 8.000000 3 365.728553
-0.219378 -1.078291 0.191544 14.000000 1 365.728555
-0.228000 -1.115712 1.095049 47.000000 14 365.728563
-0.225502 -1.103476 0.903639 46.000000 12 365.728566
-0.225845 -1.104170 0.747636 42.000000 10 365.728568
-0.227594 -1.112707 0.612489 40.000000 8 365.728571
-0.226481 -1.106284 0.481944 35.000000 6 365.728573
-0.222487 -1.085811 0.358041 13.000000 4 365.728576
-0.220846 -1.076846 0.245340 15.000000 2 365.728578
-0.224970 -1.095981 0.138808 29.000000 0 365.728581
-0.015878 -0.039730 3.349146 8.000000 31 365.728592
-0.130596 -0.560711 3.660414 8.000000 28 365.728594
-0.179577 -0.766798 3.809747 7.000000 27 365.728597
-0.253866 -1.188729 3.930735 9.000000 25 365.728599
-0.239099 -1.150622 2.828170 24.000000 23 365.728602
-0.237741 -1.145065 2.209605 36.000000 21 365.728604
-0.235251 -1.133060 1.772247 39.000000 19 365.728607
-0.233708 -1.125616 1.452549 39.000000 17 365.728609
-0.056971 -0.201071 3.443639 8.000000 30 365.728617
-0.096281 -0.373582 3.549401 8.000000 29 365.728620
-0.219732 -0.994478 3.955956 5.000000 26 365.728622
-0.248726 -1.186558 3.351050 19.000000 24 365.728625
-0.240315 -1.148406 2.488714 32.000000 22 365.728627
-0.236263 -1.130003 1.958483 37.000000 20 365.728630
-0.234326 -1.120727 1.590332 39.000000 18 365.728633
-0.232672 -1.112808 1.310749 42.000000 16 365.728635
-0.230006 -1.114615 1.198202 40.000000 15 365.728593
-0.228772 -1.108622 0.994812 42.000000 13 365.728595
-0.228802 -1.107790 0.826241 40.000000 11 365.728598
-0.228799 -1.107761 0.678413 39.000000 9 365.728601
-0.226347 -1.094928 0.540052 37.000000 7 365.728603
-0.222657 -1.076129 0.412748 24.000000 5 365.728606
-0.220953 -1.067895 0.298514 8.000000 3 365.728608
-0.223141 -1.077519 0.191544 15.000000 1 365.728611
-0.231133 -1.111253 1.091725 47.000000 14 365.728619
-0.229353 -1.102682 0.903639 48.000000 12 365.728621
-0.228819 -1.099154 0.745104 42.000000 10 365.728624
-0.231477 -1.111906 0.612489 40.000000 8 365.728626
-0.230342 -1.105487 0.481944 35.000000 6 365.728629
-0.226276 -1.085027 0.358041 13.000000 4 365.728631
-0.224604 -1.076069 0.245340 15.000000 2 365.728634
-0.228794 -1.095189 0.138808 29.000000 0 365.728636
-0.016017 -0.039674 3.349146 8.000000 31 365.728647
-0.132194 -0.558740 3.650536 8.000000 28 365.728650
-0.181545 -0.763195 3.795062 8.000000 27 365.728652
-0.258014 -1.187836 3.930735 9.000000 25 365.728655
-0.243114 -1.149780 2.828170 24.000000 23 365.728657
-0.241242 -1.141884 2.205216 36.000000 21 365.728660
-0.239205 -1.132232 1.772247 39.000000 19 365.728662
-0.237636 -1.124793 1.452549 39.000000 17 365.728665
-0.057673 -0.200871 3.443639 8.000000 30 365.728673
-0.097312 -0.372211 3.539458 8.000000 29 365.728675
-0.222099 -0.988796 3.936599 7.000000 26 365.728678
-0.252866 -1.185682 3.351050 19.000000 24 365.728680
-0.244322 -1.147560 2.488714 32.000000 22 365.728683
-0.240206 -1.129171 1.958483 37.000000 20 365.728686
-0.237609 -1.116954 1.586342 39.000000 18 365.728688
-0.236556 -1.111989 1.310749 42.000000 16 365.728691
-0.233896 -1.113806 1.198202 40.000000 15 365.728648
-0.232641 -1.107817 0.994812 42.000000 13 365.728651
-0.232668 -1.106985 0.826241 40.000000 11 365.728653
-0.232664 -1.106956 0.678413 39.000000 9 365.728656
-0.230168 -1.094131 0.540052 37.000000 7 365.728659
-0.226412 -1.075345 0.412748 24.000000 5 365.728661
-0.224680 -1.067117 0.298514 8.000000 3 365.728664
-0.226901 -1.076733 0.191544 14.000000 1 365.728666
-0.235011 -1.110439 1.091725 47.000000 14 365.728674
-0.233201 -1.101874 0.903639 46.000000 12 365.728677
-0.232655 -1.098349 0.745104 42.000000 10 365.728679
-0.235356 -1.111091 0.612489 40.000000 8 365.728682
-0.233220 -1.100057 0.480301 35.000000 6 365.728684
-0.229053 -1.079476 0.356869 13.000000 4 365.728687
-0.227330 -1.070434 0.244650 16.000000 2 365.728689
-0.232616 -1.094383 0.138808 29.000000 0 365.728692
-0.016155 -0.039618 3.349146 8.000000 31 365.728703
-0.133961 -0.557520 3.645597 8.000000 28 365.728705
-0.183728 -0.760577 3.785271 8.000000 27 365.728708
-0.261836 -1.185469 3.925964 9.000000 25 365.728710
-0.247126 -1.148924 2.828170 24.000000 23 365.728713
-0.245226 -1.141035 2.205216 36.000000 21 365.728715
-0.243155 -1.131390 1.772247 39.000000 19 365.728718
-0.241561 -1.123957 1.452549 39.000000 17 365.728721
-0.058373 -0.200668 3.443639 8.000000 30 365.728728
-0.098473 -0.371353 3.534486 8.000000 29 365.728731
-0.224428 -0.983110 3.917242 7.000000 26 365.728733
-0.256638 -1.183106 3.346357 19.000000 24 365.728736
-0.248326 -1.146700 2.488714 32.000000 22 365.728739
-0.244146 -1.128326 1.958483 37.000000 20 365.728741
-0.241507 -1.116118 1.586342 39.000000 18 365.728744
-0.240436 -1.111156 1.310749 40.000000 16 365.728746
-0.237782 -1.112983 1.198202 40.000000 15 365.728704
-0.236506 -1.106998 0.994812 42.000000 13 365.728706
-0.235656 -1.102077 0.823500 40.000000 11 365.728709
-0.236527 -1.106137 0.678413 39.000000 9 365.728712
-0.233986 -1.093321 0.540052 38.000000 7 365.728714
-0.229160 -1.069857 0.411339 24.000000 5 365.728717
-0.228403 -1.066326 0.298514 8.000000 3 365.728719
-0.229614 -1.071065 0.191098 14.000000 1 365.728722
-0.238885 -1.109612 1.091725 45.000000 14 365.728730
-0.237045 -1.101054 0.903639 46.000000 12 365.728732
-0.236487 -1.097530 0.745104 44.000000 10 365.728735
-0.239233 -1.110263 0.612489 40.000000 8 365.728737
-0.237058 -1.099236 0.480301 35.000000 6 365.728740
-0.232820 -1.078670 0.356869 13.000000 4 365.728742
-0.231065 -1.069634 0.244650 16.000000 2 365.728745
-0.236434 -1.093565 0.138808 28.000000 0 365.728747
-0.016314 -0.039600 3.354146 8.000000 31 365.728758
-0.135537 -0.555539 3.635718 8.000000 28 365.728761
-0.185653 -0.756965 3.770586 8.000000 27 365.728763
-0.265973 -1.184548 3.925964 10.000000 25 365.728766
-0.251135 -1.148055 2.828170 21.000000 23 365.728768
-0.249207 -1.140172 2.205216 36.000000 21 365.728771
-0.246502 -1.127785 1.768114 39.000000 19 365.728773
-0.245482 -1.123107 1.452549 39.000000 17 365.728776
-0.059074 -0.200463 3.443639 8.000000 30 365.728784
-0.099490 -0.369977 3.524543 8.000000 29 365.728786
-0.226436 -0.976194 3.893046 8.000000 26 365.728789
-0.260766 -1.182203 3.346357 19.000000 24 365.728791
-0.252327 -1.145826 2.488714 32.000000 22 365.728794
-0.248083 -1.127467 1.958483 37.000000 20 365.728797
-0.245401 -1.115268 1.586342 39.000000 18 365.728799
-0.243584 -1.106999 1.307074 40.000000 16 365.728802
-0.241666 -1.112146 1.198202 40.000000 15 365.728759
-0.239542 -1.102362 0.991674 42.000000 13 365.728762
-0.239502 -1.101248 0.823500 40.000000 11 365.728765
-0.240387 -1.105304 0.678413 39.000000 9 365.728767
-0.237801 -1.092498 0.540052 37.000000 7 365.728770
-0.232893 -1.069051 0.411339 24.000000 5 365.728772
-0.232124 -1.065522 0.298514 8.000000 3 365.728775
-0.233351 -1.070257 0.191098 16.000000 1 365.728777
-0.242757 -1.108772 1.091725 45.000000 14 365.728785
-0.240887 -1.100219 0.903639 46.000000 12 365.728788
-0.240317 -1.096698 0.745104 42.000000 10 365.728790
-0.243108 -1.109421 0.612489 40.000000 8 365.728793
-0.240894 -1.098402 0.480301 35.000000 6 365.728795
-0.236584 -1.077851 0.356869 13.000000 4 365.728798
-0.234797 -1.068821 0.244650 15.000000 2 365.728800
-0.240250 -1.092733 0.138808 29.000000 0 365.728803
-0.016452 -0.039543 3.354146 8.000000 31 365.728814
-0.137101 -0.553555 3.625839 8.000000 28 365.728816
-0.187555 -0.753349 3.755900 8.000000 27 365.728819
-0.270106 -1.183612 3.925964 11.000000 25 365.728821
-0.255141 -1.147171 2.828170 21.000000 23 365.728824
-0.253186 -1.139296 2.205216 36.000000 21 365.728826
-0.250438 -1.126918 1.768114 39.000000 19 365.728829
-0.249401 -1.122243 1.452549 40.000000 17 365.728832
-0.059689 -0.199979 3.438648 8.000000 30 365.728839
-0.100639 -0.369112 3.519572 8.000000 29 365.728842
-0.228687 -0.970501 3.873689 8.000000 26 365.728844
-0.264513 -1.179602 3.341664 18.000000 24 365.728847
-0.256325 -1.144939 2.488714 32.000000 22 365.728850
-0.252017 -1.126594 1.958483 37.000000 20 365.728852
-0.249293 -1.114405 1.586342 39.000000 18 365.728855
-0.247447 -1.106142 1.307074 40.000000 16 365.728857
-0.245547 -1.111295 1.198202 40.000000 15 365.728815
-0.243389 -1.101519 0.991674 42.000000 13 365.728817
-0.243344 -1.100405 0.823500 40.000000 11 365.728820
-0.244243 -1.104459 0.678413 39.000000 9 365.728823
-0.241613 -1.091661 0.540052 37.000000 7 365.728825
-0.236623 -1.068231 0.411339 24.000000 5 365.728828
-0.235842 -1.064706 0.298514 8.000000 3 365.728830
-0.237086 -1.069436 0.191098 15.000000 1 365.728833
-0.246626 -1.107918 1.091725 47.000000 14 365.728841
-0.243848 -1.095427 0.900696 44.000000 12 365.728843
-0.244144 -1.095853 0.745104 42.000000 10 365.728846
-0.245992 -1.104136 0.610391 40.000000 8 365.728848
-0.244726 -1.097554 0.480301 35.000000 6 365.728851
-0.239286 -1.072274 0.355697 13.000000 4 365.728853
-0.238527 -1.067994 0.244650 16.000000 2 365.728856
-0.242973 -1.087012 0.138607 29.000000 0 365.728859
-0.016590 -0.039485 3.354146 8.000000 31 365.728869
-0.138653 -0.551566 3.615961 8.000000 28 365.728872
-0.189683 -0.750715 3.746109 8.000000 27 365.728874
-0.273898 -1.181207 3.921192 12.000000 25 365.728877
-0.259144 -1.146273 2.828170 24.000000 23 365.728879
-0.257161 -1.138405 2.205216 35.000000 21 365.728882
-0.254370 -1.126037 1.768114 38.000000 19 365.728885
-0.253317 -1.121366 1.452549 40.000000 17 365.728887
-0.060386 -0.199769 3.438648 8.000000 30 365.728895
-0.101784 -0.368244 3.514601 8.000000 29 365.728897
-0.230902 -0.964804 3.854332 8.000000 26 365.728900
-0.268629 -1.178671 3.341664 18.000000 24 365.728903
-0.259837 -1.141914 2.484213 32.000000 22 365.728905
-0.255948 -1.125707 1.958483 37.000000 20 365.728908
-0.253181 -1.113528 1.586342 39.000000 18 365.728910
-0.250555 -1.101966 1.303399 40.000000 16 365.728913
-0.249424 -1.110431 1.198202 40.000000 15 365.728870
-0.247232 -1.100663 0.991674 42.000000 13 365.728873
-0.247184 -1.099549 0.823500 40.000000 11 365.728876
-0.248097 -1.103599 0.678413 39.000000 9 365.728878
-0.245422 -1.090811 0.540052 37.000000 7 365.728881
-0.240350 -1.067399 0.411339 24.000000 5 365.728883
-0.239557 -1.063876 0.298514 8.000000 3 365.728886
-0.240817 -1.068602 0.191098 15.000000 1 365.728888
-0.250492 -1.107050 1.091725 47.000000 14 365.728896
-0.247670 -1.094569 0.900696 44.000000 12 365.728899
-0.247967 -1.094994 0.745104 42.000000 10 365.728901
-0.249844 -1.103270 0.610391 40.000000 8 365.728904
-0.248556 -1.096693 0.480301 35.000000 6 365.728906
-0.243028 -1.071433 0.355697 12.000000 4 365.728909
-0.242253 -1.067155 0.244650 16.000000 2 365.728911
-0.246766 -1.086157 0.138607 29.000000 0 365.728914
-0.016727 -0.039427 3.354146 8.000000 31 365.728925
-0.140192 -0.549573 3.606082 8.000000 28 365.728927
-0.191542 -0.747090 3.731424 8.000000 27 365.728930
-0.277677 -1.178791 3.916420 12.000000 25 365.728932
-0.262706 -1.143458 2.823567 24.000000 23 365.728935
-0.261133 -1.137500 2.205216 35.000000 21 365.728937
-0.257669 -1.122399 1.763981 39.000000 19 365.728940
-0.257230 -1.120474 1.452549 40.000000 17 365.728943
-0.060962 -0.199291 3.433656 8.000000 30 365.728950
-0.102714 -0.366877 3.504658 8.000000 29 365.728953
-0.232912 -0.959144 3.834975 8.000000 26 365.728955
-0.272147 -1.176093 3.336972 18.000000 24 365.728958
-0.263822 -1.141000 2.484213 32.000000 22 365.728961
-0.259876 -1.124807 1.958483 37.000000 20 365.728963
-0.257067 -1.112637 1.586342 39.000000 18 365.728966
-0.254208 -1.101129 1.303399 40.000000 16 365.728968
-0.253299 -1.109554 1.198202 40.000000 15 365.728926
-0.251073 -1.099793 0.991674 42.000000 13 365.728929
-0.251020 -1.098679 0.823500 40.000000 11 365.728931
-0.251948 -1.102727 0.678413 39.000000 9 365.728934
-0.249038 -1.089991 0.540052 38.000000 7 365.728936
-0.243889 -1.066596 0.411339 22.000000 5 365.728939
-0.243269 -1.063033 0.298514 8.000000 3 365.728941
-0.244546 -1.067755 0.191098 15.000000 1 365.728944
-0.254355 -1.106169 1.091725 45.000000 14 365.728952
-0.250584 -1.089758 0.897753 44.000000 12 365.728954
-0.251597 -1.094165 0.745104 42.000000 10 365.728957
-0.253502 -1.102436 0.610391 40.000000 8 365.728959
-0.252192 -1.095863 0.480301 35.000000 6 365.728962
-0.246579 -1.070621 0.355697 12.000000 4 365.728964
-0.245791 -1.066346 0.244650 15.000000 2 365.728967
-0.250367 -1.085333 0.138607 28.000000 0 365.728970
-0.016858 -0.039371 3.354146 8.000000 31 365.728980
-0.141428 -0.546849 3.591265 8.000000 28 365.728983
-0.193506 -0.744480 3.721633 8.000000 27 365.728985
-0.281237 -1.176411 3.911649 11.000000 25 365.728988
-0.266496 -1.142580 2.823567 24.000000 23 365.728990
-0.264904 -1.136628 2.205216 36.000000 21 365.728993
-0.261390 -1.121539 1.763981 38.000000 19 365.728996
-0.260944 -1.119615 1.452549 40.000000 17 365.728998
-0.061483 -0.198525 3.423673 8.000000 30 365.729006
-0.103848 -0.366003 3.499686 8.000000 29 365.729008
-0.235053 -0.953440 3.815619 8.000000 26 365.729011
-0.276251 -1.175135 3.336972 18.000000 24 365.729014
-0.267604 -1.140118 2.484213 32.000000 22 365.729016
-0.263009 -1.121400 1.954217 37.000000 20 365.729019
-0.261443 -1.114713 1.590332 39.000000 18 365.729021
-0.258050 -1.100235 1.303399 40.000000 16 365.729024
-0.256977 -1.108708 1.198202 42.000000 15 365.728981
-0.254719 -1.098954 0.991674 42.000000 13 365.728984
-0.254662 -1.097841 0.823500 40.000000 11 365.728987
-0.255603 -1.101885 0.678413 39.000000 9 365.728989
-0.251793 -1.084599 0.538179 38.000000 7 365.728992
-0.247610 -1.065738 0.411339 22.000000 5 365.728994
-0.246793 -1.062220 0.298514 8.000000 3 365.728997
-0.248085 -1.066938 0.191098 14.000000 1 365.728999
-0.258022 -1.105319 1.091725 45.000000 14 365.729007
-0.254196 -1.088921 0.897753 44.000000 12 365.729010
-0.255415 -1.093280 0.745104 42.000000 10 365.729012
-0.257348 -1.101544 0.610391 40.000000 8 365.729015
-0.256015 -1.094976 0.480301 35.000000 6 365.729017
-0.250315 -1.069754 0.355697 12.000000 4 365.729020
-0.249511 -1.065482 0.244650 15.000000 2 365.729023
-0.254154 -1.084452 0.138607 28.000000 0 365.729025
-0.016974 -0.039274 3.349146 8.000000 31 365.729036
-0.142941 -0.544849 3.581386 8.000000 28 365.729038
-0.195323 -0.740847 3.706948 8.000000 27 365.729041
-0.284637 -1.172519 3.902105 10.000000 25 365.729043
-0.270033 -1.139742 2.818964 24.000000 23 365.729046
-0.268318 -1.133365 2.200827 36.000000 21 365.729049
-0.265303 -1.120619 1.763981 38.000000 19 365.729051
-0.264112 -1.115578 1.448712 40.000000 17 365.729054
-0.062088 -0.198033 3.418681 8.000000 30 365.729061
-0.104976 -0.365125 3.494715 8.000000 29 365.729064
-0.237157 -0.947734 3.796262 8.000000 26 365.729067
-0.280351 -1.174164 3.336972 18.000000 24 365.729069
-0.271582 -1.139177 2.484213 32.000000 22 365.729072
-0.266922 -1.120475 1.954217 37.000000 20 365.729074
-0.265332 -1.113794 1.590332 39.000000 18 365.729077
-0.261889 -1.099328 1.303399 40.000000 16 365.729079
-0.260028 -1.104333 1.194697 40.000000 15 365.729037
-0.258553 -1.098058 0.991674 42.000000 13 365.729040
-0.258493 -1.096945 0.823500 40.000000 11 365.729042
-0.258432 -1.096674 0.676095 39.000000 9 365.729045
-0.255577 -1.083714 0.538179 37.000000 7 365.729047
-0.251329 -1.064867 0.411339 24.000000 5 365.729050
-0.250499 -1.061352 0.298514 8.000000 3 365.729052
-0.251808 -1.066065 0.191098 14.000000 1 365.729055
-0.261878 -1.104412 1.091725 45.000000 14 365.729063
-0.257996 -1.088027 0.897753 44.000000 12 365.729065
-0.258234 -1.088187 0.742571 42.000000 10 365.729068
-0.261192 -1.100639 0.610391 40.000000 8 365.729070
-0.259836 -1.094075 0.480301 35.000000 6 365.729073
-0.254048 -1.068873 0.355697 12.000000 4 365.729075
-0.253229 -1.064604 0.244650 15.000000 2 365.729078
-0.256781 -1.078698 0.138405 29.000000 0 365.729081
-0.017111 -0.039214 3.349146 8.000000 31 365.729091
-0.144241 -0.542094 3.566568 8.000000 28 365.729094
-0.197117 -0.737210 3.692262 8.000000 27 365.729096
-0.287656 -1.167168 3.887790 9.000000 25 365.729099
-0.274009 -1.138793 2.818964 25.000000 23 365.729101
-0.272273 -1.132422 2.200827 36.000000 21 365.729104
-0.269213 -1.119686 1.763981 38.000000 19 365.729106
-0.268005 -1.114649 1.448712 39.000000 17 365.729109
-0.062689 -0.197540 3.413689 9.000000 30 365.729117
-0.106100 -0.364244 3.489744 8.000000 29 365.729119
-0.239225 -0.942024 3.776905 8.000000 26 365.729122
-0.284448 -1.173178 3.336972 18.000000 24 365.729124
-0.275044 -1.136106 2.479712 32.000000 22 365.729127
-0.270831 -1.119537 1.954217 37.000000 20 365.729129
-0.269219 -1.112861 1.590332 39.000000 18 365.729132
-0.265725 -1.098407 1.303399 40.000000 16 365.729135
-0.263881 -1.103418 1.194697 40.000000 15 365.729092
-0.262385 -1.097149 0.991674 44.000000 13 365.729095
-0.262321 -1.096036 0.823500 40.000000 11 365.729097
-0.262258 -1.095765 0.676095 39.000000 9 365.729100
-0.259359 -1.082815 0.538179 37.000000 7 365.729103
-0.255044 -1.063983 0.411339 24.000000 5 365.729105
-0.254203 -1.060472 0.298514 8.000000 3 365.729108
-0.255528 -1.065180 0.191098 14.000000 1 365.729110
-0.264857 -1.099860 1.088400 45.000000 14 365.729118
-0.261792 -1.087120 0.897753 44.000000 12 365.729121
-0.262031 -1.087279 0.742571 42.000000 10 365.729123
-0.265032 -1.099721 0.610391 40.000000 8 365.729126
-0.263653 -1.093162 0.480301 35.000000 6 365.729128
-0.257777 -1.067980 0.355697 12.000000 4 365.729131
-0.256944 -1.063714 0.244650 16.000000 2 365.729133
-0.260544 -1.077796 0.138405 28.000000 0 365.729136
-0.017227 -0.039116 3.344146 8.000000 31 365.729147
-0.145727 -0.540088 3.556690 8.000000 28 365.729149
-0.199155 -0.734552 3.682472 8.000000 27 365.729152
-0.291003 -1.163259 3.878246 8.000000 25 365.729154
-0.277983 -1.137829 2.818964 25.000000 23 365.729157
-0.276224 -1.131464 2.200827 36.000000 21 365.729159
-0.273120 -1.118740 1.763981 38.000000 19 365.729162
-0.271894 -1.113707 1.448712 39.000000 17 365.729164
-0.063379 -0.197320 3.413689 8.000000 30 365.729172
-0.107218 -0.363360 3.484772 8.000000 29 365.729175
-0.241255 -0.936311 3.757548 8.000000 26 365.729177
-0.288542 -1.172178 3.336972 18.000000 24 365.729180
-0.279008 -1.135139 2.479712 32.000000 22 365.729182
-0.274737 -1.118584 1.954217 37.000000 20 365.729185
-0.272383 -1.108987 1.586342 39.000000 18 365.729188
-0.269557 -1.097473 1.303399 40.000000 16 365.729190
-0.267731 -1.102491 1.194697 40.000000 15 365.729148
-0.266213 -1.096226 0.991674 44.000000 13 365.729150
-0.266145 -1.095114 0.823500 40.000000 11 365.729153
-0.266082 -1.094843 0.676095 39.000000 9 365.729155
-0.263137 -1.081903 0.538179 38.000000 7 365.729158
-0.258757 -1.063087 0.411339 23.000000 5 365.729161
-0.257903 -1.059578 0.298514 8.000000 3 365.729163
-0.259244 -1.064281 0.191098 13.000000 1 365.729166
-0.268695 -1.098929 1.088400 45.000000 14 365.729173
-0.265585 -1.086200 0.897753 44.000000 12 365.729176
-0.265825 -1.086358 0.742571 42.000000 10 365.729179
-0.268869 -1.098789 0.610391 40.000000 8 365.729181
-0.267468 -1.092235 0.480301 35.000000 6 365.729184
-0.261503 -1.067074 0.355697 12.000000 4 365.729186
-0.259476 -1.058001 0.243960 16.000000 2 365.729189
-0.264305 -1.076880 0.138405 29.000000 0 365.729191
-0.017364 -0.039056 3.344146 8.000000 31 365.729202
-0.147200 -0.538077 3.546811 8.000000 28 365.729205
-0.200907 -0.730908 3.667786 8.000000 27 365.729207
-0.294326 -1.159341 3.868703 7.000000 25 365.729210
-0.281953 -1.136852 2.818964 25.000000 23 365.729212
-0.280172 -1.130493 2.200827 36.000000 21 365.729215
-0.276346 -1.115048 1.759848 38.000000 19 365.729217
-0.275780 -1.112751 1.448712 39.000000 17 365.729220
-0.064067 -0.197097 3.413689 8.000000 30 365.729228
-0.108332 -0.362472 3.479801 8.000000 29 365.729230
-0.243249 -0.930596 3.738191 9.000000 26 365.729233
-0.292631 -1.171164 3.336972 18.000000 24 365.729235
-0.282442 -1.132045 2.475211 32.000000 22 365.729238
-0.278640 -1.117619 1.954217 37.000000 20 365.729241
-0.276252 -1.108030 1.586342 39.000000 18 365.729243
-0.273386 -1.096525 1.303399 40.000000 16 365.729246
-0.270724 -1.098087 1.191193 40.000000 15 365.729203
-0.270038 -1.095291 0.991674 44.000000 13 365.729206
-0.268964 -1.090119 0.820758 40.000000 11 365.729208
-0.269902 -1.093908 0.676095 39.000000 9 365.729211
-0.266912 -1.080978 0.538179 38.000000 7 365.729214
-0.262466 -1.062177 0.411339 23.000000 5 365.729216
-0.260421 -1.053902 0.297581 8.000000 3 365.729219
-0.262958 -1.063370 0.191098 13.000000 1 365.729221
-0.271630 -1.094360 1.085075 45.000000 14 365.729229
-0.269375 -1.085266 0.897753 44.000000 12 365.729232
-0.269615 -1.085424 0.742571 42.000000 10 365.729234
-0.272703 -1.097844 0.610391 42.000000 8 365.729237
-0.271279 -1.091295 0.480301 35.000000 6 365.729239
-0.264053 -1.061437 0.354524 12.000000 4 365.729242
-0.263167 -1.057089 0.243960 16.000000 2 365.729244
-0.268062 -1.075950 0.138405 29.000000 0 365.729247
-0.017500 -0.038995 3.344146 8.000000 31 365.729258
-0.148453 -0.535314 3.531994 8.000000 28 365.729260
-0.202636 -0.727260 3.653100 8.000000 27 365.729263
-0.297253 -1.153968 3.854388 6.000000 25 365.729265
-0.285920 -1.135861 2.818964 25.000000 23 365.729268
-0.283532 -1.127185 2.196439 36.000000 21 365.729270
-0.280237 -1.114077 1.759848 38.000000 19 365.729273
-0.279662 -1.111782 1.448712 39.000000 17 365.729275
-0.064755 -0.196873 3.413689 9.000000 30 365.729283
-0.109441 -0.361581 3.474829 8.000000 29 365.729286
-0.245528 -0.926094 3.723674 8.000000 26 365.729288
-0.296294 -1.168462 3.332278 19.000000 24 365.729291
-0.286392 -1.131052 2.475211 31.000000 22 365.729293
-0.281900 -1.114111 1.949951 37.000000 20 365.729296
-0.280118 -1.107059 1.586342 39.000000 18 365.729299
-0.277212 -1.095564 1.303399 40.000000 16 365.729301
-0.274556 -1.097135 1.191193 40.000000 15 365.729259
-0.273859 -1.094341 0.991674 44.000000 13 365.729261
-0.272768 -1.089173 0.820758 40.000000 11 365.729264
-0.273719 -1.092959 0.676095 39.000000 9 365.729267
-0.270683 -1.080040 0.538179 38.000000 7 365.729269
-0.267339 -1.065907 0.412748 23.000000 5 365.729272
-0.264099 -1.052987 0.297581 8.000000 3 365.729274
-0.266668 -1.062446 0.191098 15.000000 1 365.729277
-0.275448 -1.093405 1.085075 45.000000 14 365.729285
-0.273162 -1.084319 0.897753 44.000000 12 365.729287
-0.273403 -1.084476 0.742571 42.000000 10 365.729290
-0.276534 -1.096885 0.610391 40.000000 8 365.729292
-0.273931 -1.085762 0.478658 35.000000 6 365.729295
-0.267757 -1.060509 0.354524 12.000000 4 365.729297
-0.266856 -1.056164 0.243960 16.000000 2 365.729300
-0.271817 -1.075008 0.138405 28.000000 0 365.729302
-0.017614 -0.038896 3.339146 8.000000 31 365.729313
-0.149899 -0.533297 3.522115 7.000000 28 365.729316
-0.204341 -0.723609 3.638414 8.000000 27 365.729318
-0.300524 -1.150033 3.844844 6.000000 25 365.729321
-0.289883 -1.134856 2.818964 25.000000 23 365.729323
-0.287465 -1.126189 2.196439 36.000000 21 365.729326
-0.284124 -1.113092 1.759848 38.000000 19 365.729328
-0.282748 -1.107692 1.444875 40.000000 17 365.729331
-0.065441 -0.196645 3.413689 9.000000 30 365.729339
-0.110545 -0.360687 3.469858 8.000000 29 365.729341
-0.247452 -0.920373 3.704317 8.000000 26 365.729344
-0.300371 -1.167421 3.332278 18.000000 24 365.729346
-0.290338 -1.130046 2.475211 31.000000 22 365.729349
-0.285787 -1.113120 1.949951 37.000000 20 365.729352
-0.283231 -1.103155 1.582353 39.000000 18 365.729354
-0.281035 -1.094590 1.303399 40.000000 16 365.729357
-0.278384 -1.096170 1.191193 40.000000 15 365.729314
-0.277678 -1.093379 0.991674 42.000000 13 365.729317
-0.276568 -1.088214 0.820758 40.000000 11 365.729319
-0.277532 -1.091997 0.676095 39.000000 9 365.729322
-0.274452 -1.079088 0.538179 38.000000 7 365.729325
-0.271058 -1.064968 0.412748 23.000000 5 365.729327
-0.266561 -1.047298 0.296649 8.000000 3 365.729330
-0.270375 -1.061508 0.191098 14.000000 1 365.729332
-0.279263 -1.092437 1.085075 44.000000 14 365.729340
-0.276945 -1.083359 0.897753 46.000000 12 365.729343
-0.277186 -1.083515 0.742571 42.000000 10 365.729345
-0.280361 -1.095913 0.610391 40.000000 8 365.729348
-0.277719 -1.084799 0.478658 35.000000 6 365.729350
-0.271457 -1.059568 0.354524 12.000000 4 365.729353
-0.270541 -1.055225 0.243960 16.000000 2 365.729355
-0.275567 -1.074053 0.138405 28.000000 0 365.729358
-0.017750 -0.038834 3.339146 8.000000 31 365.729369
-0.151333 -0.531276 3.512237 7.000000 28 365.729371
-0.206024 -0.719955 3.623729 8.000000 27 365.729374
-0.302623 -1.141759 3.820986 6.000000 25 365.729376
-0.293352 -1.131946 2.814362 25.000000 23 365.729379
-0.291394 -1.125178 2.196439 36.000000 21 365.729381
-0.288008 -1.112093 1.759848 38.000000 19 365.729384
-0.286613 -1.106699 1.444875 40.000000 17 365.729387
-0.066127 -0.196416 3.413689 8.000000 30 365.729394
-0.111644 -0.359789 3.464886 8.000000 29 365.729397
-0.249339 -0.914649 3.684960 8.000000 26 365.729399
-0.304008 -1.164696 3.327586 18.000000 24 365.729402
-0.294281 -1.129025 2.475211 31.000000 22 365.729405
-0.289671 -1.112116 1.949951 37.000000 20 365.729407
-0.287080 -1.102159 1.582353 39.000000 18 365.729410
-0.283999 -1.090321 1.299724 40.000000 16 365.729412
-0.282208 -1.095192 1.191193 40.000000 15 365.729370
-0.281492 -1.092403 0.991674 40.000000 13 365.729372
-0.280365 -1.087242 0.820758 40.000000 11 365.729375
-0.281342 -1.091021 0.676095 39.000000 9 365.729378
-0.278217 -1.078123 0.538179 38.000000 7 365.729380
-0.274774 -1.064015 0.412748 23.000000 5 365.729383
-0.270215 -1.046361 0.296649 8.000000 3 365.729385
-0.274079 -1.060558 0.191098 14.000000 1 365.729388
-0.283075 -1.091456 1.085075 45.000000 14 365.729396
-0.280725 -1.082386 0.897753 44.000000 12 365.729398
-0.280967 -1.082541 0.742571 40.000000 10 365.729401
-0.284185 -1.094928 0.610391 40.000000 8 365.729403
-0.281504 -1.083823 0.478658 35.000000 6 365.729406
-0.275154 -1.058614 0.354524 12.000000 4 365.729408
-0.275469 -1.059067 0.244650 15.000000 2 365.729411
-0.279315 -1.073084 0.138405 29.000000 0 365.729413
-0.017907 -0.038810 3.344146 8.000000 31 365.729424
-0.152754 -0.529252 3.502358 8.000000 28 365.729427
-0.207684 -0.716298 3.609043 7.000000 27 365.729429
-0.305055 -1.134926 3.801899 6.000000 25 365.729432
-0.297302 -1.130915 2.814362 25.000000 23 365.729434
-0.294711 -1.121837 2.192050 36.000000 21 365.729437
-0.291888 -1.111081 1.759848 38.000000 19 365.729439
-0.290475 -1.105691 1.444875 40.000000 17 365.729442
-0.066684 -0.195922 3.408698 8.000000 30 365.729450
-0.112676 -0.358908 3.459915 8.000000 29 365.729452
-0.251366 -0.910181 3.670443 8.000000 26 365.729455
-0.307869 -1.163681 3.327586 20.000000 24 365.729457
-0.297663 -1.125886 2.470710 32.000000 22 365.729460
-0.293551 -1.111098 1.949951 37.000000 20 365.729463
-0.290926 -1.101151 1.582353 39.000000 18 365.729465
-0.287614 -1.089374 1.299724 40.000000 16 365.729468
-0.286030 -1.094200 1.191193 40.000000 15 365.729425
-0.285304 -1.091413 0.991674 42.000000 13 365.729428
-0.284158 -1.086257 0.820758 40.000000 11 365.729431
-0.285149 -1.090033 0.676095 39.000000 9 365.729433
-0.281790 -1.077195 0.538179 38.000000 7 365.729436
-0.278301 -1.063098 0.412748 23.000000 5 365.729438
-0.273866 -1.045412 0.296649 8.000000 3 365.729441
-0.277779 -1.059595 0.191098 15.000000 1 365.729443
-0.286883 -1.090461 1.085075 45.000000 14 365.729451
-0.284502 -1.081399 0.897753 44.000000 12 365.729454
-0.284555 -1.081603 0.742571 42.000000 10 365.729456
-0.287814 -1.093979 0.610391 40.000000 8 365.729459
-0.285097 -1.082884 0.478658 35.000000 6 365.729461
-0.278663 -1.057696 0.354524 12.000000 4 365.729464
-0.278980 -1.058148 0.244650 15.000000 2 365.729466
-0.282872 -1.072152 0.138405 29.000000 0 365.729469
-0.018036 -0.038750 3.344146 8.000000 31 365.729480
-0.154290 -0.527997 3.497419 8.000000 28 365.729482
-0.209483 -0.713652 3.599253 7.000000 27 365.729485
-0.306854 -1.126703 3.778040 6.000000 25 365.729487
-0.301050 -1.129923 2.814362 25.000000 23 365.729490
-0.298430 -1.120854 2.192050 36.000000 21 365.729492
-0.295571 -1.110107 1.759848 38.000000 19 365.729495
-0.294140 -1.104722 1.444875 40.000000 17 365.729498
-0.067271 -0.195415 3.403706 8.000000 30 365.729505
-0.113765 -0.358004 3.454944 8.000000 29 365.729508
-0.253523 -0.905664 3.655925 8.000000 26 365.729510
-0.311929 -1.162599 3.327586 20.000000 24 365.729513
-0.301395 -1.124893 2.470710 32.000000 22 365.729516
-0.297234 -1.110118 1.949951 37.000000 20 365.729518
-0.294576 -1.100180 1.582353 39.000000 18 365.729521
-0.291414 -1.088363 1.299724 40.000000 16 365.729523
-0.289657 -1.093245 1.191193 40.000000 15 365.729481
-0.288922 -1.090461 0.991674 44.000000 13 365.729483
-0.287759 -1.085309 0.820758 40.000000 11 365.729486
-0.288762 -1.089081 0.676095 39.000000 9 365.729489
-0.285549 -1.076205 0.538179 37.000000 7 365.729491
-0.280779 -1.057483 0.411339 23.000000 5 365.729494
-0.277331 -1.044498 0.296649 8.000000 3 365.729496
-0.281291 -1.058668 0.191098 14.000000 1 365.729499
-0.290497 -1.089504 1.085075 45.000000 14 365.729507
-0.288086 -1.080450 0.897753 44.000000 12 365.729509
-0.287217 -1.076438 0.740039 44.000000 10 365.729512
-0.290461 -1.088583 0.608293 40.000000 8 365.729514
-0.287657 -1.077319 0.477016 35.000000 6 365.729517
-0.282353 -1.056717 0.354524 12.000000 4 365.729519
-0.281392 -1.052384 0.243960 16.000000 2 365.729522
-0.286613 -1.071158 0.138405 29.000000 0 365.729525
-0.018171 -0.038687 3.344146 8.000000 31 365.729535
-0.155690 -0.525965 3.487540 8.000000 28 365.729538
-0.211101 -0.709989 3.584567 8.000000 27 365.729540
-0.308797 -1.118427 3.754181 7.000000 25 365.729543
-0.304993 -1.128865 2.814362 25.000000 23 365.729545
-0.302340 -1.119805 2.192050 36.000000 21 365.729548
-0.298710 -1.106352 1.755715 38.000000 19 365.729551
-0.297994 -1.103689 1.444875 39.000000 17 365.729553
-0.067760 -0.194633 3.393723 8.000000 30 365.729561
-0.114685 -0.356588 3.445001 8.000000 29 365.729563
-0.255309 -0.899934 3.636568 8.000000 26 365.729566
-0.315532 -1.159838 3.322893 21.000000 24 365.729569
-0.305320 -1.123834 2.470710 32.000000 22 365.729571
-0.301107 -1.109074 1.949951 37.000000 20 365.729574
-0.298414 -1.099145 1.582353 39.000000 18 365.729576
-0.295212 -1.087339 1.299724 42.000000 16 365.729579
-0.293471 -1.092228 1.191193 40.000000 15 365.729536
-0.292726 -1.089446 0.991674 44.000000 13 365.729539
-0.291546 -1.084298 0.820758 42.000000 11 365.729542
-0.292562 -1.088066 0.676095 39.000000 9 365.729544
-0.289304 -1.075202 0.538179 37.000000 7 365.729547
-0.284469 -1.056497 0.411339 23.000000 5 365.729549
-0.280975 -1.043523 0.296649 8.000000 3 365.729552
-0.284985 -1.057680 0.191098 14.000000 1 365.729554
-0.294299 -1.088483 1.085075 45.000000 14 365.729562
-0.291856 -1.079438 0.897753 44.000000 12 365.729565
-0.290973 -1.075429 0.740039 44.000000 10 365.729567
-0.294259 -1.087562 0.608293 40.000000 8 365.729570
-0.291416 -1.076309 0.477016 35.000000 6 365.729572
-0.286040 -1.055725 0.354524 12.000000 4 365.729575
-0.285064 -1.051395 0.243960 16.000000 2 365.729577
-0.290350 -1.070151 0.138405 28.000000 0 365.729580
-0.018306 -0.038623 3.344146 8.000000 31 365.729591
-0.157078 -0.523930 3.477662 8.000000 28 365.729593
-0.212990 -0.707298 3.574776 8.000000 27 365.729596
-0.310686 -1.110151 3.730323 7.000000 25 365.729598
-0.308931 -1.127794 2.814362 24.000000 23 365.729601
-0.306247 -1.118743 2.192050 36.000000 21 365.729603
-0.302571 -1.105302 1.755715 39.000000 19 365.729606
-0.300998 -1.099550 1.441038 39.000000 17 365.729609
-0.068341 -0.194122 3.388731 8.000000 30 365.729616
-0.115763 -0.355679 3.440030 8.000000 29 365.729619
-0.257405 -0.895410 3.622051 8.000000 26 365.729621
-0.319579 -1.158730 3.322893 22.000000 24 365.729624
-0.308663 -1.120662 2.466209 31.000000 22 365.729627
-0.304977 -1.108016 1.949951 37.000000 20 365.729629
-0.303049 -1.101002 1.586342 39.000000 18 365.729632
-0.299005 -1.086302 1.299724 42.000000 16 365.729634
-0.297282 -1.091197 1.191193 40.000000 15 365.729592
-0.296527 -1.088418 0.991674 44.000000 13 365.729595
-0.295329 -1.083273 0.820758 42.000000 11 365.729597
-0.296358 -1.087039 0.676095 39.000000 9 365.729600
-0.293055 -1.074185 0.538179 38.000000 7 365.729602
-0.288155 -1.055497 0.411339 23.000000 5 365.729605
-0.284616 -1.042536 0.296649 8.000000 3 365.729607
-0.288675 -1.056678 0.191098 15.000000 1 365.729610
-0.298096 -1.087449 1.085075 45.000000 14 365.729618
-0.295622 -1.078412 0.897753 44.000000 12 365.729620
-0.294725 -1.074406 0.740039 42.000000 10 365.729623
-0.298053 -1.086529 0.608293 40.000000 8 365.729625
-0.295171 -1.075285 0.477016 35.000000 6 365.729628
-0.289724 -1.054720 0.354524 12.000000 4 365.729630
-0.288732 -1.050394 0.243960 15.000000 2 365.729633
-0.294084 -1.069131 0.138405 29.000000 0 365.729636
-0.018441 -0.038559 3.344146 8.000000 31 365.729646
-0.158679 -0.522635 3.472722 8.000000 28 365.729649
-0.214862 -0.704603 3.564986 8.000000 27 365.729651
-0.312113 -1.100439 3.701693 8.000000 25 365.729654
-0.312866 -1.126708 2.814362 22.000000 23 365.729656
-0.310151 -1.117667 2.192050 36.000000 21 365.729659
-0.306427 -1.104239 1.755715 38.000000 19 365.729662
-0.304835 -1.098492 1.441038 39.000000 17 365.729664
-0.068920 -0.193610 3.383740 8.000000 30 365.729672
-0.116668 -0.354259 3.430087 8.000000 29 365.729674
-0.259474 -0.890884 3.607533 8.000000 26 365.729677
-0.323157 -1.155945 3.318200 22.000000 24 365.729680
-0.312573 -1.119577 2.466209 31.000000 22 365.729682
-0.308843 -1.106945 1.949951 37.000000 20 365.729685
-0.306891 -1.099938 1.586342 39.000000 18 365.729687
-0.302796 -1.085252 1.299724 40.000000 16 365.729690
-0.301089 -1.090152 1.191193 40.000000 15 365.729647
-0.300325 -1.087376 0.991674 44.000000 13 365.729650
-0.299108 -1.082236 0.820758 40.000000 11 365.729653
-0.300151 -1.085998 0.676095 39.000000 9 365.729655
-0.296803 -1.073156 0.538179 38.000000 7 365.729658
-0.291837 -1.054485 0.411339 22.000000 5 365.729660
-0.288254 -1.041536 0.296649 8.000000 3 365.729663
-0.292362 -1.055664 0.191098 14.000000 1 365.729665
-0.301891 -1.086402 1.085075 47.000000 14 365.729673
-0.299384 -1.077374 0.897753 44.000000 12 365.729676
-0.298474 -1.073371 0.740039 42.000000 10 365.729678
-0.301844 -1.085482 0.608293 40.000000 8 365.729681
-0.298922 -1.074248 0.477016 35.000000 6 365.729683
-0.293403 -1.053702 0.354524 12.000000 4 365.729686
-0.291068 -1.044609 0.243270 17.000000 2 365.729689
-0.297814 -1.068098 0.138405 30.000000 0 365.729691
-0.018575 -0.038494 3.344146 8.000000 31 365.729702
-0.160045 -0.520593 3.462844 8.000000 28 365.729704
-0.216719 -0.701903 3.555196 8.000000 27 365.729707
-0.313889 -1.092166 3.677834 8.000000 25 365.729709
-0.316797 -1.125609 2.814362 22.000000 23 365.729712
-0.314050 -1.116578 2.192050 37.000000 21 365.729715
-0.309518 -1.100454 1.751582 38.000000 19 365.729717
-0.307799 -1.094335 1.437201 39.000000 17 365.729720
-0.069595 -0.193369 3.383740 8.000000 30 365.729727
-0.117734 -0.353343 3.425115 8.000000 29 365.729730
-0.261513 -0.886354 3.593015 8.000000 26 365.729733
-0.327190 -1.154810 3.318200 22.000000 24 365.729735
-0.316479 -1.118479 2.466209 31.000000 22 365.729738
-0.312705 -1.105860 1.949951 37.000000 20 365.729740
-0.310728 -1.098860 1.586342 39.000000 18 365.729743
-0.305659 -1.080926 1.296049 42.000000 16 365.729745
-0.303931 -1.085660 1.187688 40.000000 15 365.729703
-0.303069 -1.082573 0.988537 44.000000 13 365.729706
-0.302884 -1.081185 0.820758 40.000000 11 365.729708
-0.302745 -1.080677 0.673777 39.000000 9 365.729711
-0.300547 -1.072113 0.538179 37.000000 7 365.729713
-0.294221 -1.048841 0.409930 22.000000 5 365.729716
-0.291888 -1.040524 0.296649 8.000000 3 365.729718
-0.296045 -1.054637 0.191098 15.000000 1 365.729721
-0.304669 -1.081747 1.081750 45.000000 14 365.729729
-0.303143 -1.076322 0.897753 46.000000 12 365.729731
-0.302219 -1.072323 0.740039 42.000000 10 365.729734
-0.305631 -1.084421 0.608293 40.000000 8 365.729736
-0.302670 -1.073198 0.477016 35.000000 6 365.729739
-0.295760 -1.047994 0.353352 12.000000 4 365.729741
-0.294712 -1.043587 0.243270 17.000000 2 365.729744
-0.301540 -1.067052 0.138405 29.000000 0 365.729747
-0.018687 -0.038392 3.339146 8.000000 31 365.729757
-0.161398 -0.518548 3.452965 8.000000 28 365.729760
-0.218254 -0.698227 3.540510 8.000000 27 365.729762
-0.315611 -1.083894 3.653975 8.000000 25 365.729765
-0.320724 -1.124497 2.814362 25.000000 23 365.729767
-0.317289 -1.113171 2.187661 36.000000 21 365.729770
-0.313357 -1.099367 1.751582 38.000000 19 365.729772
-0.311617 -1.093254 1.437201 39.000000 17 365.729775
-0.070169 -0.192853 3.378748 9.000000 30 365.729783
-0.118624 -0.351919 3.415172 8.000000 29 365.729785
-0.263524 -0.881820 3.578498 8.000000 26 365.729788
-0.330743 -1.152002 3.313508 22.000000 24 365.729790
-0.320982 -1.119461 2.470710 32.000000 22 365.729793
-0.316563 -1.104762 1.949951 37.000000 20 365.729795
-0.314562 -1.097769 1.586342 39.000000 18 365.729798
-0.309431 -1.079852 1.296049 42.000000 16 365.729801
-0.307719 -1.084593 1.187688 40.000000 15 365.729758
-0.306846 -1.081508 0.988537 42.000000 13 365.729761
-0.306656 -1.080121 0.820758 40.000000 11 365.729763
-0.306515 -1.079614 0.673777 39.000000 9 365.729766
-0.304288 -1.071057 0.538179 37.000000 7 365.729769
-0.297880 -1.047808 0.409930 23.000000 5 365.729771
-0.296861 -1.044224 0.297581 8.000000 3 365.729774
-0.298362 -1.048807 0.190651 15.000000 1 365.729776
-0.308443 -1.080677 1.081750 47.000000 14 365.729784
-0.306899 -1.075258 0.897753 44.000000 12 365.729787
-0.305960 -1.071261 0.740039 42.000000 10 365.729789
-0.309415 -1.083348 0.608293 40.000000 8 365.729792
-0.306415 -1.072135 0.477016 35.000000 6 365.729794
-0.299416 -1.046955 0.353352 12.000000 4 365.729797
-0.298353 -1.042552 0.243270 16.000000 2 365.729799
-0.305263 -1.065993 0.138405 29.000000 0 365.729802
-0.018821 -0.038327 3.339146 8.000000 31 365.729813
-0.162739 -0.516500 3.443087 8.000000 28 365.729815
-0.220075 -0.695520 3.530720 8.000000 27 365.729818
-0.317702 -1.077056 3.634888 8.000000 25 365.729820
-0.324648 -1.123370 2.814362 25.000000 23 365.729823
-0.321173 -1.112056 2.187661 36.000000 21 365.729825
-0.317193 -1.098267 1.751582 38.000000 19 365.729828
-0.315432 -1.092160 1.437201 39.000000 17 365.729830
-0.070740 -0.192336 3.373756 8.000000 30 365.729838
-0.119678 -0.350997 3.410201 8.000000 29 365.729841
-0.265507 -0.877284 3.563980 8.000000 26 365.729843
-0.334762 -1.150841 3.313508 22.000000 24 365.729846
-0.324887 -1.118334 2.470710 32.000000 22 365.729848
-0.320418 -1.103650 1.949951 37.000000 20 365.729851
-0.318392 -1.096664 1.586342 39.000000 18 365.729854
-0.313198 -1.078766 1.296049 42.000000 16 365.729856
-0.311503 -1.083512 1.187688 40.000000 15 365.729814
-0.310620 -1.080430 0.988537 42.000000 13 365.729816
-0.310425 -1.079044 0.820758 40.000000 11 365.729819
-0.310282 -1.078537 0.673777 39.000000 9 365.729821
-0.308025 -1.069989 0.538179 38.000000 7 365.729824
-0.301536 -1.046762 0.409930 22.000000 5 365.729827
-0.300504 -1.043181 0.297581 8.000000 3 365.729829
-0.302021 -1.047760 0.190651 14.000000 1 365.729832
-0.312213 -1.079594 1.081750 45.000000 14 365.729839
-0.310650 -1.074180 0.897753 46.000000 12 365.729842
-0.309698 -1.070186 0.740039 44.000000 10 365.729845
-0.313195 -1.082261 0.608293 40.000000 8 365.729847
-0.310155 -1.071059 0.477016 35.000000 6 365.729850
-0.303069 -1.045903 0.353352 12.000000 4 365.729852
-0.301991 -1.041504 0.243270 15.000000 2 365.729855
-0.308982 -1.064921 0.138405 29.000000 0 365.729857
-0.018954 -0.038261 3.339146 8.000000 31 365.729868
-0.164068 -0.514448 3.433208 8.000000 28 365.729871
-0.221568 -0.691839 3.516034 8.000000 27 365.729873
-0.319749 -1.070216 3.615802 8.000000 25 365.729876
-0.328018 -1.120355 2.809759 25.000000 23 365.729878
-0.325053 -1.110928 2.187661 36.000000 21 365.729881
-0.321024 -1.097153 1.751582 38.000000 19 365.729883
-0.319242 -1.091052 1.437201 39.000000 17 365.729886
-0.071378 -0.192100 3.373756 8.000000 30 365.729894
-0.120842 -0.350599 3.410201 8.000000 29 365.729896
-0.267309 -0.872790 3.549462 8.000000 26 365.729899
-0.338576 -1.149724 3.313508 21.000000 24 365.729901
-0.328789 -1.117193 2.470710 32.000000 22 365.729904
-0.323532 -1.100023 1.945685 37.000000 20 365.729907
-0.321368 -1.092654 1.582353 39.000000 18 365.729909
-0.316774 -1.077721 1.296049 42.000000 16 365.729912
-0.315283 -1.082418 1.187688 40.000000 15 365.729869
-0.314389 -1.079340 0.988537 44.000000 13 365.729872
-0.314190 -1.077954 0.820758 40.000000 11 365.729874
-0.314045 -1.077448 0.673777 39.000000 9 365.729877
-0.311571 -1.068961 0.538179 38.000000 7 365.729880
-0.305005 -1.045756 0.409930 21.000000 5 365.729882
-0.304144 -1.042126 0.297581 8.000000 3 365.729885
-0.305677 -1.046699 0.190651 15.000000 1 365.729887
-0.315980 -1.078497 1.081750 45.000000 14 365.729895
-0.314398 -1.073089 0.897753 44.000000 12 365.729898
-0.313245 -1.069154 0.740039 42.000000 10 365.729900
-0.316782 -1.081217 0.608293 40.000000 8 365.729903
-0.313705 -1.070024 0.477016 35.000000 6 365.729905
-0.306535 -1.044893 0.353352 12.000000 4 365.729908
-0.305443 -1.040496 0.243270 16.000000 2 365.729910
-0.312512 -1.063890 0.138405 30.000000 0 365.729913
-0.019081 -0.038198 3.339146 8.000000 31 365.729924
-0.165295 -0.512423 3.423330 8.000000 28 365.729926
-0.222918 -0.688195 3.501348 8.000000 27 365.729929
-0.321566 -1.063432 3.596715 8.000000 25 365.729931
-0.331731 -1.119262 2.809759 25.000000 23 365.729934
-0.328735 -1.109844 2.187661 36.000000 21 365.729936
-0.324661 -1.096082 1.751582 38.000000 19 365.729939
-0.322858 -1.089987 1.437201 39.000000 17 365.729941
-0.071945 -0.191579 3.368765 9.000000 30 365.729949
-0.121888 -0.349671 3.405230 8.000000 29 365.729952
-0.269236 -0.868248 3.534945 8.000000 26 365.729954
-0.342094 -1.146882 3.308815 21.000000 24 365.729957
-0.332492 -1.116097 2.470710 32.000000 22 365.729959
-0.327178 -1.098944 1.945685 37.000000 20 365.729962
-0.324989 -1.091583 1.582353 39.000000 18 365.729965
-0.320534 -1.076609 1.296049 40.000000 16 365.729967
-0.318871 -1.081367 1.187688 40.000000 15 365.729925
-0.316865 -1.074557 0.985399 44.000000 13 365.729927
-0.317763 -1.076906 0.820758 42.000000 11 365.729930
-0.317616 -1.076400 0.673777 39.000000 9 365.729933
-0.315301 -1.067867 0.538179 37.000000 7 365.729935
-0.308654 -1.044685 0.409930 22.000000 5 365.729938
-0.307598 -1.041111 0.297581 8.000000 3 365.729940
-0.309146 -1.045680 0.190651 15.000000 1 365.729943
-0.319554 -1.077443 1.081750 47.000000 14 365.729951
-0.317955 -1.072040 0.897753 46.000000 12 365.729953
-0.316975 -1.068054 0.740039 42.000000 10 365.729956
-0.320554 -1.080104 0.608293 40.000000 8 365.729958
-0.317439 -1.068923 0.477016 35.000000 6 365.729961
-0.310181 -1.043816 0.353352 12.000000 4 365.729963
-0.309073 -1.039424 0.243270 16.000000 2 365.729966
-0.316224 -1.062793 0.138405 30.000000 0 365.729968
-0.019237 -0.038168 3.344146 8.000000 31 365.729979
-0.166841 -0.511104 3.418391 8.000000 28 365.729982
-0.224366 -0.684510 3.486662 8.000000 27 365.729984
-0.323527 -1.056590 3.577628 8.000000 25 365.729987
-0.335636 -1.118097 2.809759 25.000000 23 365.729989
-0.332607 -1.108690 2.187661 36.000000 21 365.729992
-0.328485 -1.094942 1.751582 38.000000 19 365.729994
-0.327582 -1.091924 1.441038 39.000000 17 365.729997
-0.072509 -0.191057 3.363773 9.000000 30 365.730005
-0.122929 -0.348740 3.400258 8.000000 29 365.730007
