# .PCD v.7 - Point Cloud Data file format
VERSION .7
FIELDS x y z intensity ring timestamp
SIZE 4 4 4 4 2 8
TYPE F F F F U D
COUNT 1 1 1 1 1 1
WIDTH 907
HEIGHT 1
VIEWPOINT 0 0 0 1 0 0 0
POINTS 907
DATA ascii
-0.235307 -1.121474 0.551290 38.000000 7 365.328802
-0.230779 -1.098938 0.419794 27.000000 5 365.328805
-0.228159 -1.086464 0.302244 8.000000 3 365.328807
-0.229410 -1.091472 0.192882 16.000000 1 365.328810
-0.241371 -1.143447 1.121648 46.000000 14 365.328818
-0.239302 -1.133635 0.927184 48.000000 12 365.328820
-0.238318 -1.127998 0.762831 45.000000 10 365.328823
-0.239466 -1.133417 0.622979 40.000000 8 365.328825
-0.237529 -1.123280 0.488514 37.000000 6 365.328828
-0.234527 -1.108128 0.363903 15.000000 4 365.328830
-0.231900 -1.094776 0.248099 13.000000 2 365.328833
-0.236187 -1.114054 0.139614 28.000000 0 365.328835
-0.018343 -0.043888 3.899125 98.000000 31 365.328846
-0.140936 -0.587809 3.843167 99.000000 28 365.328849
-0.185721 -0.770571 3.834224 90.000000 27 365.328851
-0.253500 -1.150602 3.811442 91.000000 25 365.328854
-0.268657 -1.252203 3.076706 26.000000 23 365.328856
-0.258690 -1.206755 2.328098 36.000000 21 365.328859
-0.252001 -1.175541 1.838374 38.000000 19 365.328861
-0.249036 -1.161699 1.498592 39.000000 17 365.328864
-0.065505 -0.225131 3.882900 98.000000 30 365.328872
-0.107358 -0.405454 3.862599 97.000000 29 365.328874
-0.218043 -0.957474 3.815619 94.000000 26 365.328877
-0.273537 -1.264199 3.571610 27.000000 24 365.328879
-0.264739 -1.225589 2.655245 32.000000 22 365.328882
-0.256211 -1.187088 2.056600 38.000000 20 365.328885
-0.251732 -1.166328 1.654164 38.000000 18 365.328887
-0.247722 -1.147734 1.351176 39.000000 16 365.328890
-0.245376 -1.151474 1.236752 40.000000 15 365.328847
-0.243229 -1.141388 1.023052 44.000000 13 365.328850
-0.241185 -1.130826 0.842690 39.000000 11 365.328852
-0.241492 -1.132257 0.692321 40.000000 9 365.328855
-0.239220 -1.120646 0.551290 38.000000 7 365.328858
-0.233611 -1.093434 0.418385 27.000000 5 365.328860
-0.231950 -1.085661 0.302244 8.000000 3 365.328863
-0.232177 -1.085795 0.192436 16.000000 1 365.328865
-0.245361 -1.142597 1.121648 44.000000 14 365.328873
-0.243258 -1.132793 0.927184 46.000000 12 365.328876
-0.242254 -1.127159 0.762831 44.000000 10 365.328878
-0.243420 -1.132574 0.622979 40.000000 8 365.328881
-0.241448 -1.122444 0.488514 37.000000 6 365.328883
-0.238393 -1.107302 0.363903 15.000000 4 365.328886
-0.234677 -1.089119 0.247409 14.000000 2 365.328888
-0.240075 -1.113223 0.139614 28.000000 0 365.328891
-0.018496 -0.043823 3.899125 98.000000 31 365.328902
-0.143171 -0.588068 3.848106 99.000000 28 365.328904
-0.188410 -0.769918 3.834224 89.000000 27 365.328907
-0.257515 -1.149710 3.811442 91.000000 25 365.328909
-0.273026 -1.251258 3.076706 25.000000 23 365.328912
-0.262390 -1.203503 2.323710 36.000000 21 365.328914
-0.256103 -1.174654 1.838374 38.000000 19 365.328917
-0.252407 -1.157691 1.494755 39.000000 17 365.328920
-0.066291 -0.224901 3.882900 98.000000 30 365.328927
-0.108772 -0.405077 3.862599 97.000000 29 365.328930
-0.221668 -0.957932 3.820458 94.000000 26 365.328932
-0.277948 -1.263236 3.571610 26.000000 24 365.328935
-0.269016 -1.224658 2.655245 32.000000 22 365.328938
-0.260353 -1.186186 2.056600 38.000000 20 365.328940
-0.255156 -1.162498 1.650174 38.000000 18 365.328943
-0.251727 -1.146863 1.351176 39.000000 16 365.328945
-0.249394 -1.150611 1.236752 40.000000 15 365.328903
-0.246387 -1.136728 1.019914 40.000000 13 365.328905
-0.245130 -1.129978 0.842690 39.000000 11 365.328908
-0.245443 -1.131407 0.692321 39.000000 9 365.328911
-0.243131 -1.119804 0.551290 38.000000 7 365.328913
-0.237426 -1.092612 0.418385 27.000000 5 365.328916
-0.236782 -1.089645 0.303177 8.000000 3 365.328918
-0.235966 -1.084978 0.192436 14.000000 1 365.328921
-0.249348 -1.141734 1.121648 46.000000 14 365.328929
-0.247211 -1.131937 0.927184 48.000000 12 365.328931
-0.245266 -1.122095 0.760298 45.000000 10 365.328934
-0.247372 -1.131717 0.622979 40.000000 8 365.328936
-0.245365 -1.121594 0.488514 36.000000 6 365.328939
-0.242257 -1.106463 0.363903 15.000000 4 365.328941
-0.238478 -1.088293 0.247409 14.000000 2 365.328944
-0.243959 -1.112378 0.139614 28.000000 0 365.328946
-0.018649 -0.043758 3.899125 98.000000 31 365.328957
-0.145223 -0.587565 3.848106 99.000000 28 365.328960
-0.191096 -0.769256 3.834224 89.000000 27 365.328962
-0.261526 -1.148804 3.811442 91.000000 25 365.328965
-0.276969 -1.248390 3.072103 23.000000 23 365.328967
-0.266590 -1.202580 2.323710 36.000000 21 365.328970
-0.260202 -1.173753 1.838374 38.000000 19 365.328972
-0.256446 -1.156803 1.494755 39.000000 17 365.328975
-0.067076 -0.224668 3.882900 99.000000 30 365.328983
-0.110186 -0.404695 3.862599 97.000000 29 365.328985
-0.225010 -0.957152 3.820458 94.000000 26 365.328988
-0.283109 -1.265626 3.580995 25.000000 24 365.328990
-0.272814 -1.221586 2.650744 32.000000 22 365.328993
-0.264492 -1.185270 2.056600 38.000000 20 365.328996
-0.259212 -1.161601 1.650174 38.000000 18 365.328998
-0.255728 -1.145977 1.351176 40.000000 16 365.329001
-0.253408 -1.149733 1.236752 40.000000 15 365.328958
-0.250353 -1.135861 1.019914 40.000000 13 365.328961
-0.249073 -1.129115 0.842690 39.000000 11 365.328964
-0.249391 -1.130544 0.692321 39.000000 9 365.328966
-0.247038 -1.118949 0.551290 38.000000 7 365.328969
-0.241239 -1.091776 0.418385 27.000000 5 365.328971
-0.240584 -1.088812 0.303177 8.000000 3 365.328974
-0.239752 -1.084148 0.192436 14.000000 1 365.328976
-0.253332 -1.140856 1.121648 46.000000 14 365.328984
-0.251161 -1.131067 0.927184 48.000000 12 365.328987
-0.249182 -1.121232 0.760298 44.000000 10 365.328989
-0.250337 -1.126416 0.620881 42.000000 8 365.328992
-0.249278 -1.120731 0.488514 37.000000 6 365.328994
-0.246118 -1.105611 0.363903 14.000000 4 365.328997
-0.242275 -1.087454 0.247409 14.000000 2 365.328999
-0.247840 -1.111520 0.139614 28.000000 0 365.329002
-0.018802 -0.043693 3.899125 99.000000 31 365.329013
-0.147273 -0.587054 3.848106 99.000000 28 365.329015
-0.193780 -0.768584 3.834224 90.000000 27 365.329018
-0.265535 -1.147884 3.811442 91.000000 25 365.329020
-0.281325 -1.247416 3.072103 23.000000 23 365.329023
-0.270786 -1.201642 2.323710 36.000000 21 365.329025
-0.264297 -1.172838 1.838374 38.000000 19 365.329028
-0.260483 -1.155900 1.494755 39.000000 17 365.329031
-0.067859 -0.224432 3.882900 99.000000 30 365.329038
-0.111598 -0.404308 3.862599 96.000000 29 365.329041
-0.228350 -0.956361 3.820458 94.000000 26 365.329043
-0.287908 -1.266313 3.585688 24.000000 24 365.329046
-0.277077 -1.220626 2.650744 32.000000 22 365.329049
-0.268628 -1.184340 2.056600 38.000000 20 365.329051
-0.263265 -1.160689 1.650174 38.000000 18 365.329054
-0.259727 -1.145077 1.351176 40.000000 16 365.329056
-0.257420 -1.148841 1.236752 40.000000 15 365.329014
-0.254317 -1.134980 1.019914 40.000000 13 365.329016
-0.253013 -1.128239 0.842690 39.000000 11 365.329019
-0.253336 -1.129666 0.692321 39.000000 9 365.329022
-0.250942 -1.118080 0.551290 39.000000 7 365.329024
-0.245048 -1.090928 0.418385 26.000000 5 365.329027
-0.244383 -1.087965 0.303177 8.000000 3 365.329029
-0.243535 -1.083304 0.192436 14.000000 1 365.329032
-0.257313 -1.139965 1.121648 46.000000 14 365.329040
-0.255107 -1.130183 0.927184 48.000000 12 365.329042
-0.253094 -1.120355 0.760298 44.000000 10 365.329045
-0.254267 -1.125536 0.620881 42.000000 8 365.329047
-0.252148 -1.115248 0.486872 36.000000 6 365.329050
-0.249976 -1.104745 0.363903 14.000000 4 365.329052
-0.246070 -1.086602 0.247409 14.000000 2 365.329055
-0.251719 -1.110648 0.139614 27.000000 0 365.329058
-0.018954 -0.043627 3.899125 98.000000 31 365.329068
-0.149321 -0.586536 3.848106 99.000000 28 365.329071
-0.196462 -0.767903 3.834224 90.000000 27 365.329073
-0.269882 -1.148404 3.816214 91.000000 25 365.329076
-0.285678 -1.246426 3.072103 25.000000 23 365.329078
-0.274979 -1.200690 2.323710 34.000000 21 365.329081
-0.268390 -1.171908 1.838374 38.000000 19 365.329084
-0.264516 -1.154984 1.494755 39.000000 17 365.329086
-0.068603 -0.224206 3.882900 98.000000 30 365.329094
-0.112938 -0.403935 3.862599 97.000000 29 365.329096
-0.231520 -0.955599 3.820458 94.000000 26 365.329099
-0.292494 -1.267033 3.590381 22.000000 24 365.329102
-0.281336 -1.219651 2.650744 32.000000 22 365.329104
-0.272760 -1.183395 2.056600 38.000000 20 365.329107
-0.267315 -1.159763 1.650174 38.000000 18 365.329109
-0.262762 -1.140906 1.347501 39.000000 16 365.329112
-0.261429 -1.147936 1.236752 40.000000 15 365.329069
-0.258277 -1.134085 1.019914 40.000000 13 365.329072
-0.256950 -1.127349 0.842690 39.000000 11 365.329075
-0.256293 -1.124456 0.690003 39.000000 9 365.329077
-0.254649 -1.117241 0.551290 39.000000 7 365.329080
-0.248665 -1.090109 0.418385 26.000000 5 365.329082
-0.248179 -1.087106 0.303177 8.000000 3 365.329085
-0.247315 -1.082448 0.192436 14.000000 1 365.329087
-0.261290 -1.139060 1.121648 46.000000 14 365.329095
-0.259051 -1.129286 0.927184 48.000000 12 365.329098
-0.256808 -1.119510 0.760298 45.000000 10 365.329100
-0.257998 -1.124686 0.620881 42.000000 8 365.329103
-0.255845 -1.114406 0.486872 36.000000 6 365.329105
-0.253638 -1.103910 0.363903 14.000000 4 365.329108
-0.249672 -1.085780 0.247409 14.000000 2 365.329110
-0.255401 -1.109807 0.139614 27.000000 0 365.329113
-0.019099 -0.043564 3.899125 98.000000 31 365.329124
-0.151265 -0.586038 3.848106 99.000000 28 365.329126
-0.199007 -0.767247 3.834224 90.000000 27 365.329129
-0.273689 -1.147502 3.816214 91.000000 25 365.329131
-0.289809 -1.245472 3.072103 25.000000 23 365.329134
-0.278959 -1.199771 2.323710 34.000000 21 365.329136
-0.272274 -1.171011 1.838374 38.000000 19 365.329139
-0.268345 -1.154101 1.494755 39.000000 17 365.329142
-0.069385 -0.223965 3.882900 98.000000 30 365.329149
-0.114347 -0.403539 3.862599 96.000000 29 365.329152
-0.234855 -0.954785 3.820458 95.000000 26 365.329154
-0.297309 -1.267684 3.595074 21.000000 24 365.329157
-0.285379 -1.218712 2.650744 32.000000 22 365.329160
-0.276683 -1.182484 2.056600 38.000000 20 365.329162
-0.271160 -1.158870 1.650174 38.000000 18 365.329165
-0.266743 -1.139982 1.347501 40.000000 16 365.329167
-0.265234 -1.147063 1.236752 40.000000 15 365.329125
-0.262036 -1.133222 1.019914 40.000000 13 365.329128
-0.259744 -1.122417 0.839949 39.000000 11 365.329130
-0.260020 -1.123600 0.690003 39.000000 9 365.329133
-0.258547 -1.116346 0.551290 38.000000 7 365.329135
-0.252468 -1.089234 0.418385 25.000000 5 365.329138
-0.251783 -1.086277 0.303177 8.000000 3 365.329140
-0.250903 -1.081621 0.192436 14.000000 1 365.329143
-0.265066 -1.138187 1.121648 46.000000 14 365.329151
-0.262794 -1.128421 0.927184 48.000000 12 365.329153
-0.260714 -1.118606 0.760298 45.000000 10 365.329156
-0.261922 -1.123779 0.620881 42.000000 8 365.329158
-0.259733 -1.113506 0.486872 36.000000 6 365.329161
-0.256385 -1.098285 0.362731 14.000000 4 365.329163
-0.253460 -1.084902 0.247409 14.000000 2 365.329166
-0.259273 -1.108909 0.139614 28.000000 0 365.329169
-0.019251 -0.043497 3.899125 99.000000 31 365.329179
-0.153310 -0.585506 3.848106 99.000000 28 365.329182
-0.201684 -0.766548 3.834224 90.000000 27 365.329184
-0.277692 -1.146540 3.816214 91.000000 25 365.329187
-0.294155 -1.244453 3.072103 25.000000 23 365.329189
-0.283145 -1.198790 2.323710 36.000000 21 365.329192
-0.276360 -1.170054 1.838374 38.000000 19 365.329195
-0.272372 -1.153157 1.494755 39.000000 17 365.329197
-0.070167 -0.223722 3.882900 99.000000 30 365.329205
-0.115755 -0.403137 3.862599 97.000000 29 365.329207
-0.238491 -0.955180 3.825297 95.000000 26 365.329210
-0.302132 -1.268317 3.599766 21.000000 24 365.329213
-0.289631 -1.217708 2.650744 32.000000 22 365.329215
-0.280809 -1.181511 2.056600 38.000000 20 365.329218
-0.275203 -1.157916 1.650174 38.000000 18 365.329220
-0.270720 -1.139044 1.347501 39.000000 16 365.329223
-0.268421 -1.142658 1.233248 40.000000 15 365.329180
-0.265991 -1.132301 1.019914 40.000000 13 365.329183
-0.263661 -1.121503 0.839949 39.000000 11 365.329186
-0.263941 -1.122685 0.690003 39.000000 9 365.329188
-0.261380 -1.110923 0.549417 38.000000 7 365.329191
-0.256269 -1.088347 0.418385 25.000000 5 365.329193
-0.254447 -1.080610 0.302244 8.000000 3 365.329196
-0.254677 -1.080739 0.192436 13.000000 1 365.329198
-0.269037 -1.137255 1.121648 46.000000 14 365.329206
-0.266731 -1.127497 0.927184 48.000000 12 365.329209
-0.264617 -1.117689 0.760298 44.000000 10 365.329211
-0.265844 -1.122858 0.620881 40.000000 8 365.329214
-0.263618 -1.112592 0.486872 36.000000 6 365.329216
-0.260217 -1.097383 0.362731 14.000000 4 365.329219
-0.256102 -1.079192 0.246719 14.000000 2 365.329222
-0.261988 -1.103136 0.139413 28.000000 0 365.329224
-0.019402 -0.043430 3.899125 99.000000 31 365.329235
-0.155353 -0.584968 3.848106 99.000000 28 365.329237
-0.204358 -0.765839 3.834224 89.000000 27 365.329240
-0.281693 -1.145564 3.816214 91.000000 25 365.329242
-0.298497 -1.243418 3.072103 25.000000 23 365.329245
-0.287328 -1.197795 2.323710 36.000000 21 365.329248
-0.280443 -1.169082 1.838374 38.000000 19 365.329250
-0.276395 -1.152199 1.494755 39.000000 17 365.329253
-0.070947 -0.223475 3.882900 99.000000 30 365.329260
-0.117161 -0.402731 3.862599 97.000000 29 365.329263
-0.241824 -0.954341 3.825297 95.000000 26 365.329266
-0.306557 -1.267255 3.599766 20.000000 24 365.329268
-0.293880 -1.216690 2.650744 32.000000 22 365.329271
-0.284931 -1.180524 2.056600 38.000000 20 365.329273
-0.278536 -1.154019 1.646185 38.000000 18 365.329276
-0.274695 -1.138092 1.347501 40.000000 16 365.329278
-0.272408 -1.141714 1.233248 40.000000 15 365.329236
-0.269941 -1.131366 1.019914 40.000000 13 365.329239
-0.267574 -1.120576 0.839949 39.000000 11 365.329241
-0.266829 -1.117448 0.687685 39.000000 9 365.329244
-0.265257 -1.110004 0.549417 38.000000 7 365.329246
-0.260066 -1.087445 0.418385 26.000000 5 365.329249
-0.258218 -1.079715 0.302244 8.000000 3 365.329251
-0.259607 -1.084687 0.192882 14.000000 1 365.329254
-0.273006 -1.136309 1.121648 46.000000 14 365.329262
-0.269721 -1.122629 0.924241 46.000000 12 365.329264
-0.267509 -1.112567 0.757766 44.000000 10 365.329267
-0.269761 -1.121923 0.620881 42.000000 8 365.329269
-0.267500 -1.111665 0.486872 36.000000 6 365.329272
-0.264046 -1.096468 0.362731 14.000000 4 365.329274
-0.259868 -1.078291 0.246719 14.000000 2 365.329277
-0.265837 -1.102215 0.139413 28.000000 0 365.329280
-0.019554 -0.043362 3.899125 98.000000 31 365.329290
-0.157394 -0.584422 3.848106 99.000000 28 365.329293
-0.207031 -0.765121 3.834224 89.000000 27 365.329295
-0.285690 -1.144574 3.816214 91.000000 25 365.329298
-0.302836 -1.242369 3.072103 25.000000 23 365.329300
-0.291507 -1.196784 2.323710 36.000000 21 365.329303
-0.283856 -1.165362 1.834242 38.000000 19 365.329305
-0.279657 -1.148112 1.490918 39.000000 17 365.329308
-0.071727 -0.223226 3.882900 99.000000 30 365.329316
-0.118567 -0.402319 3.862599 97.000000 29 365.329318
-0.245153 -0.953491 3.825297 94.000000 26 365.329321
-0.311391 -1.267853 3.604459 19.000000 24 365.329323
-0.297607 -1.213542 2.646243 32.000000 22 365.329326
-0.289050 -1.179522 2.056600 38.000000 20 365.329328
-0.282563 -1.153039 1.646185 38.000000 18 365.329331
-0.278666 -1.137126 1.347501 40.000000 16 365.329334
-0.276392 -1.140756 1.233248 40.000000 15 365.329291
-0.273889 -1.130416 1.019914 40.000000 13 365.329294
-0.271484 -1.119635 0.839949 39.000000 11 365.329296
-0.270728 -1.116509 0.687685 39.000000 9 365.329299
-0.269130 -1.109071 0.549417 38.000000 7 365.329302
-0.263861 -1.086531 0.418385 26.000000 5 365.329304
-0.261985 -1.078807 0.302244 8.000000 3 365.329307
-0.263392 -1.083774 0.192882 14.000000 1 365.329309
-0.276970 -1.135349 1.121648 46.000000 14 365.329317
-0.273638 -1.121680 0.924241 46.000000 12 365.329320
-0.271391 -1.111627 0.757766 45.000000 10 365.329322
-0.273676 -1.120975 0.620881 42.000000 8 365.329325
-0.271379 -1.110725 0.486872 36.000000 6 365.329327
-0.267872 -1.095540 0.362731 14.000000 4 365.329330
-0.263630 -1.077378 0.246719 14.000000 2 365.329332
-0.269683 -1.101280 0.139413 29.000000 0 365.329335
-0.019705 -0.043293 3.899125 98.000000 31 365.329346
-0.159433 -0.583869 3.848106 99.000000 28 365.329348
-0.209970 -0.765376 3.839119 90.000000 27 365.329351
-0.290050 -1.145017 3.820986 91.000000 25 365.329353
-0.306701 -1.239408 3.067501 25.000000 23 365.329356
-0.295683 -1.195759 2.323710 36.000000 21 365.329358
-0.287922 -1.164364 1.834242 38.000000 19 365.329361
-0.283663 -1.147129 1.490918 39.000000 17 365.329363
-0.072506 -0.222975 3.882900 99.000000 30 365.329371
-0.119970 -0.401903 3.862599 97.000000 29 365.329374
-0.248480 -0.952630 3.825297 94.000000 26 365.329376
-0.315814 -1.266758 3.604459 19.000000 24 365.329379
-0.301841 -1.212495 2.646243 32.000000 22 365.329381
-0.293166 -1.178506 2.056600 38.000000 20 365.329384
-0.285859 -1.149121 1.642195 38.000000 18 365.329387
-0.282633 -1.136146 1.347501 40.000000 16 365.329389
-0.279520 -1.136322 1.229743 40.000000 15 365.329347
-0.277833 -1.129453 1.019914 40.000000 13 365.329349
-0.275390 -1.118681 0.839949 40.000000 11 365.329352
-0.274624 -1.115558 0.687685 39.000000 9 365.329354
-0.272999 -1.108125 0.549417 38.000000 7 365.329357
-0.267652 -1.085603 0.418385 26.000000 5 365.329360
-0.264573 -1.073116 0.301312 8.000000 3 365.329362
-0.267173 -1.082848 0.192882 12.000000 1 365.329365
-0.280932 -1.134375 1.121648 46.000000 14 365.329372
-0.277552 -1.120718 0.924241 46.000000 12 365.329375
-0.275270 -1.110672 0.757766 44.000000 10 365.329378
-0.277587 -1.120012 0.620881 40.000000 8 365.329380
-0.275255 -1.109771 0.486872 36.000000 6 365.329383
-0.271694 -1.094598 0.362731 14.000000 4 365.329385
-0.267389 -1.076451 0.246719 14.000000 2 365.329388
-0.273525 -1.100332 0.139413 28.000000 0 365.329390
-0.019856 -0.043224 3.899125 95.000000 31 365.329401
-0.161470 -0.583309 3.848106 99.000000 28 365.329404
-0.212640 -0.764638 3.839119 90.000000 27 365.329406
-0.294046 -1.143998 3.820986 91.000000 25 365.329409
-0.311026 -1.238329 3.067501 25.000000 23 365.329411
-0.299272 -1.192396 2.319321 36.000000 21 365.329414
-0.291985 -1.163352 1.834242 38.000000 19 365.329416
-0.287665 -1.146132 1.490918 39.000000 17 365.329419
-0.073284 -0.222720 3.882900 98.000000 30 365.329427
-0.121372 -0.401482 3.862599 97.000000 29 365.329429
-0.251804 -0.951757 3.825297 95.000000 26 365.329432
-0.320234 -1.265648 3.604459 19.000000 24 365.329434
-0.306072 -1.211434 2.646243 32.000000 22 365.329437
-0.297278 -1.177475 2.056600 38.000000 20 365.329440
-0.289868 -1.148116 1.642195 38.000000 18 365.329442
-0.286598 -1.135153 1.347501 39.000000 16 365.329445
-0.283485 -1.135339 1.229743 40.000000 15 365.329402
-0.280831 -1.124700 1.016777 40.000000 13 365.329405
-0.279293 -1.117713 0.839949 40.000000 11 365.329407
-0.278516 -1.114592 0.687685 39.000000 9 365.329410
-0.276866 -1.107166 0.549417 38.000000 7 365.329413
-0.271440 -1.084662 0.418385 26.000000 5 365.329415
-0.268317 -1.072186 0.301312 8.000000 3 365.329418
-0.269741 -1.077078 0.192436 12.000000 1 365.329420
-0.283979 -1.129766 1.118323 46.000000 14 365.329428
-0.281462 -1.119743 0.924241 48.000000 12 365.329431
-0.279145 -1.109705 0.757766 44.000000 10 365.329433
-0.281495 -1.119037 0.620881 40.000000 8 365.329436
-0.279127 -1.108803 0.486872 36.000000 6 365.329438
-0.275513 -1.093643 0.362731 14.000000 4 365.329441
-0.271145 -1.075511 0.246719 14.000000 2 365.329443
-0.277364 -1.099371 0.139413 28.000000 0 365.329446
-0.020007 -0.043155 3.899125 95.000000 31 365.329457
-0.163505 -0.582742 3.848106 99.000000 28 365.329459
-0.215308 -0.763891 3.839119 90.000000 27 365.329462
-0.298037 -1.142964 3.820986 91.000000 25 365.329464
-0.314864 -1.235343 3.062898 25.000000 23 365.329467
-0.303433 -1.191344 2.319321 36.000000 21 365.329469
-0.296044 -1.162326 1.834242 38.000000 19 365.329472
-0.291664 -1.145121 1.490918 39.000000 17 365.329474
-0.074061 -0.222463 3.882900 98.000000 30 365.329482
-0.122773 -0.401055 3.862599 97.000000 29 365.329485
-0.255125 -0.950872 3.825297 94.000000 26 365.329487
-0.324650 -1.264523 3.604459 18.000000 24 365.329490
-0.309758 -1.208249 2.641742 32.000000 22 365.329492
-0.300739 -1.173904 2.052334 38.000000 20 365.329495
-0.293874 -1.147098 1.642195 38.000000 18 365.329498
-0.289717 -1.130862 1.343826 39.000000 16 365.329500
-0.287446 -1.134342 1.229743 40.000000 15 365.329458
-0.284755 -1.123713 1.016777 40.000000 13 365.329460
-0.283193 -1.116731 0.839949 40.000000 11 365.329463
-0.282405 -1.113613 0.687685 39.000000 9 365.329466
-0.280729 -1.106192 0.549417 38.000000 7 365.329468
-0.275224 -1.083708 0.418385 26.000000 5 365.329471
-0.270849 -1.066482 0.300379 8.000000 3 365.329473
-0.273499 -1.076130 0.192436 14.000000 1 365.329476
-0.287921 -1.128768 1.118323 46.000000 14 365.329484
-0.285369 -1.118753 0.924241 48.000000 12 365.329486
-0.283017 -1.108724 0.757766 44.000000 10 365.329489
-0.285400 -1.118047 0.620881 40.000000 8 365.329491
-0.282995 -1.107822 0.486872 36.000000 6 365.329494
-0.278125 -1.087965 0.361558 14.000000 4 365.329496
-0.274898 -1.074558 0.246719 15.000000 2 365.329499
-0.281200 -1.098396 0.139413 29.000000 0 365.329501
-0.020157 -0.043084 3.899125 98.000000 31 365.329512
-0.165538 -0.582167 3.848106 95.000000 28 365.329515
-0.217973 -0.763135 3.839119 90.000000 27 365.329517
-0.302025 -1.141917 3.820986 91.000000 25 365.329520
-0.319174 -1.234236 3.062898 25.000000 23 365.329522
-0.307589 -1.190278 2.319321 36.000000 21 365.329525
-0.300099 -1.161285 1.834242 38.000000 19 365.329527
-0.295660 -1.144096 1.490918 39.000000 17 365.329530
-0.074837 -0.222203 3.882900 99.000000 30 365.329538
-0.124172 -0.400624 3.862599 96.000000 29 365.329540
-0.258773 -0.951189 3.830136 94.000000 26 365.329543
-0.329062 -1.263382 3.604459 18.000000 24 365.329545
-0.313973 -1.207160 2.641742 32.000000 22 365.329548
-0.304835 -1.172847 2.052334 38.000000 20 365.329551
-0.297118 -1.143148 1.638206 38.000000 18 365.329553
-0.293663 -1.129843 1.343826 40.000000 16 365.329556
-0.291404 -1.133332 1.229743 40.000000 15 365.329513
-0.288676 -1.122712 1.016777 40.000000 13 365.329516
-0.286048 -1.111686 0.837207 40.000000 11 365.329518
-0.286291 -1.112621 0.687685 39.000000 9 365.329521
-0.284589 -1.105206 0.549417 38.000000 7 365.329524
-0.279005 -1.082741 0.418385 26.000000 5 365.329526
-0.274570 -1.065530 0.300379 8.000000 3 365.329529
-0.276011 -1.070346 0.191990 15.000000 1 365.329531
-0.291860 -1.127756 1.118323 46.000000 14 365.329539
-0.289273 -1.117750 0.924241 48.000000 12 365.329542
-0.286885 -1.107729 0.757766 44.000000 10 365.329544
-0.288163 -1.112651 0.618783 40.000000 8 365.329547
-0.286861 -1.106827 0.486872 36.000000 6 365.329549
-0.281921 -1.086988 0.361558 14.000000 4 365.329552
-0.278647 -1.073592 0.246719 15.000000 2 365.329554
-0.285033 -1.097408 0.139413 28.000000 0 365.329557
-0.020308 -0.043014 3.899125 99.000000 31 365.329568
-0.167569 -0.581586 3.848106 96.000000 28 365.329570
-0.220636 -0.762369 3.839119 90.000000 27 365.329573
-0.306009 -1.140856 3.820986 92.000000 25 365.329575
-0.323480 -1.233115 3.062898 25.000000 23 365.329578
-0.311742 -1.189197 2.319321 36.000000 21 365.329580
-0.304151 -1.160231 1.834242 38.000000 19 365.329583
-0.299651 -1.143057 1.490918 39.000000 17 365.329586
-0.075612 -0.221941 3.882900 99.000000 30 365.329593
-0.125570 -0.400189 3.862599 96.000000 29 365.329596
-0.262091 -0.950280 3.830136 95.000000 26 365.329598
-0.333470 -1.262226 3.604459 20.000000 24 365.329601
-0.318185 -1.206057 2.641742 32.000000 22 365.329604
-0.308927 -1.171776 2.052334 38.000000 20 365.329606
-0.301107 -1.142104 1.638206 38.000000 18 365.329609
-0.297605 -1.128811 1.343826 39.000000 16 365.329611
-0.295358 -1.132308 1.229743 40.000000 15 365.329569
-0.292593 -1.121697 1.016777 40.000000 13 365.329571
-0.289926 -1.110681 0.837207 40.000000 11 365.329574
-0.290173 -1.111614 0.687685 39.000000 9 365.329577
-0.288445 -1.104206 0.549417 38.000000 7 365.329579
-0.282783 -1.081760 0.418385 26.000000 5 365.329582
-0.278288 -1.064565 0.300379 8.000000 3 365.329584
-0.279745 -1.069376 0.191990 14.000000 1 365.329587
-0.295794 -1.126731 1.118323 46.000000 14 365.329595
-0.293173 -1.116734 0.924241 44.000000 12 365.329597
-0.290750 -1.106721 0.757766 45.000000 10 365.329600
-0.292045 -1.111638 0.618783 40.000000 8 365.329602
-0.290723 -1.105819 0.486872 36.000000 6 365.329605
-0.285714 -1.085997 0.361558 14.000000 4 365.329607
-0.283653 -1.077402 0.247409 13.000000 2 365.329610
-0.288862 -1.096406 0.139413 28.000000 0 365.329612
-0.020458 -0.042943 3.899125 98.000000 31 365.329623
-0.169817 -0.581743 3.853045 99.000000 28 365.329626
-0.223296 -0.761595 3.839119 88.000000 27 365.329628
-0.309990 -1.139781 3.820986 92.000000 25 365.329631
-0.327783 -1.231978 3.062898 25.000000 23 365.329633
-0.315891 -1.188102 2.319321 36.000000 21 365.329636
-0.308199 -1.159162 1.834242 38.000000 19 365.329638
-0.303640 -1.142004 1.490918 39.000000 17 365.329641
-0.076347 -0.221689 3.882900 98.000000 30 365.329649
-0.126896 -0.399770 3.862599 96.000000 29 365.329651
-0.265241 -0.949406 3.830136 95.000000 26 365.329654
-0.337208 -1.259446 3.599766 20.000000 24 365.329656
-0.322393 -1.204939 2.641742 32.000000 22 365.329659
-0.313015 -1.170690 2.052334 38.000000 20 365.329662
-0.305091 -1.141046 1.638206 38.000000 18 365.329664
-0.301346 -1.127818 1.343826 39.000000 16 365.329667
-0.300221 -1.134718 1.233248 42.000000 15 365.329624
-0.296507 -1.120669 1.016777 40.000000 13 365.329627
-0.293802 -1.109662 0.837207 40.000000 11 365.329630
-0.294051 -1.110595 0.687685 39.000000 9 365.329632
-0.292105 -1.103243 0.549417 38.000000 7 365.329635
-0.286369 -1.080817 0.418385 26.000000 5 365.329637
-0.282002 -1.063587 0.300379 8.000000 3 365.329640
-0.283476 -1.068393 0.191990 14.000000 1 365.329642
-0.299726 -1.125691 1.118323 46.000000 14 365.329650
-0.297069 -1.115704 0.924241 44.000000 12 365.329653
-0.294419 -1.105750 0.757766 44.000000 10 365.329655
-0.295730 -1.110663 0.618783 42.000000 8 365.329658
-0.294388 -1.104849 0.486872 36.000000 6 365.329660
-0.289314 -1.085044 0.361558 14.000000 4 365.329663
-0.287225 -1.076455 0.247409 13.000000 2 365.329665
-0.292496 -1.095442 0.139413 29.000000 0 365.329668
-0.020600 -0.042875 3.899125 98.000000 31 365.329679
-0.171745 -0.581177 3.853045 99.000000 28 365.329681
-0.225820 -0.760850 3.839119 88.000000 27 365.329684
-0.314164 -1.140186 3.825757 91.000000 25 365.329686
-0.331866 -1.230884 3.062898 25.000000 23 365.329689
-0.319830 -1.187048 2.319321 36.000000 21 365.329691
-0.312041 -1.158133 1.834242 38.000000 19 365.329694
-0.307425 -1.140991 1.490918 39.000000 17 365.329697
-0.077217 -0.221694 3.887892 98.000000 30 365.329704
-0.128455 -0.399833 3.867571 96.000000 29 365.329707
-0.268897 -0.949684 3.834975 95.000000 26 365.329709
-0.341602 -1.258261 3.599766 21.000000 24 365.329712
-0.326387 -1.203863 2.641742 32.000000 22 365.329715
-0.316896 -1.169646 2.052334 38.000000 20 365.329717
-0.308874 -1.140028 1.638206 38.000000 18 365.329720
-0.305281 -1.126760 1.343826 39.000000 16 365.329722
-0.303982 -1.133716 1.233248 42.000000 15 365.329680
-0.300221 -1.119680 1.016777 40.000000 13 365.329682
-0.297480 -1.108682 0.837207 40.000000 11 365.329685
-0.297733 -1.109614 0.687685 39.000000 9 365.329688
-0.295954 -1.102217 0.549417 38.000000 7 365.329690
-0.290140 -1.079811 0.418385 26.000000 5 365.329693
-0.286803 -1.067390 0.301312 8.000000 3 365.329695
-0.288311 -1.072256 0.192436 14.000000 1 365.329698
-0.303457 -1.124691 1.118323 46.000000 14 365.329706
-0.300767 -1.114712 0.924241 48.000000 12 365.329708
-0.298277 -1.104716 0.757766 44.000000 10 365.329711
-0.300788 -1.114006 0.620881 42.000000 8 365.329713
-0.297011 -1.099256 0.485229 36.000000 6 365.329716
-0.293099 -1.084027 0.361558 14.000000 4 365.329718
-0.289687 -1.070665 0.246719 14.000000 2 365.329721
-0.296318 -1.094414 0.139413 28.000000 0 365.329724
-0.020750 -0.042802 3.899125 98.000000 31 365.329734
-0.173773 -0.580574 3.853045 99.000000 28 365.329737
-0.228474 -0.760057 3.839119 90.000000 27 365.329739
-0.318142 -1.139083 3.825757 91.000000 25 365.329742
-0.336161 -1.229718 3.062898 25.000000 23 365.329744
-0.323340 -1.183613 2.314933 36.000000 21 365.329747
-0.316082 -1.157037 1.834242 38.000000 19 365.329750
-0.311406 -1.139911 1.490918 39.000000 17 365.329752
-0.077991 -0.221423 3.887892 99.000000 30 365.329760
-0.129850 -0.399382 3.867571 97.000000 29 365.329762
-0.272210 -0.948740 3.834975 95.000000 26 365.329765
-0.342328 -1.243751 3.562224 24.000000 24 365.329768
-0.330587 -1.202717 2.641742 32.000000 22 365.329770
-0.320286 -1.166017 2.048068 38.000000 20 365.329773
-0.312851 -1.138943 1.638206 38.000000 18 365.329775
-0.309213 -1.125687 1.343826 39.000000 16 365.329778
-0.307938 -1.132648 1.233248 40.000000 15 365.329735
-0.304128 -1.118625 1.016777 40.000000 13 365.329738
-0.301348 -1.107636 0.837207 40.000000 11 365.329741
-0.301604 -1.108568 0.687685 39.000000 9 365.329743
-0.299800 -1.101177 0.549417 38.000000 7 365.329746
-0.292646 -1.074163 0.416976 26.000000 5 365.329748
-0.290527 -1.066383 0.301312 8.000000 3 365.329751
-0.292052 -1.071244 0.192436 14.000000 1 365.329753
-0.307381 -1.123625 1.118323 46.000000 14 365.329761
-0.304656 -1.113656 0.924241 48.000000 12 365.329764
-0.302131 -1.103668 0.757766 45.000000 10 365.329766
-0.304675 -1.112949 0.620881 42.000000 8 365.329769
-0.300846 -1.098212 0.485229 36.000000 6 365.329771
-0.296881 -1.082997 0.361558 14.000000 4 365.329774
-0.293423 -1.069648 0.246719 14.000000 2 365.329776
-0.300136 -1.093374 0.139413 28.000000 0 365.329779
-0.020899 -0.042730 3.899125 98.000000 31 365.329790
-0.176024 -0.580707 3.857985 99.000000 28 365.329792
-0.231126 -0.759255 3.839119 90.000000 27 365.329795
-0.322117 -1.137965 3.825757 92.000000 25 365.329797
-0.340451 -1.228538 3.062898 25.000000 23 365.329800
-0.327469 -1.182477 2.314933 36.000000 21 365.329802
-0.320119 -1.155927 1.834242 38.000000 19 365.329805
-0.315383 -1.138817 1.490918 39.000000 17 365.329808
-0.078763 -0.221149 3.887892 99.000000 30 365.329815
-0.131243 -0.398926 3.867571 97.000000 29 365.329818
-0.275520 -0.947784 3.834975 95.000000 26 365.329820
-0.344813 -1.235899 3.543453 30.000000 24 365.329823
-0.334784 -1.201555 2.641742 32.000000 22 365.329826
-0.324354 -1.164892 2.048068 38.000000 20 365.329828
-0.316825 -1.137844 1.638206 38.000000 18 365.329831
-0.313140 -1.124601 1.343826 39.000000 16 365.329833
-0.311890 -1.131566 1.233248 40.000000 15 365.329791
-0.308031 -1.117556 1.016777 42.000000 13 365.329794
-0.305213 -1.106578 0.837207 40.000000 11 365.329796
-0.305472 -1.107508 0.687685 39.000000 9 365.329799
-0.303642 -1.100124 0.549417 38.000000 7 365.329801
-0.296394 -1.073135 0.416976 25.000000 5 365.329804
-0.294247 -1.065362 0.301312 8.000000 3 365.329806
-0.295789 -1.070218 0.192436 14.000000 1 365.329809
-0.311301 -1.122545 1.118323 46.000000 14 365.329817
-0.308542 -1.112586 0.924241 48.000000 12 365.329819
-0.305982 -1.102607 0.757766 44.000000 10 365.329822
-0.308558 -1.111879 0.620881 40.000000 8 365.329824
-0.303414 -1.092605 0.483586 36.000000 6 365.329827
-0.300660 -1.081954 0.361558 14.000000 4 365.329829
-0.297155 -1.068617 0.246719 14.000000 2 365.329832
-0.303951 -1.092319 0.139413 29.000000 0 365.329835
-0.021025 -0.042619 3.894125 98.000000 31 365.329845
-0.178050 -0.580089 3.857985 99.000000 28 365.329848
-0.233775 -0.758443 3.839119 90.000000 27 365.329850
-0.326087 -1.136834 3.825757 92.000000 25 365.329853
-0.344209 -1.225461 3.058296 23.000000 23 365.329855
-0.331595 -1.181327 2.314933 36.000000 21 365.329858
-0.324152 -1.154802 1.834242 38.000000 19 365.329861
-0.319356 -1.137709 1.490918 39.000000 17 365.329863
-0.079535 -0.220873 3.887892 99.000000 30 365.329871
-0.132635 -0.398466 3.867571 97.000000 29 365.329873
-0.278827 -0.946816 3.834975 95.000000 26 365.329876
-0.346307 -1.224725 3.515297 32.000000 24 365.329879
-0.338976 -1.200379 2.641742 32.000000 22 365.329881
-0.328418 -1.163753 2.048068 38.000000 20 365.329884
-0.320795 -1.136731 1.638206 38.000000 18 365.329886
-0.317064 -1.123501 1.343826 39.000000 16 365.329889
-0.314878 -1.127036 1.229743 40.000000 15 365.329846
-0.311930 -1.116474 1.016777 42.000000 13 365.329849
-0.309073 -1.105506 0.837207 40.000000 11 365.329852
-0.309336 -1.106435 0.687685 39.000000 9 365.329854
-0.306231 -1.094593 0.547544 38.000000 7 365.329857
-0.298845 -1.067474 0.415567 25.000000 5 365.329859
-0.297964 -1.064328 0.301312 8.000000 3 365.329862
-0.299523 -1.069179 0.192436 14.000000 1 365.329864
-0.315218 -1.121452 1.118323 44.000000 14 365.329872
-0.312424 -1.111502 0.924241 48.000000 12 365.329875
-0.309829 -1.101532 0.757766 44.000000 10 365.329877
-0.312437 -1.110795 0.620881 40.000000 8 365.329880
-0.307226 -1.091540 0.483586 36.000000 6 365.329882
-0.304435 -1.080899 0.361558 14.000000 4 365.329885
-0.299540 -1.062807 0.246029 14.000000 2 365.329888
-0.306406 -1.086443 0.139211 29.000000 0 365.329890
-0.021174 -0.042545 3.894125 97.000000 31 365.329901
-0.180074 -0.579464 3.857985 99.000000 28 365.329903
-0.236421 -0.757623 3.839119 90.000000 27 365.329906
-0.330053 -1.135689 3.825757 92.000000 25 365.329908
-0.348485 -1.224252 3.058296 23.000000 23 365.329911
-0.335717 -1.180162 2.314933 36.000000 21 365.329914
-0.328181 -1.153664 1.834242 38.000000 19 365.329916
-0.322449 -1.133503 1.487081 39.000000 17 365.329919
-0.080205 -0.220322 3.882900 99.000000 30 365.329926
-0.134025 -0.398000 3.867571 96.000000 29 365.329929
-0.282130 -0.945837 3.834975 95.000000 26 365.329932
-0.348679 -1.216873 3.496526 32.000000 24 365.329934
-0.343164 -1.199189 2.641742 32.000000 22 365.329937
-0.332478 -1.162600 2.048068 38.000000 20 365.329939
-0.324761 -1.135604 1.638206 38.000000 18 365.329942
-0.320984 -1.122387 1.343826 39.000000 16 365.329944
-0.318810 -1.125930 1.229743 40.000000 15 365.329902
-0.315825 -1.115379 1.016777 40.000000 13 365.329905
-0.312930 -1.104420 0.837207 40.000000 11 365.329907
-0.313196 -1.105349 0.687685 39.000000 9 365.329910
-0.310050 -1.093517 0.547544 38.000000 7 365.329912
-0.302569 -1.066424 0.415567 25.000000 5 365.329915
-0.301678 -1.063282 0.301312 8.000000 3 365.329917
-0.301894 -1.063336 0.191990 14.000000 1 365.329920
-0.319131 -1.120345 1.118323 44.000000 14 365.329928
-0.316302 -1.110404 0.924241 48.000000 12 365.329930
-0.313672 -1.100444 0.757766 42.000000 10 365.329933
-0.315068 -1.105333 0.618783 40.000000 8 365.329935
-0.311035 -1.090461 0.483586 36.000000 6 365.329938
-0.308206 -1.079829 0.361558 14.000000 4 365.329940
-0.303248 -1.061755 0.246029 15.000000 2 365.329943
-0.310197 -1.085367 0.139211 29.000000 0 365.329946
-0.021322 -0.042471 3.894125 98.000000 31 365.329957
-0.182095 -0.578832 3.857985 99.000000 28 365.329960
-0.239371 -0.757764 3.844014 91.000000 27 365.329962
-0.334016 -1.134530 3.825757 92.000000 25 365.329965
-0.352756 -1.223028 3.058296 25.000000 23 365.329967
-0.339171 -1.176681 2.310544 35.000000 21 365.329970
-0.332206 -1.152511 1.834242 38.000000 19 365.329972
-0.326403 -1.132371 1.487081 39.000000 17 365.329975
-0.080973 -0.220041 3.882900 98.000000 30 365.329983
-0.135414 -0.397530 3.867571 96.000000 29 365.329985
-0.285430 -0.944847 3.834975 95.000000 26 365.329988
-0.352924 -1.215648 3.496526 32.000000 24 365.329990
-0.347348 -1.197984 2.641742 32.000000 22 365.329993
-0.336535 -1.161432 2.048068 38.000000 20 365.329995
-0.328723 -1.134464 1.638206 38.000000 18 365.329998
-0.324899 -1.121260 1.343826 39.000000 16 365.330001
-0.322739 -1.124810 1.229743 40.000000 15 365.329958
-0.319717 -1.114269 1.016777 40.000000 13 365.329961
-0.316784 -1.103321 0.837207 40.000000 11 365.329963
-0.317053 -1.104249 0.687685 39.000000 9 365.329966
-0.312585 -1.087973 0.545671 38.000000 7 365.329969
-0.306290 -1.065361 0.415567 25.000000 5 365.329971
-0.305387 -1.062222 0.301312 8.000000 3 365.329974
-0.305603 -1.062276 0.191990 14.000000 1 365.329976
-0.322004 -1.115636 1.114998 46.000000 14 365.329984
-0.320176 -1.109293 0.924241 48.000000 12 365.329987
-0.316315 -1.095200 0.755233 44.000000 10 365.329989
-0.318925 -1.104226 0.618783 40.000000 8 365.329992
-0.316150 -1.093905 0.485229 36.000000 6 365.329994
-0.311974 -1.078747 0.361558 14.000000 4 365.329997
-0.306952 -1.060690 0.246029 14.000000 2 365.329999
-0.313983 -1.084278 0.139211 29.000000 0 365.330002
-0.021471 -0.042397 3.894125 98.000000 31 365.330013
-0.184115 -0.578193 3.857985 99.000000 28 365.330015
-0.242015 -0.756923 3.844014 90.000000 27 365.330018
-0.337974 -1.133357 3.825757 92.000000 25 365.330020
-0.357023 -1.221789 3.058296 25.000000 23 365.330023
-0.343276 -1.175490 2.310544 35.000000 21 365.330025
-0.336227 -1.151345 1.834242 38.000000 19 365.330028
-0.330354 -1.131225 1.487081 39.000000 17 365.330030
-0.081741 -0.219757 3.882900 99.000000 30 365.330038
-0.136800 -0.397055 3.867571 96.000000 29 365.330041
-0.288726 -0.943844 3.834975 95.000000 26 365.330043
-0.356679 -1.212754 3.491833 36.000000 24 365.330046
-0.351527 -1.196764 2.641742 32.000000 22 365.330048
-0.340587 -1.160250 2.048068 38.000000 20 365.330051
-0.331832 -1.130417 1.634216 38.000000 18 365.330054
-0.328811 -1.120119 1.343826 39.000000 16 365.330056
-0.326663 -1.123677 1.229743 40.000000 15 365.330014
-0.323604 -1.113147 1.016777 42.000000 13 365.330016
-0.320633 -1.102209 0.837207 40.000000 11 365.330019
-0.320905 -1.103135 0.687685 39.000000 9 365.330021
-0.316381 -1.086875 0.545671 38.000000 7 365.330024
-0.310007 -1.064286 0.415567 25.000000 5 365.330027
-0.309093 -1.061150 0.301312 8.000000 3 365.330029
-0.309310 -1.061202 0.191990 14.000000 1 365.330032
-0.325896 -1.114505 1.114998 46.000000 14 365.330039
-0.322912 -1.104290 0.921298 48.000000 12 365.330042
-0.320136 -1.094090 0.755233 45.000000 10 365.330045
-0.322777 -1.103107 0.618783 42.000000 8 365.330047
-0.319967 -1.092795 0.485229 36.000000 6 365.330050
-0.314371 -1.072987 0.360386 14.000000 4 365.330052
-0.310653 -1.059612 0.246029 14.000000 2 365.330055
-0.317766 -1.083175 0.139211 29.000000 0 365.330057
-0.021618 -0.042321 3.894125 98.000000 31 365.330068
-0.186132 -0.577547 3.857985 99.000000 28 365.330071
-0.244656 -0.756074 3.844014 90.000000 27 365.330073
-0.341928 -1.132170 3.825757 92.000000 25 365.330076
-0.361286 -1.220536 3.058296 25.000000 23 365.330078
-0.347377 -1.174284 2.310544 36.000000 21 365.330081
-0.340244 -1.150164 1.834242 38.000000 19 365.330083
-0.334301 -1.130065 1.487081 39.000000 17 365.330086
-0.082508 -0.219471 3.882900 99.000000 30 365.330094
-0.138362 -0.397079 3.872542 97.000000 29 365.330096
-0.292019 -0.942831 3.834975 95.000000 26 365.330099
-0.362881 -1.218116 3.510604 33.000000 24 365.330101
-0.355703 -1.195530 2.641742 32.000000 22 365.330104
-0.344635 -1.159054 2.048068 38.000000 20 365.330107
-0.335776 -1.129252 1.634216 38.000000 18 365.330109
-0.332719 -1.118965 1.343826 39.000000 16 365.330112
-0.330583 -1.122530 1.229743 40.000000 15 365.330069
-0.327488 -1.112010 1.016777 42.000000 13 365.330072
-0.324479 -1.101083 0.837207 40.000000 11 365.330074
-0.324754 -1.102008 0.687685 39.000000 9 365.330077
-0.320173 -1.085764 0.545671 38.000000 7 365.330080
-0.313720 -1.063197 0.415567 25.000000 5 365.330082
-0.312796 -1.060064 0.301312 8.000000 3 365.330085
-0.313012 -1.060116 0.191990 14.000000 1 365.330087
-0.329784 -1.113361 1.114998 46.000000 14 365.330095
-0.326764 -1.103156 0.921298 48.000000 12 365.330098
-0.323953 -1.092965 0.755233 45.000000 10 365.330100
-0.326626 -1.101973 0.618783 42.000000 8 365.330103
-0.323780 -1.091671 0.485229 36.000000 6 365.330105
-0.318114 -1.071883 0.360386 14.000000 4 365.330108
-0.314350 -1.058521 0.246029 14.000000 2 365.330110
-0.321545 -1.082059 0.139211 29.000000 0 365.330113
-0.021766 -0.042246 3.894125 98.000000 31 365.330124
-0.188147 -0.576893 3.857985 99.000000 28 365.330126
-0.247611 -0.756183 3.848909 89.000000 27 365.330129
-0.345878 -1.130970 3.825757 92.000000 25 365.330131
-0.365544 -1.219267 3.058296 26.000000 23 365.330134
-0.351474 -1.173065 2.310544 36.000000 21 365.330136
-0.343449 -1.146274 1.830108 38.000000 19 365.330139
-0.338243 -1.128891 1.487081 39.000000 17 365.330141
-0.083273 -0.219181 3.882900 99.000000 30 365.330149
-0.139747 -0.396593 3.872542 97.000000 29 365.330152
-0.295308 -0.941806 3.834975 95.000000 26 365.330154
-0.376103 -1.246580 3.595074 23.000000 24 365.330157
-0.359874 -1.194281 2.641742 32.000000 22 365.330159
-0.348679 -1.157844 2.048068 38.000000 20 365.330162
-0.339715 -1.128073 1.634216 38.000000 18 365.330165
-0.336623 -1.117796 1.343826 39.000000 16 365.330167
-0.334500 -1.121369 1.229743 40.000000 15 365.330125
-0.331368 -1.110860 1.016777 42.000000 13 365.330127
-0.329516 -1.103950 0.839949 40.000000 11 365.330130
-0.328599 -1.100868 0.687685 39.000000 9 365.330133
-0.323961 -1.084640 0.545671 38.000000 7 365.330135
-0.317429 -1.062096 0.415567 25.000000 5 365.330138
-0.316494 -1.058966 0.301312 8.000000 3 365.330140
-0.316711 -1.059017 0.191990 14.000000 1 365.330143
-0.333669 -1.112203 1.114998 46.000000 14 365.330151
-0.330613 -1.102008 0.921298 48.000000 12 365.330153
-0.327766 -1.091828 0.755233 45.000000 10 365.330156
-0.330470 -1.100826 0.618783 42.000000 8 365.330158
-0.327588 -1.090534 0.485229 36.000000 6 365.330161
-0.321854 -1.070766 0.360386 14.000000 4 365.330163
-0.318043 -1.057417 0.246029 14.000000 2 365.330166
-0.325320 -1.080930 0.139211 29.000000 0 365.330168
-0.021913 -0.042169 3.894125 98.000000 31 365.330179
-0.190159 -0.576233 3.857985 99.000000 28 365.330182
-0.250249 -0.755314 3.848909 89.000000 27 365.330184
-0.350265 -1.131182 3.830529 92.000000 25 365.330187
-0.369798 -1.217983 3.058296 25.000000 23 365.330189
-0.355567 -1.171831 2.310544 36.000000 21 365.330192
-0.347448 -1.145068 1.830108 38.000000 19 365.330194
-0.342182 -1.127703 1.487081 39.000000 17 365.330197
-0.084038 -0.218889 3.882900 99.000000 30 365.330205
-0.141131 -0.396103 3.872542 97.000000 29 365.330207
-0.298975 -0.941968 3.839815 94.000000 26 365.330210
-0.382974 -1.253511 3.618537 19.000000 24 365.330212
-0.364040 -1.193017 2.641742 32.000000 22 365.330215
-0.352718 -1.156620 2.048068 38.000000 20 365.330218
-0.343651 -1.126880 1.634216 38.000000 18 365.330220
-0.340523 -1.116614 1.343826 39.000000 16 365.330223
-0.338412 -1.120194 1.229743 40.000000 15 365.330180
-0.334117 -1.105971 1.013639 40.000000 13 365.330183
-0.333368 -1.102793 0.839949 40.000000 11 365.330185
-0.332439 -1.099714 0.687685 40.000000 9 365.330188
-0.327745 -1.083502 0.545671 38.000000 7 365.330191
-0.321135 -1.060981 0.415567 25.000000 5 365.330193
-0.320189 -1.057855 0.301312 8.000000 3 365.330196
-0.320405 -1.057905 0.191990 14.000000 1 365.330198
-0.337549 -1.111031 1.114998 46.000000 14 365.330206
-0.334458 -1.100847 0.921298 48.000000 12 365.330209
-0.331576 -1.090677 0.755233 45.000000 10 365.330211
-0.334311 -1.099666 0.618783 40.000000 8 365.330214
-0.331393 -1.089384 0.485229 36.000000 6 365.330216
-0.325589 -1.069636 0.360386 14.000000 4 365.330219
-0.321732 -1.056301 0.246029 14.000000 2 365.330221
-0.329092 -1.079788 0.139211 28.000000 0 365.330224
-0.022060 -0.042093 3.894125 98.000000 31 365.330235
-0.192170 -0.575566 3.857985 99.000000 28 365.330237
-0.252884 -0.754436 3.848909 89.000000 27 365.330240
-0.354212 -1.129953 3.830529 92.000000 25 365.330242
-0.374047 -1.216685 3.058296 25.000000 23 365.330245
-0.359655 -1.170582 2.310544 36.000000 21 365.330247
-0.351443 -1.143848 1.830108 38.000000 19 365.330250
-0.346116 -1.126502 1.487081 39.000000 17 365.330253
-0.084763 -0.218609 3.882900 99.000000 30 365.330260
-0.142444 -0.395633 3.872542 97.000000 29 365.330263
-0.302097 -0.940971 3.839815 94.000000 26 365.330265
-0.384580 -1.243991 3.595074 18.000000 24 365.330268
-0.368202 -1.191739 2.641742 32.000000 22 365.330271
-0.356753 -1.155382 2.048068 38.000000 20 365.330273
-0.347583 -1.125674 1.634216 38.000000 18 365.330276
-0.344224 -1.115479 1.343826 39.000000 16 365.330278
-0.342320 -1.119006 1.229743 40.000000 15 365.330236
-0.337976 -1.104797 1.013639 40.000000 13 365.330238
-0.337215 -1.101623 0.839949 40.000000 11 365.330241
-0.334979 -1.094311 0.685367 39.000000 9 365.330244
-0.331336 -1.082409 0.545671 38.000000 7 365.330246
-0.324651 -1.059910 0.415567 25.000000 5 365.330249
-0.323879 -1.056731 0.301312 8.000000 3 365.330251
-0.324096 -1.056780 0.191990 12.000000 1 365.330254
-0.341425 -1.109846 1.114998 46.000000 14 365.330262
-0.338298 -1.099673 0.921298 46.000000 12 365.330264
-0.335191 -1.089571 0.755233 44.000000 10 365.330267
-0.337956 -1.098551 0.618783 42.000000 8 365.330269
-0.335004 -1.088279 0.485229 36.000000 6 365.330272
-0.329135 -1.068550 0.360386 14.000000 4 365.330274
-0.325233 -1.055228 0.246029 14.000000 2 365.330277
-0.332670 -1.078691 0.139211 27.000000 0 365.330279
-0.022223 -0.042056 3.899125 94.000000 31 365.330290
-0.194077 -0.574925 3.857985 99.000000 28 365.330293
-0.255384 -0.753593 3.848909 90.000000 27 365.330295
-0.357957 -1.128772 3.830529 94.000000 25 365.330298
-0.378080 -1.215438 3.058296 26.000000 23 365.330300
-0.363535 -1.169383 2.310544 36.000000 21 365.330303
-0.355234 -1.142676 1.830108 38.000000 19 365.330305
-0.350802 -1.128410 1.490918 39.000000 17 365.330308
-0.085526 -0.218312 3.882900 98.000000 30 365.330316
-0.143824 -0.395133 3.872542 97.000000 29 365.330318
-0.305380 -0.939911 3.839815 95.000000 26 365.330321
-0.389435 -1.244288 3.599766 17.000000 24 365.330323
-0.372152 -1.190512 2.641742 32.000000 22 365.330326
-0.360583 -1.154192 2.048068 38.000000 20 365.330329
-0.351314 -1.124515 1.634216 38.000000 18 365.330331
-0.348116 -1.114271 1.343826 39.000000 16 365.330334
-0.346029 -1.117865 1.229743 40.000000 15 365.330291
-0.341638 -1.103671 1.013639 40.000000 13 365.330294
-0.339629 -1.096504 0.837207 40.000000 11 365.330297
-0.338607 -1.093194 0.685367 39.000000 9 365.330299
-0.336485 -1.085674 0.547544 38.000000 7 365.330302
-0.328349 -1.058771 0.415567 25.000000 5 365.330304
-0.327382 -1.055651 0.301312 8.000000 3 365.330307
-0.326123 -1.050943 0.191544 12.000000 1 365.330309
-0.345104 -1.108708 1.114998 46.000000 14 365.330317
-0.341943 -1.098545 0.921298 46.000000 12 365.330320
-0.338992 -1.088395 0.755233 44.000000 10 365.330322
-0.341788 -1.097365 0.618783 42.000000 8 365.330325
-0.338800 -1.087103 0.485229 36.000000 6 365.330327
-0.332863 -1.067395 0.360386 13.000000 4 365.330330
-0.328914 -1.054086 0.246029 14.000000 2 365.330332
-0.336434 -1.077523 0.139211 27.000000 0 365.330335
-0.022370 -0.041978 3.899125 94.000000 31 365.330346
-0.196083 -0.574245 3.857985 99.000000 28 365.330348
-0.258013 -0.752697 3.848909 90.000000 27 365.330351
-0.361895 -1.127515 3.830529 92.000000 25 365.330353
-0.382320 -1.214111 3.058296 25.000000 23 365.330356
-0.367614 -1.168107 2.310544 36.000000 21 365.330358
-0.359221 -1.141429 1.830108 38.000000 19 365.330361
-0.354738 -1.127178 1.490918 39.000000 17 365.330364
-0.086287 -0.218012 3.882900 98.000000 30 365.330371
-0.145202 -0.394629 3.872542 97.000000 29 365.330374
-0.308659 -0.938839 3.839815 95.000000 26 365.330376
-0.394819 -1.246211 3.609152 17.000000 24 365.330379
-0.376306 -1.189205 2.641742 32.000000 22 365.330382
-0.364609 -1.152927 2.048068 38.000000 20 365.330384
-0.355237 -1.123282 1.634216 38.000000 18 365.330387
-0.350981 -1.109816 1.340151 39.000000 16 365.330389
-0.349929 -1.116650 1.229743 40.000000 15 365.330347
-0.345488 -1.102471 1.013639 42.000000 13 365.330349
-0.343455 -1.095312 0.837207 40.000000 11 365.330352
-0.342420 -1.092005 0.685367 39.000000 9 365.330355
-0.340273 -1.084493 0.547544 38.000000 7 365.330357
-0.332043 -1.057618 0.415567 25.000000 5 365.330360
-0.331065 -1.054502 0.301312 8.000000 3 365.330362
-0.329789 -1.049799 0.191544 15.000000 1 365.330365
-0.348972 -1.107497 1.114998 46.000000 14 365.330373
-0.345776 -1.097345 0.921298 48.000000 12 365.330375
-0.342789 -1.087205 0.755233 45.000000 10 365.330378
-0.345617 -1.096165 0.618783 42.000000 8 365.330380
-0.342593 -1.085914 0.485229 36.000000 6 365.330383
-0.335123 -1.061591 0.359214 13.000000 4 365.330385
-0.332592 -1.052932 0.246029 14.000000 2 365.330388
