# .PCD v.7 - Point Cloud Data file format
VERSION .7
FIELDS x y z intensity ring timestamp
SIZE 4 4 4 4 2 8
TYPE F F F F U D
COUNT 1 1 1 1 1 1
WIDTH 938
HEIGHT 1
VIEWPOINT 0 0 0 1 0 0 0
POINTS 938
DATA ascii
-0.092655 2.666412 2.701653 12.000000 15 366.274516
-0.096629 2.780874 2.325230 16.000000 13 366.274519
-0.096587 2.793712 1.917345 15.000000 11 366.274522
-0.098015 2.835079 1.570853 17.000000 9 366.274524
-0.098200 2.854860 1.242439 17.000000 7 366.274527
-0.055800 1.630468 0.569169 61.000000 5 366.274529
-0.056285 1.644635 0.403900 75.000000 3 366.274532
-0.065406 1.920976 0.265168 12.000000 1 366.274534
-0.091623 2.761693 2.541358 15.000000 14 366.274542
-0.092963 2.802172 2.125051 18.000000 12 366.274545
-0.092487 2.802578 1.732750 16.000000 10 366.274547
-0.094340 2.858827 1.409749 19.000000 8 366.274550
-0.054252 1.661596 0.491686 23.000000 4 366.274555
-0.094189 2.900326 0.496433 19.000000 2 366.274557
-0.062411 1.932162 0.171658 11.000000 0 366.274560
0.007124 0.046150 3.799129 51.000000 31 366.274571
-0.004927 0.866303 5.507697 74.000000 28 366.274573
-0.005229 1.152052 5.562239 35.000000 27 366.274576
-0.027381 1.124095 3.639660 90.000000 25 366.274578
-0.045117 1.510557 3.619804 10.000000 23 366.274581
-0.055971 1.863415 3.482316 11.000000 21 366.274583
-0.048430 1.612369 2.441785 18.000000 19 366.274586
-0.049816 1.658613 2.062623 22.000000 17 366.274589
0.010987 0.604598 5.587679 37.000000 29 366.274599
-0.016144 0.932793 3.626890 93.000000 26 366.274601
-0.036994 1.315367 3.632616 92.000000 24 366.274604
-0.049126 1.725724 3.631925 10.000000 22 366.274607
-0.045666 1.594540 2.679426 15.000000 20 366.274609
-0.046321 1.617489 2.216683 24.000000 18 366.274612
-0.052143 1.820937 2.053133 22.000000 16 366.274614
-0.083570 2.673849 2.708662 12.000000 15 366.274572
-0.086800 2.777304 2.322092 16.000000 13 366.274575
-0.086705 2.789853 1.914603 15.000000 11 366.274577
-0.087980 2.830976 1.568535 17.000000 9 366.274580
-0.088091 2.850552 1.240566 18.000000 7 366.274582
-0.050108 1.630653 0.569169 74.000000 5 366.274585
-0.050393 1.639911 0.402967 75.000000 3 366.274587
-0.058548 1.916215 0.264722 11.000000 1 366.274590
-0.081871 2.758264 2.538033 15.000000 14 366.274598
-0.082941 2.794399 2.119164 19.000000 12 366.274600
-0.082576 2.798575 1.730217 16.000000 10 366.274603
-0.084227 2.854602 1.407651 19.000000 8 366.274605
-0.048169 1.652058 0.489341 23.000000 4 366.274610
-0.084065 2.900637 0.496433 19.000000 2 366.274613
-0.055666 1.932368 0.171658 10.000000 0 366.274616
0.007285 0.046125 3.799129 41.000000 31 366.274626
-0.001903 0.866315 5.507697 74.000000 28 366.274629
-0.001205 1.147990 5.542658 29.000000 27 366.274631
-0.023457 1.124184 3.639660 90.000000 25 366.274634
-0.039844 1.510705 3.619804 10.000000 23 366.274636
-0.049657 1.870783 3.495482 11.000000 21 366.274639
-0.042727 1.609715 2.437652 18.000000 19 366.274642
-0.044026 1.658777 2.062623 23.000000 17 366.274644
0.013110 0.605090 5.592650 37.000000 29 366.274654
-0.012888 0.932843 3.626890 93.000000 26 366.274657
-0.032403 1.315488 3.632616 89.000000 24 366.274660
-0.043102 1.725885 3.631925 10.000000 22 366.274662
-0.040100 1.594690 2.679426 16.000000 20 366.274665
-0.040599 1.614628 2.212694 23.000000 18 366.274667
-0.045787 1.821108 2.053133 22.000000 16 366.274670
-0.074335 2.677689 2.712166 12.000000 15 366.274627
-0.076997 2.773699 2.318954 15.000000 13 366.274630
-0.076966 2.790138 1.914603 15.000000 11 366.274633
-0.077976 2.826838 1.566217 17.000000 9 366.274635
-0.078140 2.850842 1.240566 19.000000 7 366.274638
-0.044416 1.630818 0.569169 76.000000 5 366.274640
-0.044668 1.640077 0.402967 75.000000 3 366.274643
-0.051724 1.911429 0.264276 11.000000 1 366.274645
-0.072145 2.754799 2.534708 15.000000 14 366.274653
-0.073186 2.794671 2.119164 18.000000 12 366.274656
-0.072695 2.794536 1.727685 17.000000 10 366.274658
-0.074262 2.854878 1.407651 19.000000 8 366.274661
-0.042707 1.652870 0.664282 73.000000 6 366.274663
-0.042152 1.642498 0.486996 31.000000 4 366.274666
-0.073813 2.895962 0.495743 19.000000 2 366.274669
-0.048921 1.932551 0.171658 10.000000 0 366.274671
0.007446 0.046100 3.799129 43.000000 31 366.274682
0.001123 0.867093 5.512636 75.000000 28 366.274684
0.002791 1.143915 5.523077 20.000000 27 366.274687
-0.019533 1.124259 3.639660 90.000000 25 366.274689
-0.034615 1.512788 3.624406 10.000000 23 366.274692
-0.043678 1.894896 3.539369 13.000000 21 366.274695
-0.037043 1.607041 2.433519 19.000000 19 366.274697
-0.038310 1.662126 2.066460 23.000000 17 366.274700
0.015222 0.605040 5.592650 37.000000 29 366.274710
-0.009631 0.932883 3.626890 93.000000 26 366.274713
-0.027811 1.315593 3.632616 90.000000 24 366.274715
-0.037124 1.728202 3.636426 10.000000 22 366.274718
-0.034477 1.592213 2.675160 15.000000 20 366.274720
-0.034897 1.611746 2.208704 23.000000 18 366.274723
-0.039430 1.821257 2.053133 22.000000 16 366.274725
-0.065074 2.681497 2.715671 12.000000 15 366.274683
-0.067220 2.770059 2.315816 16.000000 13 366.274686
-0.067126 2.786210 1.911862 15.000000 11 366.274688
-0.068001 2.822664 1.563899 17.000000 9 366.274691
-0.068077 2.846462 1.238693 20.000000 7 366.274693
-0.038609 1.626167 0.567760 76.000000 5 366.274696
-0.038826 1.635312 0.402035 77.000000 3 366.274698
-0.044935 1.906619 0.263830 12.000000 1 366.274701
-0.062443 2.751301 2.531384 16.000000 14 366.274709
-0.063247 2.786828 2.113278 18.000000 12 366.274711
-0.062939 2.794773 1.727685 17.000000 10 366.274714
-0.064194 2.850583 1.405553 19.000000 8 366.274716
-0.036515 1.634124 0.657711 77.000000 6 366.274719
-0.036311 1.637776 0.485824 82.000000 4 366.274721
-0.063595 2.891251 0.495053 19.000000 2 366.274724
-0.042065 1.927715 0.171456 11.000000 0 366.274727
0.007607 0.046073 3.799129 60.000000 31 366.274737
0.004149 0.867084 5.512636 65.000000 28 366.274740
0.006771 1.141862 5.513287 16.000000 27 366.274742
-0.015629 1.125814 3.644432 90.000000 25 366.274745
-0.029334 1.512899 3.624406 10.000000 23 366.274747
-0.037345 1.909409 3.565701 16.000000 21 366.274750
-0.031378 1.604347 2.429386 19.000000 19 366.274752
-0.032508 1.662249 2.066460 23.000000 17 366.274755
0.012019 0.229520 3.803035 5.000000 30 366.274763
0.017334 0.604984 5.592650 36.000000 29 366.274765
-0.006383 0.934168 3.631729 91.000000 26 366.274768
-0.023218 1.315682 3.632616 90.000000 24 366.274770
-0.031091 1.728321 3.636426 10.000000 22 366.274773
-0.028919 1.592324 2.675160 15.000000 20 366.274775
-0.029271 1.611858 2.208704 23.000000 18 366.274778
-0.033134 1.824773 2.056808 22.000000 16 366.274781
-0.055787 2.685273 2.719175 12.000000 15 366.274738
-0.057470 2.766385 2.312679 16.000000 13 366.274741
-0.057313 2.782247 1.909121 15.000000 11 366.274743
-0.058148 2.822884 1.563899 17.000000 9 366.274746
-0.058046 2.842048 1.236820 20.000000 7 366.274749
-0.032933 1.626292 0.567760 76.000000 5 366.274751
-0.033118 1.635438 0.402035 77.000000 3 366.274754
-0.038279 1.906765 0.263830 12.000000 1 366.274756
-0.052768 2.747769 2.528059 15.000000 14 366.274764
-0.053441 2.782990 2.110335 18.000000 12 366.274767
-0.053101 2.790666 1.725153 17.000000 10 366.274769
-0.054156 2.846252 1.403455 19.000000 8 366.274772
-0.030633 1.624799 0.654426 80.000000 6 366.274774
-0.030412 1.628173 0.483479 82.000000 4 366.274777
-0.053502 2.891456 0.495053 19.000000 2 366.274779
-0.035336 1.927850 0.171456 11.000000 0 366.274782
0.007767 0.046047 3.799129 62.000000 31 366.274793
0.007183 0.867841 5.517575 64.000000 28 366.274795
-0.011699 1.125861 3.644432 90.000000 25 366.274800
-0.024053 1.512993 3.624406 10.000000 23 366.274803
-0.031103 1.935878 3.613976 20.000000 21 366.274805
-0.025733 1.601633 2.425253 19.000000 19 366.274808
-0.026756 1.665558 2.070297 23.000000 17 366.274810
0.012891 0.230632 3.823001 7.000000 30 366.274818
0.019445 0.604919 5.592650 36.000000 29 366.274821
-0.003123 0.934185 3.631729 90.000000 26 366.274823
-0.018650 1.317480 3.637308 92.000000 24 366.274826
-0.025058 1.728419 3.636426 10.000000 22 366.274828
-0.023322 1.589807 2.670894 15.000000 20 366.274831
-0.023600 1.608937 2.204715 23.000000 18 366.274834
-0.026764 1.824878 2.056808 22.000000 16 366.274836
-0.046537 2.692583 2.726184 12.000000 15 366.274794
-0.047746 2.762676 2.309541 14.000000 13 366.274796
-0.047530 2.778249 1.906379 15.000000 11 366.274799
-0.048218 2.818640 1.561581 17.000000 9 366.274801
-0.048125 2.842233 1.236820 20.000000 7 366.274804
-0.027175 1.621601 0.566351 76.000000 5 366.274807
-0.027409 1.635543 0.402035 75.000000 3 366.274809
-0.031540 1.901907 0.263384 12.000000 1 366.274812
-0.043117 2.744202 2.524734 16.000000 14 366.274819
-0.043663 2.779118 2.107392 17.000000 12 366.274822
-0.043293 2.786523 1.722620 17.000000 10 366.274825
-0.044221 2.846424 1.403455 19.000000 8 366.274827
-0.024889 1.620174 0.652783 80.000000 6 366.274830
-0.024729 1.628270 0.483479 80.000000 4 366.274832
-0.043334 2.886673 0.494363 18.000000 2 366.274835
-0.028532 1.922966 0.171255 11.000000 0 366.274837
0.007928 0.046019 3.799129 65.000000 31 366.274848
0.010212 0.867811 5.517575 77.000000 28 366.274851
0.010218 0.800717 3.873385 5.000000 27 366.274853
-0.007769 1.125895 3.644432 90.000000 25 366.274856
-0.018771 1.513067 3.624406 10.000000 23 366.274858
-0.024405 1.940766 3.622753 23.000000 21 366.274861
-0.020106 1.598899 2.421120 19.000000 19 366.274863
-0.020942 1.665641 2.070297 23.000000 17 366.274866
0.013714 0.230875 3.827993 9.000000 30 366.274874
0.021557 0.604848 5.592650 36.000000 29 366.274876
0.000138 0.934190 3.631729 91.000000 26 366.274879
-0.014051 1.317537 3.637308 90.000000 24 366.274881
-0.018699 1.726322 3.631925 10.000000 22 366.274884
-0.017467 1.587274 2.666628 15.000000 20 366.274887
-0.017703 1.609013 2.204715 23.000000 18 366.274889
-0.020112 1.828353 2.060483 23.000000 16 366.274892
-0.037187 2.696295 2.729689 12.000000 15 366.274849
-0.038102 2.762826 2.309541 14.000000 13 366.274852
-0.037774 2.774217 1.903638 15.000000 11 366.274854
-0.038379 2.818791 1.561581 17.000000 9 366.274857
-0.038141 2.837748 1.234947 19.000000 7 366.274860
-0.021515 1.621686 0.566351 74.000000 5 366.274862
-0.021350 1.630721 0.401102 77.000000 3 366.274865
-0.024569 1.902010 0.263384 13.000000 1 366.274867
-0.033014 2.740608 2.521409 15.000000 14 366.274875
-0.033428 2.775218 2.104449 17.000000 12 366.274878
-0.033028 2.782352 1.720088 17.000000 10 366.274880
-0.033734 2.842028 1.401357 19.000000 8 366.274883
-0.018950 1.620254 0.652783 80.000000 6 366.274885
-0.018705 1.623489 0.482307 79.000000 4 366.274888
-0.032754 2.886812 0.494363 18.000000 2 366.274890
-0.021820 1.923054 0.171255 11.000000 0 366.274893
0.008097 0.045990 3.799129 65.000000 31 366.274904
0.013393 0.867768 5.517575 79.000000 28 366.274906
0.013067 0.795583 3.848909 5.000000 27 366.274909
-0.003643 1.125916 3.644432 88.000000 25 366.274911
-0.013242 1.515080 3.629009 10.000000 23 366.274914
-0.017313 1.943238 3.627142 26.000000 21 366.274916
-0.014221 1.596148 2.416987 19.000000 19 366.274919
-0.014837 1.665707 2.070297 23.000000 17 366.274921
0.014580 0.231112 3.832984 11.000000 30 366.274929
0.023773 0.604765 5.592650 36.000000 29 366.274932
0.003562 0.934183 3.631729 90.000000 26 366.274934
-0.009222 1.317580 3.637308 90.000000 24 366.274937
-0.012673 1.726377 3.631925 10.000000 22 366.274939
-0.011906 1.584717 2.662362 15.000000 20 366.274942
-0.012064 1.606051 2.200725 23.000000 18 366.274945
-0.013730 1.828412 2.060483 23.000000 16 366.274947
-0.027340 2.699980 2.733193 12.000000 15 366.274905
-0.027936 2.759054 2.306403 15.000000 13 366.274907
-0.027523 2.765975 1.898155 15.000000 11 366.274910
-0.028003 2.814483 1.559263 18.000000 9 366.274913
-0.027695 2.833234 1.233074 20.000000 7 366.274915
-0.015525 1.616956 0.564941 74.000000 5 366.274918
-0.015657 1.630786 0.401102 75.000000 3 366.274920
-0.017930 1.902084 0.263384 14.000000 1 366.274923
-0.023447 2.740706 2.521409 15.000000 14 366.274931
-0.023706 2.771276 2.101505 17.000000 12 366.274933
-0.023316 2.782450 1.720088 17.000000 10 366.274936
-0.023813 2.842129 1.401357 19.000000 8 366.274938
-0.013256 1.615588 0.651140 80.000000 6 366.274941
-0.013037 1.623544 0.482307 80.000000 4 366.274943
-0.022638 2.881957 0.493673 18.000000 2 366.274946
-0.014771 1.923121 0.171255 11.000000 0 366.274948
0.008257 0.045961 3.799129 65.000000 31 366.274959
0.016422 0.867716 5.517575 79.000000 28 366.274962
0.015864 0.796551 3.853804 6.000000 27 366.274964
0.000288 1.125922 3.644432 90.000000 25 366.274967
-0.007954 1.515116 3.629009 10.000000 23 366.274969
-0.010556 1.948078 3.635919 28.000000 21 366.274972
-0.008634 1.593374 2.412854 19.000000 19 366.274974
-0.009023 1.665749 2.070297 23.000000 17 366.274977
0.015345 0.230482 3.823001 11.000000 30 366.274985
0.025884 0.604678 5.592650 36.000000 29 366.274987
0.006823 0.934165 3.631729 91.000000 26 366.274990
-0.004622 1.317604 3.637308 87.000000 24 366.274992
-0.006647 1.726410 3.631925 10.000000 22 366.274995
-0.006374 1.584749 2.662362 15.000000 20 366.274998
-0.006458 1.606083 2.200725 23.000000 18 366.275000
-0.007361 1.831839 2.064158 23.000000 16 366.275003
-0.017939 2.703625 2.736698 12.000000 15 366.274960
-0.018279 2.755242 2.303265 15.000000 13 366.274963
-0.017841 2.761872 1.895413 15.000000 11 366.274965
-0.018178 2.814563 1.559263 18.000000 9 366.274968
-0.017805 2.833313 1.233074 19.000000 7 366.274971
-0.009880 1.617001 0.564941 74.000000 5 366.274973
-0.009935 1.625918 0.400169 73.000000 3 366.274976
-0.011290 1.902135 0.263384 14.000000 1 366.274978
-0.013861 2.737037 2.518085 16.000000 14 366.274986
-0.014012 2.767300 2.098562 17.000000 12 366.274989
-0.013582 2.778203 1.717555 17.000000 10 366.274991
-0.013870 2.837656 1.399259 20.000000 8 366.274994
-0.007616 1.615624 0.651140 80.000000 6 366.274996
-0.007348 1.618719 0.481135 80.000000 4 366.274999
-0.012556 2.877066 0.492984 18.000000 2 366.275001
-0.008037 1.918165 0.171053 11.000000 0 366.275004
0.008418 0.045932 3.799129 65.000000 31 366.275015
0.019450 0.867653 5.517575 80.000000 28 366.275017
0.018694 0.798527 3.863595 6.000000 27 366.275020
0.004218 1.125914 3.644432 90.000000 25 366.275022
-0.002668 1.517089 3.633611 10.000000 23 366.275025
-0.003760 1.950498 3.640308 28.000000 21 366.275027
-0.003072 1.593395 2.412854 19.000000 19 366.275030
-0.003208 1.665770 2.070297 23.000000 17 366.275033
0.016150 0.230427 3.823001 12.000000 30 366.275040
0.027970 0.604051 5.587679 36.000000 29 366.275043
0.010098 0.935393 3.636568 90.000000 26 366.275045
-0.000023 1.317612 3.637308 90.000000 24 366.275048
-0.000621 1.728601 3.636426 10.000000 22 366.275051
-0.000841 1.582154 2.658096 16.000000 20 366.275053
-0.000850 1.603082 2.196736 23.000000 18 366.275056
-0.000967 1.831854 2.064158 23.000000 16 366.275058
-0.008502 2.703671 2.736698 13.000000 15 366.275016
-0.008649 2.751396 2.300128 15.000000 13 366.275018
-0.008188 2.757736 1.892672 15.000000 11 366.275021
-0.008341 2.810179 1.556945 18.000000 9 366.275024
-0.007902 2.828722 1.231201 19.000000 7 366.275026
-0.004223 1.612228 0.563532 76.000000 5 366.275029
-0.004259 1.625943 0.400169 75.000000 3 366.275031
-0.004638 1.897183 0.262937 14.000000 1 366.275034
-0.004301 2.733335 2.514760 15.000000 14 366.275042
-0.004352 2.767332 2.098562 18.000000 12 366.275044
-0.003884 2.778234 1.717555 17.000000 10 366.275047
-0.003958 2.833149 1.397161 20.000000 8 366.275049
-0.001971 1.610919 0.649497 80.000000 6 366.275052
-0.001698 1.618735 0.481135 80.000000 4 366.275054
-0.002509 2.872141 0.492294 20.000000 2 366.275057
-0.001342 1.918181 0.171053 11.000000 0 366.275059
0.008578 0.045902 3.799129 63.000000 31 366.275070
0.022500 0.868357 5.522515 80.000000 28 366.275073
0.021481 0.798456 3.863595 7.000000 27 366.275075
0.008148 1.125893 3.644432 90.000000 25 366.275078
0.002627 1.517089 3.633611 9.000000 23 366.275080
0.003052 1.952896 3.644697 28.000000 21 366.275083
0.002486 1.590582 2.408721 20.000000 19 366.275085
0.002611 1.668977 2.074134 24.000000 17 366.275088
0.016931 0.230081 3.818010 12.000000 30 366.275096
0.030078 0.603949 5.587679 36.000000 29 366.275098
0.013363 0.935353 3.636568 93.000000 26 366.275101
0.004582 1.319330 3.642001 90.000000 24 366.275103
0.005413 1.728593 3.636426 10.000000 22 366.275106
0.004674 1.579539 2.653831 16.000000 20 366.275109
0.004746 1.603075 2.196736 23.000000 18 366.275111
0.005438 1.835236 2.067833 23.000000 16 366.275114
0.000937 2.707250 2.740202 13.000000 15 366.275071
0.000954 2.747517 2.296990 15.000000 13 366.275074
0.001437 2.753567 1.889930 15.000000 11 366.275077
0.001469 2.810192 1.556945 18.000000 9 366.275079
0.001969 2.824096 1.229328 19.000000 7 366.275082
0.001404 1.612233 0.563532 76.000000 5 366.275084
0.001412 1.621036 0.399237 73.000000 3 366.275087
0.001984 1.897188 0.262937 13.000000 1 366.275089
0.005233 2.729599 2.511435 15.000000 14 366.275097
0.005300 2.763288 2.095619 18.000000 12 366.275100
0.005805 2.773919 1.715023 17.000000 10 366.275102
0.005922 2.828607 1.395062 20.000000 8 366.275105
0.003652 1.610916 0.649497 80.000000 6 366.275107
0.003953 1.618731 0.481135 80.000000 4 366.275110
0.007504 2.867180 0.491604 19.000000 2 366.275112
0.005340 1.913179 0.170852 11.000000 0 366.275115
0.008738 0.045872 3.799129 63.000000 31 366.275126
0.025554 0.869050 5.527454 83.000000 28 366.275128
0.024268 0.798377 3.863595 7.000000 27 366.275131
0.012078 1.125857 3.644432 90.000000 25 366.275133
0.007933 1.519024 3.638214 9.000000 23 366.275136
0.009869 1.952873 3.644697 28.000000 21 366.275138
0.008038 1.590564 2.408721 20.000000 19 366.275141
0.008437 1.668958 2.074134 23.000000 17 366.275144
0.017711 0.229732 3.813018 12.000000 30 366.275151
0.032186 0.603841 5.587679 37.000000 29 366.275154
0.016651 0.936558 3.641407 94.000000 26 366.275156
0.009188 1.319306 3.642001 90.000000 24 366.275159
0.011461 1.730741 3.640927 10.000000 22 366.275162
0.010187 1.579513 2.653831 16.000000 20 366.275164
0.010322 1.600035 2.192746 23.000000 18 366.275167
0.011844 1.835206 2.067833 22.000000 16 366.275169
0.010374 2.703664 2.736698 14.000000 15 366.275127
0.010545 2.747497 2.296990 15.000000 13 366.275129
0.011032 2.749364 1.887189 15.000000 11 366.275132
0.011260 2.805739 1.554627 18.000000 9 366.275135
0.011808 2.819437 1.227455 19.000000 7 366.275137
0.007032 1.612218 0.563532 76.000000 5 366.275140
0.007071 1.621021 0.399237 73.000000 3 366.275142
0.008607 1.897169 0.262937 12.000000 1 366.275145
0.014741 2.725829 2.508110 16.000000 14 366.275153
0.014946 2.763253 2.095619 18.000000 12 366.275155
0.015487 2.773882 1.715023 17.000000 10 366.275158
0.015795 2.828569 1.395062 21.000000 8 366.275160
0.009276 1.610893 0.649497 80.000000 6 366.275163
0.009574 1.613847 0.479962 80.000000 4 366.275165
0.017482 2.862184 0.490914 19.000000 2 366.275168
0.012018 1.913148 0.170852 11.000000 0 366.275171
0.008898 0.045841 3.799129 58.000000 31 366.275181
0.028587 0.868955 5.527454 84.000000 28 366.275184
0.027090 0.799305 3.868490 8.000000 27 366.275186
0.016008 1.125808 3.644432 90.000000 25 366.275189
0.013235 1.518987 3.638214 10.000000 23 366.275191
0.016706 1.955222 3.649085 26.000000 21 366.275194
0.013566 1.587712 2.404588 20.000000 19 366.275197
0.014263 1.668918 2.074134 23.000000 17 366.275199
0.018512 0.229668 3.813018 13.000000 30 366.275207
0.034324 0.604258 5.592650 36.000000 29 366.275209
0.019920 0.936494 3.641407 94.000000 26 366.275212
0.013793 1.319266 3.642001 90.000000 24 366.275215
0.017502 1.730690 3.640927 10.000000 22 366.275217
0.015675 1.576860 2.649565 16.000000 20 366.275220
0.015878 1.596976 2.188757 23.000000 18 366.275222
0.018283 1.838544 2.071509 21.000000 16 366.275225
0.019811 2.703612 2.736698 14.000000 15 366.275182
0.020106 2.743551 2.293852 15.000000 13 366.275185
0.020629 2.749308 1.887189 15.000000 11 366.275188
0.021021 2.801253 1.552309 18.000000 9 366.275190
0.021614 2.814742 1.225582 20.000000 7 366.275193
0.012660 1.612184 0.563532 76.000000 5 366.275195
0.012729 1.620987 0.399237 73.000000 3 366.275198
0.015189 1.892148 0.262491 12.000000 1 366.275200
0.024222 2.722027 2.504785 15.000000 14 366.275208
0.024555 2.759142 2.092676 19.000000 12 366.275211
0.025131 2.769500 1.712490 17.000000 10 366.275213
0.025628 2.823958 1.392964 19.000000 8 366.275216
0.014899 1.610851 0.649497 80.000000 6 366.275218
0.015208 1.613804 0.479962 80.000000 4 366.275221
0.027425 2.857154 0.490224 18.000000 2 366.275223
0.018647 1.908099 0.170650 11.000000 0 366.275226
0.009058 0.045810 3.799129 58.000000 31 366.275237
0.031649 0.869627 5.532393 86.000000 28 366.275239
0.029879 0.799205 3.868490 8.000000 27 366.275242
0.019964 1.127239 3.649204 90.000000 25 366.275244
0.018538 1.518932 3.638214 10.000000 23 366.275247
0.023531 1.955152 3.649085 26.000000 21 366.275249
0.019074 1.584841 2.400455 20.000000 19 366.275252
0.020088 1.668858 2.074134 23.000000 17 366.275255
0.019314 0.229602 3.813018 14.000000 30 366.275262
0.036433 0.604134 5.592650 36.000000 29 366.275265
0.023220 0.937676 3.646246 95.000000 26 366.275267
0.018398 1.319210 3.642001 90.000000 24 366.275270
0.023543 1.730618 3.640927 10.000000 22 366.275273
0.021144 1.574188 2.645299 16.000000 20 366.275275
0.021452 1.596910 2.188757 23.000000 18 366.275278
0.024701 1.838469 2.071509 21.000000 16 366.275280
0.029210 2.699960 2.733193 13.000000 15 366.275238
0.029683 2.743464 2.293852 16.000000 13 366.275241
0.030179 2.745038 1.884447 15.000000 11 366.275243
0.030750 2.796732 1.549991 18.000000 9 366.275246
0.031387 2.810014 1.223709 20.000000 7 366.275248
0.018287 1.612130 0.563532 74.000000 5 366.275251
0.018331 1.616020 0.398304 71.000000 3 366.275253
0.021794 1.892083 0.262491 11.000000 1 366.275256
0.033677 2.718192 2.501460 15.000000 14 366.275264
0.034186 2.759040 2.092676 19.000000 12 366.275266
0.034744 2.765085 1.709958 17.000000 10 366.275269
0.035428 2.819313 1.390866 19.000000 8 366.275271
0.020461 1.606067 0.647855 80.000000 6 366.275274
0.020841 1.613741 0.479962 80.000000 4 366.275276
0.037333 2.852089 0.489534 18.000000 2 366.275279
0.025308 1.908022 0.170650 10.000000 0 366.275282
0.009218 0.045778 3.799129 52.000000 31 366.275292
0.034684 0.869511 5.532393 86.000000 28 366.275295
0.032669 0.799096 3.868490 8.000000 27 366.275297
0.023899 1.127162 3.649204 90.000000 25 366.275300
0.023840 1.518858 3.638214 10.000000 23 366.275302
0.030393 1.957453 3.653474 23.000000 21 366.275305
0.024606 1.584765 2.400455 20.000000 19 366.275308
0.025963 1.671984 2.077971 23.000000 17 366.275310
0.020115 0.229534 3.813018 15.000000 30 366.275318
0.038577 0.604536 5.597622 37.000000 29 366.275320
0.026493 0.937589 3.646246 95.000000 26 366.275323
0.023002 1.319138 3.642001 90.000000 24 366.275326
0.029621 1.732703 3.645428 10.000000 22 366.275328
0.026639 1.574105 2.645299 16.000000 20 366.275331
0.026975 1.593812 2.184767 23.000000 18 366.275333
0.031176 1.841761 2.075184 21.000000 16 366.275336
0.038583 2.696276 2.729689 13.000000 15 366.275293
0.039204 2.739451 2.290714 16.000000 13 366.275296
0.039761 2.744916 1.884447 15.000000 11 366.275299
0.040448 2.792178 1.547673 18.000000 9 366.275301
0.041195 2.809887 1.223709 19.000000 7 366.275304
0.023843 1.607260 0.562123 74.000000 5 366.275306
0.023972 1.615946 0.398304 71.000000 3 366.275309
0.028398 1.891996 0.262491 11.000000 1 366.275311
0.043106 2.714324 2.498135 15.000000 14 366.275319
0.043753 2.754862 2.089733 19.000000 12 366.275322
0.044395 2.764946 1.709958 17.000000 10 366.275324
0.045196 2.814635 1.388768 19.000000 8 366.275327
0.026067 1.605986 0.647855 80.000000 6 366.275329
0.026394 1.608798 0.478790 80.000000 4 366.275332
0.047289 2.851941 0.489534 18.000000 2 366.275335
0.031968 1.907922 0.170650 10.000000 0 366.275337
0.009378 0.045746 3.799129 52.000000 31 366.275348
0.037753 0.870161 5.537333 87.000000 28 366.275350
0.035458 0.798977 3.868490 8.000000 27 366.275353
0.027833 1.127072 3.649204 90.000000 25 366.275355
0.029141 1.518765 3.638214 10.000000 23 366.275358
0.037226 1.957335 3.653474 19.000000 21 366.275361
0.030084 1.581856 2.396322 21.000000 19 366.275363
0.031800 1.671883 2.077971 23.000000 17 366.275366
0.020916 0.229462 3.813018 16.000000 30 366.275373
0.040687 0.604398 5.597622 37.000000 29 366.275376
0.029765 0.937491 3.646246 95.000000 26 366.275379
0.027607 1.319049 3.642001 89.000000 24 366.275381
0.035670 1.732589 3.645428 10.000000 22 366.275384
0.032133 1.574002 2.645299 16.000000 20 366.275386
0.032477 1.590695 2.180778 23.000000 18 366.275389
0.037674 1.845030 2.078859 21.000000 16 366.275391
0.047931 2.692559 2.726184 13.000000 15 366.275349
0.048697 2.735405 2.287576 16.000000 13 366.275352
0.049267 2.740580 1.881706 16.000000 11 366.275354
0.050115 2.787590 1.545355 18.000000 9 366.275357
0.050919 2.805091 1.221836 19.000000 7 366.275359
0.029454 1.607167 0.562123 74.000000 5 366.275362
0.029523 1.610941 0.397372 73.000000 3 366.275364
0.035002 1.891885 0.262491 12.000000 1 366.275367
0.052508 2.710423 2.494811 15.000000 14 366.275375
0.053290 2.750651 2.086790 19.000000 12 366.275377
0.053962 2.760465 1.707426 17.000000 10 366.275380
0.054932 2.809922 1.386670 20.000000 8 366.275382
0.031580 1.601164 0.646212 82.000000 6 366.275385
0.032009 1.608696 0.478790 80.000000 4 366.275387
0.057144 2.846807 0.488845 18.000000 2 366.275390
0.038628 1.907799 0.170650 11.000000 0 366.275393
0.009545 0.045711 3.799129 49.000000 31 366.275403
0.040942 0.870016 5.537333 87.000000 28 366.275406
0.038386 0.798842 3.868490 9.000000 27 366.275408
0.031964 1.126963 3.649204 90.000000 25 366.275411
0.034708 1.518648 3.638214 10.000000 23 366.275413
0.044454 1.959581 3.657863 16.000000 21 366.275416
0.035818 1.578922 2.392190 20.000000 19 366.275418
0.038000 1.674960 2.081807 23.000000 17 366.275421
0.021746 0.229676 3.818010 17.000000 30 366.275429
0.042796 0.604252 5.597622 37.000000 29 366.275431
0.033038 0.937382 3.646246 95.000000 26 366.275434
0.032211 1.318945 3.642001 90.000000 24 366.275436
0.042020 1.732447 3.645428 10.000000 22 366.275439
0.037902 1.573874 2.645299 17.000000 20 366.275441
0.038234 1.587552 2.176788 23.000000 18 366.275444
0.044114 1.844887 2.078859 22.000000 16 366.275447
0.057800 2.692365 2.726184 13.000000 15 366.275404
0.058639 2.731316 2.284439 16.000000 13 366.275407
0.059221 2.736200 1.878964 16.000000 11 366.275409
0.060236 2.782959 1.543037 17.000000 9 366.275412
0.060610 2.800261 1.219963 18.000000 7 366.275415
0.034959 1.602258 0.560714 74.000000 5 366.275417
0.035427 1.610822 0.397372 71.000000 3 366.275420
0.042046 1.896723 0.262937 12.000000 1 366.275422
0.062356 2.706479 2.491486 15.000000 14 366.275430
0.063372 2.750437 2.086790 20.000000 12 366.275433
0.063499 2.755949 1.704893 17.000000 10 366.275435
0.064740 2.809713 1.386670 20.000000 8 366.275438
0.037169 1.601044 0.646212 80.000000 6 366.275440
0.037625 1.608575 0.478790 80.000000 4 366.275443
0.067081 2.846591 0.488845 19.000000 2 366.275445
0.045287 1.907653 0.170650 12.000000 0 366.275448
0.009697 0.045679 3.799129 49.000000 31 366.275459
0.043827 0.869876 5.537333 89.000000 28 366.275461
0.041035 0.798710 3.868490 9.000000 27 366.275464
0.035701 1.126850 3.649204 88.000000 25 366.275466
0.039743 1.518525 3.638214 10.000000 23 366.275469
0.050889 1.957028 3.653474 16.000000 21 366.275471
0.041054 1.578794 2.392190 20.000000 19 366.275474
0.043554 1.674825 2.081807 23.000000 17 366.275476
0.022548 0.229598 3.818010 20.000000 30 366.275484
0.044905 0.604099 5.597622 37.000000 29 366.275487
0.036310 0.937261 3.646246 95.000000 26 366.275489
0.036815 1.318824 3.642001 89.000000 24 366.275492
0.048067 1.732290 3.645428 10.000000 22 366.275494
0.043324 1.571125 2.641033 17.000000 20 366.275497
0.043776 1.587409 2.176788 23.000000 18 366.275500
0.050969 1.848102 2.082534 23.000000 16 366.275502
0.066639 2.688594 2.722680 13.000000 15 366.275460
0.067696 2.731107 2.284439 16.000000 13 366.275462
0.068190 2.731809 1.876223 16.000000 11 366.275465
0.069464 2.782744 1.543037 17.000000 9 366.275467
0.070385 2.800033 1.219963 18.000000 7 366.275470
0.040430 1.597330 0.559305 74.000000 5 366.275473
0.040924 1.605778 0.396439 73.000000 3 366.275475
0.048667 1.896564 0.262937 11.000000 1 366.275478
0.071803 2.706245 2.491486 15.000000 14 366.275485
0.072865 2.746159 2.083847 19.000000 12 366.275488
0.073599 2.755698 1.704893 18.000000 10 366.275491
0.074917 2.804920 1.384572 20.000000 8 366.275493
0.042910 1.596176 0.644569 80.000000 6 366.275496
0.043389 1.603567 0.477618 80.000000 4 366.275498
0.077514 2.846326 0.488845 19.000000 2 366.275501
0.051946 1.907483 0.170650 11.000000 0 366.275503
0.009877 0.045685 3.804128 39.000000 31 366.275514
0.047015 0.869709 5.537333 89.000000 28 366.275517
0.043962 0.798554 3.868490 8.000000 27 366.275519
0.039884 1.128205 3.653975 90.000000 25 366.275522
0.045309 1.518369 3.638214 10.000000 23 366.275524
0.058204 1.961618 3.662251 23.000000 21 366.275527
0.046756 1.575820 2.388057 20.000000 19 366.275529
0.049692 1.674654 2.081807 22.000000 17 366.275532
0.023389 0.229514 3.818010 20.000000 30 366.275540
0.047077 0.603398 5.592650 36.000000 29 366.275542
0.039745 0.937121 3.646246 95.000000 26 366.275545
0.041648 1.318681 3.642001 89.000000 24 366.275547
0.054113 1.732111 3.645428 10.000000 22 366.275550
0.048808 1.570964 2.641033 17.000000 20 366.275553
0.049223 1.584234 2.172799 23.000000 18 366.275555
0.057420 1.847913 2.082534 23.000000 16 366.275558
0.076493 2.688331 2.722680 13.000000 15 366.275515
0.077594 2.726949 2.281301 16.000000 13 366.275518
0.078083 2.727361 1.873482 16.000000 11 366.275520
0.079536 2.778042 1.540719 18.000000 9 366.275523
0.080513 2.795122 1.218090 19.000000 7 366.275526
0.046284 1.597171 0.559305 74.000000 5 366.275528
0.046529 1.605626 0.396439 73.000000 3 366.275531
0.055287 1.896383 0.262937 11.000000 1 366.275533
0.081137 2.702245 2.488161 15.000000 14 366.275541
0.082329 2.741848 2.080903 18.000000 12 366.275544
0.083088 2.751115 1.702361 18.000000 10 366.275546
0.084707 2.804642 1.384572 20.000000 8 366.275549
0.048481 1.596016 0.644569 80.000000 6 366.275551
0.048986 1.603406 0.477618 80.000000 4 366.275554
0.087297 2.841088 0.488155 18.000000 2 366.275556
0.058936 1.907280 0.170650 11.000000 0 366.275559
0.010036 0.045650 3.804128 39.000000 31 366.275570
0.050051 0.869540 5.537333 91.000000 28 366.275572
0.046750 0.798396 3.868490 8.000000 27 366.275575
0.043822 1.128059 3.653975 90.000000 25 366.275577
0.050609 1.518201 3.638214 10.000000 23 366.275580
0.064813 1.954219 3.649085 21.000000 21 366.275582
0.052257 1.575647 2.388057 20.000000 19 366.275585
0.055644 1.677674 2.085644 22.000000 17 366.275587
0.024190 0.229431 3.818010 20.000000 30 366.275595
0.049183 0.603230 5.592650 36.000000 29 366.275598
0.043016 0.936977 3.646246 95.000000 26 366.275600
0.046251 1.318527 3.642001 89.000000 24 366.275603
0.060235 1.734088 3.649929 10.000000 22 366.275605
0.054291 1.570784 2.641033 17.000000 20 366.275608
0.054752 1.584053 2.172799 23.000000 18 366.275611
0.063870 1.847701 2.082534 23.000000 16 366.275613
0.085763 2.684483 2.719175 12.000000 15 366.275571
0.086988 2.722771 2.278163 16.000000 13 366.275573
0.087468 2.722893 1.870740 16.000000 11 366.275576
0.089233 2.777747 1.540719 18.000000 9 366.275579
0.090270 2.794824 1.218090 19.000000 7 366.275581
0.051704 1.592205 0.557895 74.000000 5 366.275584
0.051974 1.600544 0.395506 71.000000 3 366.275586
0.061906 1.896178 0.262937 12.000000 1 366.275589
0.090569 2.701946 2.488161 15.000000 14 366.275597
0.091764 2.737504 2.077960 18.000000 12 366.275599
0.092545 2.746499 1.699828 18.000000 10 366.275602
0.094344 2.799793 1.382474 20.000000 8 366.275604
0.053892 1.591118 0.642927 80.000000 6 366.275607
0.054417 1.598367 0.476445 80.000000 4 366.275609
0.097214 2.840766 0.488155 18.000000 2 366.275612
0.065594 1.907062 0.170650 12.000000 0 366.275614
0.010196 0.045615 3.804128 47.000000 31 366.275625
0.053133 0.870136 5.542272 87.000000 28 366.275628
0.049473 0.797212 3.863595 9.000000 27 366.275630
0.047759 1.127899 3.653975 90.000000 25 366.275633
0.055908 1.518016 3.638214 10.000000 23 366.275635
0.071283 1.944404 3.631531 18.000000 21 366.275638
0.057653 1.572643 2.383924 20.000000 19 366.275640
0.061500 1.677470 2.085644 22.000000 17 366.275643
0.025023 0.229633 3.823001 21.000000 30 366.275651
0.051288 0.603055 5.592650 35.000000 29 366.275653
0.046286 0.936821 3.646246 95.000000 26 366.275656
0.050920 1.320082 3.646694 90.000000 24 366.275658
0.066287 1.733867 3.649929 10.000000 22 366.275661
0.059774 1.570585 2.641033 17.000000 20 366.275664
0.060281 1.583852 2.172799 23.000000 18 366.275666
0.070448 1.850855 2.086209 22.000000 16 366.275669
0.095133 2.684167 2.719175 12.000000 15 366.275626
0.096354 2.718560 2.275025 16.000000 13 366.275629
0.096972 2.722571 1.870740 16.000000 11 366.275631
0.098771 2.772992 1.538401 18.000000 9 366.275634
0.099859 2.789859 1.216217 19.000000 7 366.275637
0.057261 1.592015 0.557895 74.000000 5 366.275639
0.057561 1.600353 0.395506 73.000000 3 366.275642
0.068525 1.895951 0.262937 13.000000 1 366.275644
0.099862 2.697881 2.484836 15.000000 14 366.275652
0.101319 2.737167 2.077960 18.000000 12 366.275655
0.102132 2.746159 1.699828 18.000000 10 366.275657
0.103948 2.794911 1.380376 21.000000 8 366.275660
0.059446 1.590920 0.642927 80.000000 6 366.275662
0.059996 1.598168 0.476445 80.000000 4 366.275665
0.106942 2.835461 0.487465 18.000000 2 366.275667
0.072250 1.906822 0.170650 12.000000 0 366.275670
0.010342 0.045538 3.799129 47.000000 31 366.275681
0.056170 0.869945 5.542272 87.000000 28 366.275683
0.052255 0.797034 3.863595 9.000000 27 366.275686
0.051627 1.126233 3.649204 88.000000 25 366.275688
0.061285 1.519763 3.642816 10.000000 23 366.275691
0.076820 1.913024 3.574478 16.000000 21 366.275693
0.063030 1.569621 2.379791 20.000000 19 366.275696
0.067355 1.677245 2.085644 22.000000 17 366.275699
0.025825 0.229544 3.823001 21.000000 30 366.275706
0.053393 0.602872 5.592650 35.000000 29 366.275709
0.049556 0.936654 3.646246 95.000000 26 366.275711
0.055528 1.319896 3.646694 89.000000 24 366.275714
0.072339 1.733625 3.649929 10.000000 22 366.275717
0.065256 1.570367 2.641033 17.000000 20 366.275719
0.065685 1.580620 2.168809 23.000000 18 366.275722
0.076908 1.850598 2.086209 22.000000 16 366.275724
0.104363 2.680256 2.715671 13.000000 15 366.275682
0.105692 2.714317 2.271888 15.000000 13 366.275684
0.106312 2.718037 1.867999 15.000000 11 366.275687
0.108277 2.768203 1.536083 18.000000 9 366.275690
0.109597 2.789493 1.216217 19.000000 7 366.275692
0.062818 1.591805 0.557895 76.000000 5 366.275695
0.062953 1.595233 0.394574 71.000000 3 366.275697
0.075142 1.895700 0.262937 13.000000 1 366.275700
0.109279 2.697516 2.484836 15.000000 14 366.275708
0.110709 2.732758 2.075017 18.000000 12 366.275710
0.111542 2.741478 1.697296 18.000000 10 366.275713
0.113518 2.789996 1.378278 21.000000 8 366.275715
0.064999 1.590703 0.642927 80.000000 6 366.275718
0.065574 1.597949 0.476445 80.000000 4 366.275720
0.116839 2.835070 0.487465 18.000000 2 366.275723
0.078906 1.906558 0.170650 12.000000 0 366.275725
0.010501 0.045501 3.799129 48.000000 31 366.275736
0.059207 0.869743 5.542272 95.000000 28 366.275739
0.055037 0.796847 3.863595 8.000000 27 366.275741
0.055558 1.126046 3.649204 88.000000 25 366.275744
0.066590 1.519540 3.642816 10.000000 23 366.275746
0.082034 1.879235 3.513037 14.000000 21 366.275749
0.068508 1.569391 2.379791 21.000000 19 366.275751
0.073209 1.677000 2.085644 22.000000 17 366.275754
0.026661 0.229740 3.827993 23.000000 30 366.275762
0.055497 0.602682 5.592650 37.000000 29 366.275764
0.052825 0.936475 3.646246 95.000000 26 366.275767
0.060135 1.319694 3.646694 89.000000 24 366.275769
0.078390 1.733362 3.649929 10.000000 22 366.275772
0.070620 1.567524 2.636767 17.000000 20 366.275775
0.071202 1.580382 2.168809 24.000000 18 366.275777
0.083520 1.853705 2.089884 23.000000 16 366.275780
0.113567 2.676312 2.712166 13.000000 15 366.275737
0.115166 2.713932 2.271888 15.000000 13 366.275740
0.115799 2.717649 1.867999 15.000000 11 366.275743
0.117939 2.767808 1.536083 18.000000 9 366.275745
0.119135 2.784462 1.214344 19.000000 7 366.275748
0.068374 1.591576 0.557895 76.000000 5 366.275750
0.068521 1.595004 0.394574 69.000000 3 366.275753
0.081545 1.890451 0.262491 12.000000 1 366.275755
0.118530 2.693388 2.481511 15.000000 14 366.275763
0.120070 2.728317 2.072074 18.000000 12 366.275766
0.120920 2.736765 1.694763 18.000000 10 366.275768
0.123056 2.785049 1.376180 21.000000 8 366.275771
0.070936 1.592854 0.475273 80.000000 4 366.275776
0.126514 2.829698 0.486775 18.000000 2 366.275778
0.085561 1.906271 0.170650 12.000000 0 366.275781
0.010659 0.045464 3.799129 48.000000 31 366.275792
0.062242 0.869531 5.542272 94.000000 28 366.275794
0.057818 0.796650 3.863595 8.000000 27 366.275797
0.059489 1.125845 3.649204 88.000000 25 366.275799
0.071893 1.519298 3.642816 10.000000 23 366.275802
0.087013 1.845434 3.451596 13.000000 21 366.275804
0.073853 1.566332 2.375658 21.000000 19 366.275807
0.079213 1.679936 2.089481 22.000000 17 366.275810
0.027498 0.229933 3.832984 24.000000 30 366.275817
0.057600 0.602485 5.592650 37.000000 29 366.275820
0.056094 0.936285 3.646246 95.000000 26 366.275822
0.064741 1.319476 3.646694 89.000000 24 366.275825
0.084440 1.733078 3.649929 10.000000 22 366.275828
0.076091 1.567268 2.636767 17.000000 20 366.275830
0.076572 1.577113 2.164820 24.000000 18 366.275833
0.089990 1.853402 2.089884 23.000000 16 366.275835
0.122908 2.675899 2.712166 13.000000 15 366.275793
0.124460 2.709624 2.268750 16.000000 13 366.275795
0.125092 2.713052 1.865257 16.000000 11 366.275798
0.127395 2.762954 1.533765 18.000000 9 366.275801
0.128640 2.779398 1.212471 19.000000 7 366.275803
0.073707 1.586536 0.556486 76.000000 5 366.275806
0.074088 1.594755 0.394574 69.000000 3 366.275808
0.088143 1.890155 0.262491 12.000000 1 366.275811
0.127931 2.692957 2.481511 16.000000 14 366.275819
0.129593 2.727881 2.072074 19.000000 12 366.275821
0.130473 2.736327 1.694763 18.000000 10 366.275824
0.132777 2.784602 1.376180 21.000000 8 366.275826
0.132992 2.778908 1.056883 18.000000 6 366.275829
0.076495 1.592597 0.475273 80.000000 4 366.275831
0.136629 2.834185 0.487465 18.000000 2 366.275834
0.092214 1.905961 0.170650 12.000000 0 366.275837
0.010818 0.045427 3.799129 48.000000 31 366.275847
0.065218 0.868534 5.537333 94.000000 28 366.275850
0.060521 0.795428 3.858700 9.000000 27 366.275852
0.063502 1.127122 3.653975 87.000000 25 366.275855
0.077097 1.517087 3.638214 10.000000 23 366.275857
0.091636 1.809229 3.385766 12.000000 21 366.275860
0.079321 1.566064 2.375658 21.000000 19 366.275863
0.085077 1.679649 2.089481 23.000000 17 366.275865
0.028338 0.230123 3.837976 25.000000 30 366.275873
0.059703 0.602280 5.592650 37.000000 29 366.275875
0.059441 0.937339 3.651086 95.000000 26 366.275878
0.069346 1.319242 3.646694 89.000000 24 366.275881
0.090489 1.732773 3.649929 10.000000 22 366.275883
0.081426 1.564388 2.632501 17.000000 20 366.275886
0.082076 1.576836 2.164820 24.000000 18 366.275888
0.096459 1.853076 2.089884 23.000000 16 366.275891
0.132072 2.671892 2.708662 13.000000 15 366.275848
0.133917 2.709173 2.268750 16.000000 13 366.275851
0.134561 2.712599 1.865257 16.000000 11 366.275854
0.136820 2.758068 1.531446 18.000000 9 366.275856
0.138341 2.778932 1.212471 20.000000 7 366.275859
0.079244 1.586269 0.556486 76.000000 5 366.275861
0.079410 1.589581 0.393641 71.000000 3 366.275864
0.094740 1.889835 0.262491 12.000000 1 366.275866
0.137140 2.688765 2.478186 16.000000 14 366.275874
0.138908 2.723375 2.069131 18.000000 12 366.275877
0.139803 2.731549 1.692231 18.000000 10 366.275879
0.142265 2.779590 1.374082 21.000000 8 366.275882
0.143660 2.797292 1.063454 21.000000 6 366.275884
0.082054 1.592320 0.475273 80.000000 4 366.275887
0.146010 2.823800 0.486085 19.000000 2 366.275889
0.098608 1.900638 0.170449 11.000000 0 366.275892
0.010976 0.045389 3.799129 48.000000 31 366.275903
0.068250 0.868301 5.537333 87.000000 28 366.275905
0.063297 0.795212 3.858700 9.000000 27 366.275908
0.067436 1.126893 3.653975 87.000000 25 366.275910
0.082392 1.516809 3.638214 10.000000 23 366.275913
0.096267 1.777799 3.328713 12.000000 21 366.275915
0.084634 1.562968 2.371525 21.000000 19 366.275918
0.091113 1.682543 2.093318 23.000000 17 366.275921
0.029141 0.230023 3.837976 27.000000 30 366.275928
0.061805 0.602068 5.592650 37.000000 29 366.275931
0.062713 0.937125 3.651086 95.000000 26 366.275933
0.073951 1.318992 3.646694 89.000000 24 366.275936
0.096537 1.732446 3.649929 10.000000 22 366.275939
0.086886 1.564095 2.632501 17.000000 20 366.275941
0.087413 1.573531 2.160830 23.000000 18 366.275944
0.102927 1.852728 2.089884 22.000000 16 366.275946
0.141209 2.667853 2.705157 13.000000 15 366.275904
0.143168 2.704802 2.265612 16.000000 13 366.275907
0.144029 2.712112 1.865257 16.000000 11 366.275909
0.146446 2.757574 1.531446 18.000000 9 366.275912
0.147794 2.773803 1.210598 20.000000 7 366.275914
0.085037 1.590773 0.557895 62.000000 5 366.275917
0.084958 1.589294 0.393641 71.000000 3 366.275919
0.101070 1.884520 0.262045 12.000000 1 366.275922
0.146525 2.688270 2.478186 16.000000 14 366.275930
0.148194 2.718838 2.066188 19.000000 12 366.275932
0.149102 2.726739 1.689699 18.000000 10 366.275935
0.151718 2.774544 1.371984 20.000000 8 366.275937
0.153165 2.792058 1.061811 22.000000 6 366.275940
0.087345 1.587171 0.474101 80.000000 4 366.275942
0.155047 2.808439 0.484016 18.000000 2 366.275945
0.105242 1.900282 0.170449 10.000000 0 366.275948
0.011121 0.045309 3.794129 49.000000 31 366.275958
0.071216 0.867283 5.532393 82.000000 28 366.275961
0.066072 0.794986 3.858700 9.000000 27 366.275963
0.071370 1.126651 3.653975 88.000000 25 366.275966
0.087686 1.516512 3.638214 9.000000 23 366.275968
0.101231 1.755926 3.289215 12.000000 21 366.275971
0.090090 1.562663 2.371525 21.000000 19 366.275974
0.096986 1.682215 2.093318 23.000000 17 366.275976
0.029943 0.229919 3.837976 27.000000 30 366.275984
0.063963 0.602379 5.597622 38.000000 29 366.275986
0.065984 0.936901 3.651086 96.000000 26 366.275989
0.078555 1.318726 3.646694 89.000000 24 366.275992
0.102584 1.732099 3.649929 10.000000 22 366.275994
0.092191 1.561178 2.628235 17.000000 20 366.275997
0.092905 1.573216 2.160830 23.000000 18 366.275999
0.109594 1.855742 2.093560 22.000000 16 366.276002
0.150320 2.663784 2.701653 13.000000 15 366.275959
0.152389 2.700399 2.262474 16.000000 13 366.275962
0.153259 2.707418 1.862516 16.000000 11 366.275965
0.155821 2.752623 1.529129 18.000000 9 366.275967
0.157212 2.768642 1.208724 20.000000 7 366.275970
0.157973 2.773484 0.905967 18.000000 5 366.275972
0.090226 1.584083 0.392708 71.000000 3 366.275975
0.107647 1.884156 0.262045 12.000000 1 366.275977
0.155692 2.684014 2.474861 16.000000 14 366.275985
0.157449 2.714269 2.063245 19.000000 12 366.275988
0.158619 2.726202 1.689699 19.000000 10 366.275990
0.161402 2.773998 1.371984 20.000000 8 366.275993
0.162360 2.782078 1.058526 22.000000 6 366.275995
0.092600 1.582004 0.472929 80.000000 4 366.275998
0.164559 2.802937 0.483326 17.000000 2 366.276001
0.111581 1.894916 0.170247 10.000000 0 366.276003
0.011279 0.045270 3.794129 48.000000 31 366.276014
0.074243 0.867029 5.532393 81.000000 28 366.276016
0.068759 0.793736 3.853804 9.000000 27 366.276019
0.075302 1.126395 3.653975 88.000000 25 366.276021
0.092980 1.516196 3.638214 9.000000 23 366.276024
0.106336 1.738823 3.258495 13.000000 21 366.276027
0.095372 1.559530 2.367392 22.000000 19 366.276029
0.103053 1.685066 2.097155 22.000000 17 366.276032
0.030706 0.229527 3.832984 29.000000 30 366.276039
0.066066 0.602152 5.597622 38.000000 29 366.276042
0.069254 0.936665 3.651086 96.000000 26 366.276045
0.083266 1.320166 3.651387 89.000000 24 366.276047
0.108630 1.731730 3.649929 10.000000 22 366.276050
0.097477 1.558244 2.623969 17.000000 20 366.276052
0.098208 1.569874 2.156841 23.000000 18 366.276055
0.116071 1.855348 2.093560 22.000000 16 366.276057
0.159617 2.663243 2.701653 14.000000 15 366.276015
0.161581 2.695965 2.259336 16.000000 13 366.276018
0.162709 2.706867 1.862516 15.000000 11 366.276020
0.165162 2.747640 1.526810 18.000000 9 366.276023
0.166597 2.763449 1.206852 19.000000 7 366.276025
0.168232 2.782493 0.908785 19.000000 5 366.276028
0.095754 1.583759 0.392708 69.000000 3 366.276030
0.114224 1.883769 0.262045 12.000000 1 366.276033
0.164830 2.679727 2.471536 16.000000 14 366.276041
0.166675 2.709668 2.060301 18.000000 12 366.276043
0.167869 2.721329 1.687166 18.000000 10 366.276046
0.170805 2.768888 1.369886 20.000000 8 366.276048
0.172070 2.781494 1.058526 22.000000 6 366.276051
0.098423 1.586522 0.474101 80.000000 4 366.276053
0.157429 2.530501 0.445386 5.000000 2 366.276056
0.118194 1.894515 0.170247 11.000000 0 366.276059
0.011445 0.045228 3.794129 46.000000 31 366.276070
0.077351 0.865978 5.527454 81.000000 28 366.276073
0.071667 0.793479 3.853804 9.000000 27 366.276075
0.079430 1.126112 3.653975 88.000000 25 366.276078
0.098663 1.517795 3.642816 10.000000 23 366.276080
0.112243 1.731249 3.245329 12.000000 21 366.276083
0.101087 1.559170 2.367392 22.000000 19 366.276085
0.109228 1.684677 2.097155 22.000000 17 366.276088
0.031506 0.229126 3.827993 30.000000 30 366.276096
0.068333 0.602437 5.602593 39.000000 29 366.276098
0.072686 0.936405 3.651086 96.000000 26 366.276101
0.088104 1.319852 3.651387 87.000000 24 366.276103
0.114976 1.731320 3.649929 10.000000 22 366.276106
0.103016 1.555274 2.619703 17.000000 20 366.276108
0.103961 1.569504 2.156841 24.000000 18 366.276111
0.122870 1.854910 2.093560 21.000000 16 366.276114
0.169151 2.659081 2.698148 14.000000 15 366.276071
0.171461 2.695355 2.259336 16.000000 13 366.276074
0.172363 2.702079 1.859774 15.000000 11 366.276076
0.174950 2.742594 1.524493 18.000000 9 366.276079
0.176428 2.758193 1.204978 19.000000 7 366.276082
0.178429 2.781857 0.908785 19.000000 5 366.276084
0.101244 1.578495 0.391776 71.000000 3 366.276087
0.120808 1.878368 0.261599 12.000000 1 366.276089
0.174408 2.675378 2.468212 15.000000 14 366.276097
0.176342 2.705006 2.057358 18.000000 12 366.276100
0.177561 2.716393 1.684634 18.000000 10 366.276102
0.180656 2.763714 1.367788 20.000000 8 366.276105
0.181955 2.776132 1.056883 22.000000 6 366.276107
0.153027 2.322365 0.416414 5.000000 2 366.276112
0.125137 1.894069 0.170247 11.000000 0 366.276115
0.011617 0.045229 3.799129 46.000000 31 366.276126
0.080446 0.866476 5.532393 85.000000 28 366.276128
0.074437 0.793224 3.853804 9.000000 27 366.276131
0.083360 1.125827 3.653975 90.000000 25 366.276133
0.103960 1.517442 3.642816 10.000000 23 366.276136
0.118285 1.730847 3.245329 12.000000 21 366.276138
0.106529 1.558808 2.367392 21.000000 19 366.276141
0.115108 1.684286 2.097155 22.000000 17 366.276143
0.032264 0.228728 3.823001 32.000000 30 366.276151
0.070436 0.602194 5.602593 39.000000 29 366.276154
0.075954 0.936145 3.651086 95.000000 26 366.276156
0.092711 1.319536 3.651387 89.000000 24 366.276159
0.121171 1.733081 3.654430 10.000000 22 366.276161
0.108444 1.554905 2.619703 17.000000 20 366.276164
0.109229 1.566125 2.152851 24.000000 18 366.276167
0.129580 1.857852 2.097235 21.000000 16 366.276169
0.178193 2.654916 2.694643 13.000000 15 366.276127
0.180608 2.690856 2.256199 16.000000 13 366.276129
0.181794 2.701461 1.859774 16.000000 11 366.276132
0.184522 2.741967 1.524493 18.000000 9 366.276134
0.185743 2.752935 1.203105 19.000000 7 366.276137
0.187815 2.776432 0.907376 19.000000 5 366.276140
0.106754 1.578132 0.391776 71.000000 3 366.276142
0.127364 1.877935 0.261599 12.000000 1 366.276145
0.183490 2.671028 2.464887 15.000000 14 366.276152
0.185783 2.704374 2.057358 17.000000 12 366.276155
0.186745 2.711456 1.682101 18.000000 10 366.276158
0.190302 2.763067 1.367788 20.000000 8 366.276160
0.191644 2.775480 1.056883 22.000000 6 366.276163
0.146047 2.104444 0.386062 15.000000 2 366.276168
0.131748 1.893620 0.170247 11.000000 0 366.276170
0.011775 0.045188 3.799129 48.000000 31 366.276181
0.083470 0.866190 5.532393 85.000000 28 366.276184
0.077106 0.791946 3.848909 10.000000 27 366.276186
