# .PCD v.7 - Point Cloud Data file format
VERSION .7
FIELDS x y z intensity ring timestamp
SIZE 4 4 4 4 2 8
TYPE F F F F U D
COUNT 1 1 1 1 1 1
WIDTH 924
HEIGHT 1
VIEWPOINT 0 0 0 1 0 0 0
POINTS 924
DATA ascii
-1.746181 0.438600 2.231448 32.000000 17 367.253575
-0.183714 0.060276 3.174092 28.000000 30 367.253583
-0.326375 0.098587 3.131802 66.000000 29 367.253586
-0.740153 0.195916 2.983275 95.000000 26 367.253588
-1.598493 0.404754 4.538320 38.000000 24 367.253591
-2.032669 0.513948 4.397068 95.000000 22 367.253593
-2.492276 0.629704 4.274886 90.000000 20 367.253596
-1.758789 0.444378 2.476000 32.000000 18 367.253599
-1.733312 0.437944 2.016381 35.000000 16 367.253601
-1.737306 0.434118 1.839534 31.000000 15 367.253559
-2.159475 0.539613 1.876528 9.000000 13 367.253561
-2.476597 0.619316 1.758340 15.000000 11 367.253564
-3.551432 0.888103 2.002006 92.000000 9 367.253566
-5.375225 1.346172 1.717663 63.000000 5 367.253572
-5.070050 1.269744 1.083780 21.000000 3 367.253574
-4.361870 1.093196 0.495859 96.000000 1 367.253577
-1.886616 0.474577 1.813217 39.000000 14 367.253584
-2.327018 0.585365 1.830735 17.000000 12 367.253587
-2.911582 0.732955 1.849241 89.000000 10 367.253590
-3.847735 0.968624 1.921674 96.000000 8 367.253592
-7.460345 1.879444 2.765276 44.000000 6 367.253595
-4.595464 1.158562 1.233763 71.000000 4 367.253597
-5.392211 1.360432 0.866864 36.000000 2 367.253600
-4.286627 1.082293 0.272020 2.000000 0 367.253602
-0.036550 0.016264 3.029158 94.000000 31 367.253613
-0.464539 0.130345 3.067703 79.000000 28 367.253616
-0.601201 0.169477 3.026511 74.000000 27 367.253618
-0.877011 0.228826 2.942989 92.000000 25 367.253621
-1.808879 0.461392 4.457463 38.000000 23 367.253623
-2.256872 0.575254 4.333717 78.000000 21 367.253626
-2.727477 0.695212 4.206554 92.000000 19 367.253628
-1.744639 0.444692 2.231448 32.000000 17 367.253631
-0.183503 0.060917 3.174092 27.000000 30 367.253639
-0.326029 0.099725 3.131802 66.000000 29 367.253641
-0.739465 0.198498 2.983275 95.000000 26 367.253644
-1.597071 0.410331 4.538320 38.000000 24 367.253646
-2.030862 0.521040 4.397068 95.000000 22 367.253649
-2.490063 0.638400 4.274886 90.000000 20 367.253652
-1.757227 0.450515 2.476000 32.000000 18 367.253654
-1.731773 0.443991 2.016381 35.000000 16 367.253657
-1.735780 0.440179 1.839534 31.000000 15 367.253614
-2.172672 0.550976 1.889079 10.000000 13 367.253617
-2.474420 0.627958 1.758340 14.000000 11 367.253619
-3.548311 0.900494 2.002006 92.000000 9 367.253622
-5.361195 1.362563 1.714845 62.000000 5 367.253627
-5.065587 1.287434 1.083780 21.000000 3 367.253630
-4.353200 1.107187 0.495413 96.000000 1 367.253632
-1.884948 0.481160 1.813217 39.000000 14 367.253640
-2.328876 0.594484 1.833678 8.000000 12 367.253643
-2.909006 0.743113 1.849241 89.000000 10 367.253645
-3.848727 0.983172 1.923772 96.000000 8 367.253648
-7.719108 1.973313 2.860551 15.000000 6 367.253650
-4.591392 1.174597 1.233763 71.000000 4 367.253653
-5.377834 1.376789 0.865484 42.000000 2 367.253655
-4.273144 1.094770 0.271617 2.000000 0 367.253658
-0.036493 0.016392 3.029158 95.000000 31 367.253669
-0.464828 0.132179 3.072643 78.000000 28 367.253671
-0.600605 0.171574 3.026511 74.000000 27 367.253674
-0.876207 0.231886 2.942989 92.000000 25 367.253676
-1.807257 0.467704 4.457463 37.000000 23 367.253679
-2.254850 0.583128 4.333717 77.000000 21 367.253681
-2.725033 0.704728 4.206554 92.000000 19 367.253684
-1.743076 0.450780 2.231448 32.000000 17 367.253686
-0.183289 0.061557 3.174092 27.000000 30 367.253694
-0.325679 0.100863 3.131802 66.000000 29 367.253697
-0.738767 0.201078 2.983275 93.000000 26 367.253699
-1.595629 0.415904 4.538320 38.000000 24 367.253702
-2.029032 0.528126 4.397068 95.000000 22 367.253704
-2.487819 0.647088 4.274886 92.000000 20 367.253707
-1.755644 0.456646 2.476000 32.000000 18 367.253710
-1.730212 0.450034 2.016381 35.000000 16 367.253712
-1.734233 0.446236 1.839534 32.000000 15 367.253670
-2.178275 0.560497 1.895354 9.000000 13 367.253672
-2.468164 0.635548 1.755598 14.000000 11 367.253675
-3.545146 0.912875 2.002006 92.000000 9 367.253678
-7.475424 1.926315 3.207250 10.000000 7 367.253680
-5.361051 1.382467 1.716254 60.000000 5 367.253683
-4.932633 1.271990 1.058599 6.000000 3 367.253685
-4.349309 1.122376 0.495413 101.000000 1 367.253688
-1.883256 0.487737 1.813217 39.000000 14 367.253696
-2.330700 0.603623 1.836621 2.000000 12 367.253698
-2.906394 0.753263 1.849241 89.000000 10 367.253701
-3.845272 0.996601 1.923772 96.000000 8 367.253703
-7.693887 1.995504 2.853981 7.000000 6 367.253706
-4.606083 1.195501 1.238452 61.000000 4 367.253708
-5.392168 1.400533 0.868243 22.000000 2 367.253711
-4.225780 1.098368 0.269803 6.000000 0 367.253713
-0.036435 0.016519 3.029158 96.000000 31 367.253724
-0.464364 0.133801 3.072643 73.000000 28 367.253727
-0.600003 0.173670 3.026511 74.000000 27 367.253729
-0.875393 0.234943 2.942989 92.000000 25 367.253732
-1.805614 0.474009 4.457463 37.000000 23 367.253734
-2.252801 0.590995 4.333717 77.000000 21 367.253737
-2.722557 0.714236 4.206554 91.000000 19 367.253739
-1.741492 0.456861 2.231448 33.000000 17 367.253742
-0.183073 0.062196 3.174092 27.000000 30 367.253750
-0.325325 0.101999 3.131802 64.000000 29 367.253752
-0.738061 0.203656 2.983275 93.000000 26 367.253755
-1.595836 0.421912 4.543013 38.000000 24 367.253757
-2.027175 0.535206 4.397068 95.000000 22 367.253760
-2.485545 0.655768 4.274886 90.000000 20 367.253763
-1.754039 0.462771 2.476000 32.000000 18 367.253765
-1.728631 0.456071 2.016381 35.000000 16 367.253768
-1.729214 0.451386 1.836029 32.000000 15 367.253725
-2.198905 0.573996 1.914181 8.000000 13 367.253728
-2.465930 0.644160 1.755598 13.000000 11 367.253730
-3.541937 0.925244 2.002006 92.000000 9 367.253733
-7.491080 1.958260 3.216616 110.000000 7 367.253736
-5.351552 1.399958 1.714845 59.000000 5 367.253738
-4.842620 1.266822 1.041812 6.000000 3 367.253741
-4.345365 1.137551 0.495413 100.000000 1 367.253743
-1.881542 0.494308 1.813217 44.000000 14 367.253751
-2.328579 0.611755 1.836621 2.000000 12 367.253754
-2.903747 0.763404 1.849241 89.000000 10 367.253756
-3.841770 1.010017 1.923772 96.000000 8 367.253759
-7.896959 2.077619 2.929544 32.000000 6 367.253761
-4.606582 1.212809 1.239624 60.000000 4 367.253764
-5.387247 1.419347 0.868243 22.000000 2 367.253766
-4.221920 1.113112 0.269803 20.000000 0 367.253769
-0.036377 0.016646 3.029158 96.000000 31 367.253780
-0.463894 0.135421 3.072643 72.000000 28 367.253782
-0.599393 0.175763 3.026511 74.000000 27 367.253785
-0.874567 0.237997 2.942989 92.000000 25 367.253787
-1.803948 0.480309 4.457463 37.000000 23 367.253790
-2.250724 0.598856 4.333717 78.000000 21 367.253792
-2.720047 0.723735 4.206554 91.000000 19 367.253795
-1.739887 0.462937 2.231448 32.000000 17 367.253798
-0.182582 0.062739 3.169101 27.000000 30 367.253805
-0.324967 0.103134 3.131802 65.000000 29 367.253808
-0.737346 0.206231 2.983275 95.000000 26 367.253810
-1.594353 0.427480 4.543013 38.000000 24 367.253813
-2.025200 0.542632 4.397068 95.000000 22 367.253816
-2.483125 0.664874 4.274886 90.000000 20 367.253818
-1.749420 0.468418 2.472011 32.000000 18 367.253821
-1.726948 0.462403 2.016381 35.000000 16 367.253823
-1.727628 0.457419 1.836029 29.000000 15 367.253781
-2.193125 0.580672 1.911043 6.000000 13 367.253783
-2.463667 0.652764 1.755598 11.000000 11 367.253786
-3.538686 0.937602 2.002006 91.000000 9 367.253789
-7.470756 1.980832 3.210997 106.000000 7 367.253791
-5.346632 1.418630 1.714845 59.000000 5 367.253794
-4.724000 1.254308 1.019429 2.000000 3 367.253796
-4.345980 1.154749 0.495859 101.000000 1 367.253799
-1.879718 0.501200 1.813217 46.000000 14 367.253807
-2.322415 0.619244 1.833678 3.000000 12 367.253809
-2.900930 0.774041 1.849241 89.000000 10 367.253812
-3.838042 1.024091 1.923772 93.000000 8 367.253814
-7.880166 2.104113 2.926259 57.000000 6 367.253817
-4.616194 1.233449 1.243141 63.000000 4 367.253819
-5.377224 1.437803 0.867554 33.000000 2 367.253822
-4.218009 1.127842 0.269803 23.000000 0 367.253824
-0.036316 0.016779 3.029158 96.000000 31 367.253835
-0.462650 0.136899 3.067703 79.000000 28 367.253838
-0.598745 0.177959 3.026511 74.000000 27 367.253840
-0.873689 0.241201 2.942989 92.000000 25 367.253843
-1.802175 0.486918 4.457463 37.000000 23 367.253845
-2.248514 0.607101 4.333717 77.000000 21 367.253848
-2.720093 0.734433 4.210687 92.000000 19 367.253850
-1.738178 0.469311 2.231448 32.000000 17 367.253853
-0.182350 0.063408 3.169101 27.000000 30 367.253861
-0.324587 0.104325 3.131802 65.000000 29 367.253863
-0.736585 0.208932 2.983275 95.000000 26 367.253866
-1.592776 0.433321 4.543013 38.000000 24 367.253868
-2.023294 0.549698 4.397068 95.000000 22 367.253871
-2.480789 0.673537 4.274886 90.000000 20 367.253874
-1.747774 0.474521 2.472011 32.000000 18 367.253876
-1.725323 0.468429 2.016381 35.000000 16 367.253879
-1.722496 0.462823 1.832525 29.000000 15 367.253836
-2.190982 0.588706 1.911043 6.000000 13 367.253839
-2.461258 0.661789 1.755598 11.000000 11 367.253842
-3.535226 0.950566 2.002006 92.000000 9 367.253844
-7.467922 2.009405 3.212870 103.000000 7 367.253847
-5.341396 1.438217 1.714845 60.000000 5 367.253849
-4.719592 1.270790 1.019429 2.000000 3 367.253852
-4.341922 1.169912 0.495859 103.000000 1 367.253854
-1.881562 0.508733 1.816541 46.000000 14 367.253862
-2.316338 0.626292 1.830735 26.000000 12 367.253865
-2.898210 0.784163 1.849241 89.000000 10 367.253867
-3.834444 1.037482 1.923772 90.000000 8 367.253870
-7.877331 2.132841 2.927902 56.000000 6 367.253872
-4.616551 1.250826 1.244313 64.000000 4 367.253875
-4.999362 1.355483 0.813748 5.000000 2 367.253877
-4.295814 1.165534 0.273229 71.000000 0 367.253880
-0.036257 0.016906 3.029158 96.000000 31 367.253891
-0.462169 0.138513 3.067703 78.000000 28 367.253893
-0.598120 0.180048 3.026511 74.000000 27 367.253896
-0.872842 0.244249 2.942989 92.000000 25 367.253898
-1.800465 0.493206 4.457463 38.000000 23 367.253901
-2.246382 0.614946 4.333717 78.000000 21 367.253903
-2.717513 0.743924 4.210687 92.000000 19 367.253906
-1.736529 0.475376 2.231448 32.000000 17 367.253909
-0.182128 0.064044 3.169101 28.000000 30 367.253916
-0.324221 0.105457 3.131802 64.000000 29 367.253919
-0.735851 0.211502 2.983275 95.000000 26 367.253921
-1.591254 0.438878 4.543013 38.000000 24 367.253924
-2.021363 0.556757 4.397068 96.000000 22 367.253927
-2.478423 0.682193 4.274886 90.000000 20 367.253929
-1.746107 0.480619 2.472011 32.000000 18 367.253932
-1.723677 0.474448 2.016381 35.000000 16 367.253934
-1.720870 0.468832 1.832525 26.000000 15 367.253892
-2.188914 0.596351 1.911043 5.000000 13 367.253894
-2.454898 0.669277 1.752857 10.000000 11 367.253897
-3.531886 0.962900 2.002006 92.000000 9 367.253900
-7.460862 2.035461 3.212870 102.000000 7 367.253902
-5.322459 1.453063 1.710617 53.000000 5 367.253905
-4.762515 1.300194 1.028755 12.000000 3 367.253907
-4.342616 1.186373 0.496305 95.000000 1 367.253910
-1.879775 0.515298 1.816541 38.000000 14 367.253918
-2.298545 0.630099 1.818962 32.000000 12 367.253920
-2.899613 0.795415 1.851774 88.000000 10 367.253923
-3.830799 1.050861 1.923772 88.000000 8 367.253925
-7.869838 2.160325 2.927902 56.000000 6 367.253928
-4.621531 1.269509 1.246658 64.000000 4 367.253930
-4.994600 1.372926 0.813748 4.000000 2 367.253933
-4.359157 1.199072 0.276051 79.000000 0 367.253936
-0.036198 0.017033 3.029158 97.000000 31 367.253946
-0.461683 0.140126 3.067703 78.000000 28 367.253949
-0.597488 0.182134 3.026511 72.000000 27 367.253951
-0.871984 0.247295 2.942989 90.000000 25 367.253954
-1.798732 0.499487 4.457463 38.000000 23 367.253956
-2.244221 0.622783 4.333717 78.000000 21 367.253959
-2.714900 0.753405 4.210687 92.000000 19 367.253962
-1.734859 0.481435 2.231448 32.000000 17 367.253964
-0.182176 0.064778 3.174092 28.000000 30 367.253972
-0.323850 0.106588 3.131802 63.000000 29 367.253974
-0.735108 0.214069 2.983275 95.000000 26 367.253977
-1.589712 0.444430 4.543013 38.000000 24 367.253980
-2.019407 0.563810 4.397068 96.000000 22 367.253982
-2.476027 0.690840 4.274886 90.000000 20 367.253985
-1.744419 0.486712 2.472011 32.000000 18 367.253987
-1.722011 0.480462 2.016381 35.000000 16 367.253990
-1.719223 0.474836 1.832525 25.000000 15 367.253947
-2.168057 0.598806 1.895354 3.000000 13 367.253950
-2.452547 0.677842 1.752857 10.000000 11 367.253953
-3.532774 0.976403 2.004324 92.000000 9 367.253955
-7.453712 2.061492 3.212870 100.000000 7 367.253958
-5.303484 1.467794 1.706390 27.000000 5 367.253960
-4.757947 1.316811 1.028755 12.000000 3 367.253963
-4.338449 1.201525 0.496305 87.000000 1 367.253965
-1.877964 0.521857 1.816541 19.000000 14 367.253973
-2.304120 0.640283 1.824848 28.000000 12 367.253976
-2.896819 0.805532 1.851774 88.000000 10 367.253978
-3.827108 1.064226 1.923772 86.000000 8 367.253981
-7.862249 2.187783 2.927902 61.000000 6 367.253983
-4.626436 1.288241 1.249003 66.000000 4 367.253986
-5.042253 1.404974 0.821336 17.000000 2 367.253988
-4.436755 1.237092 0.279477 92.000000 0 367.253991
-0.036138 0.017159 3.029158 97.000000 31 367.254002
-0.461191 0.141736 3.067703 78.000000 28 367.254004
-0.596848 0.184219 3.026511 74.000000 27 367.254007
-0.871115 0.250337 2.942989 90.000000 25 367.254009
-1.798858 0.506292 4.462066 38.000000 23 367.254012
-2.242034 0.630613 4.333717 78.000000 21 367.254014
-2.712253 0.762877 4.210687 92.000000 19 367.254017
-1.733168 0.487487 2.231448 32.000000 17 367.254020
-0.181948 0.065413 3.174092 28.000000 30 367.254027
-0.323476 0.107718 3.131802 64.000000 29 367.254030
-0.734356 0.216634 2.983275 95.000000 26 367.254032
-1.588151 0.449976 4.543013 38.000000 24 367.254035
-2.017426 0.570855 4.397068 95.000000 22 367.254038
-2.473600 0.699479 4.274886 90.000000 20 367.254040
-1.742709 0.492798 2.472011 32.000000 18 367.254043
-1.720323 0.486470 2.016381 35.000000 16 367.254045
-1.717555 0.480835 1.832525 23.000000 15 367.254003
-2.165954 0.606370 1.895354 3.000000 13 367.254006
-2.446140 0.685271 1.750116 10.000000 11 367.254008
-3.529344 0.988729 2.004324 92.000000 9 367.254011
-7.446471 2.087497 3.212870 99.000000 7 367.254013
-8.291446 2.325934 2.619549 16.000000 5 367.254016
-4.758052 1.334738 1.029688 12.000000 3 367.254018
-4.386970 1.231467 0.501213 55.000000 1 367.254021
-1.876131 0.528409 1.816541 19.000000 14 367.254029
-2.317434 0.652705 1.836621 11.000000 12 367.254031
-2.893989 0.815639 1.851774 88.000000 10 367.254034
-3.823370 1.077579 1.923772 85.000000 8 367.254036
-7.854565 2.215214 2.927902 55.000000 6 367.254039
-4.626589 1.305702 1.250175 56.000000 4 367.254041
-5.056381 1.427950 0.824095 18.000000 2 367.254044
-4.485294 1.267517 0.281694 78.000000 0 367.254047
-0.036078 0.017285 3.029158 96.000000 31 367.254057
-0.460693 0.143345 3.067703 78.000000 28 367.254060
-0.596202 0.186301 3.026511 76.000000 27 367.254062
-0.871670 0.253794 2.947760 90.000000 25 367.254065
-1.797080 0.512569 4.462066 35.000000 23 367.254067
-2.239819 0.638436 4.333717 80.000000 21 367.254070
-2.709574 0.772340 4.210687 93.000000 19 367.254073
-1.731456 0.493534 2.231448 32.000000 17 367.254075
-0.181719 0.066048 3.174092 28.000000 30 367.254083
-0.323098 0.108846 3.131802 65.000000 29 367.254085
-0.733596 0.219196 2.983275 95.000000 26 367.254088
-1.586570 0.455517 4.543013 38.000000 24 367.254091
-2.015422 0.577894 4.397068 95.000000 22 367.254093
-2.468636 0.707390 4.270620 89.000000 20 367.254096
-1.740978 0.498878 2.472011 33.000000 18 367.254098
-1.718615 0.492472 2.016381 35.000000 16 367.254101
-1.715866 0.486827 1.832525 23.000000 15 367.254058
-2.133864 0.605426 1.870252 5.000000 13 367.254061
-2.443733 0.693805 1.750116 10.000000 11 367.254064
-3.525871 1.001042 2.004324 92.000000 9 367.254066
-7.434680 2.112211 3.210997 95.000000 7 367.254069
-8.287891 2.356174 2.620958 88.000000 5 367.254071
-4.753364 1.351338 1.029688 12.000000 3 367.254074
-4.382645 1.246773 0.501213 14.000000 1 367.254076
-1.874275 0.534955 1.816541 24.000000 14 367.254084
-2.322915 0.663010 1.842507 10.000000 12 367.254087
-2.891124 0.825736 1.851774 88.000000 10 367.254089
-3.819585 1.090918 1.923772 81.000000 8 367.254092
-7.846784 2.242618 2.927902 52.000000 6 367.254094
-4.645370 1.328527 1.256037 48.000000 4 367.254097
-5.046604 1.444229 0.823405 17.000000 2 367.254100
-4.471237 1.280415 0.281291 51.000000 0 367.254102
-0.036018 0.017411 3.029158 96.000000 31 367.254113
-0.460190 0.144953 3.067703 78.000000 28 367.254115
-0.595548 0.188381 3.026511 74.000000 27 367.254118
-0.870779 0.256835 2.947760 90.000000 25 367.254120
-1.795280 0.518838 4.462066 35.000000 23 367.254123
-2.237577 0.646250 4.333717 80.000000 21 367.254126
-2.706861 0.781794 4.210687 92.000000 19 367.254128
-1.729723 0.499575 2.231448 32.000000 17 367.254131
-0.181758 0.066784 3.179084 27.000000 30 367.254138
-0.322717 0.109973 3.131802 64.000000 29 367.254141
-0.732826 0.221755 2.983275 95.000000 26 367.254144
-1.584971 0.461052 4.543013 38.000000 24 367.254146
-2.015483 0.585533 4.401568 95.000000 22 367.254149
-2.466151 0.716003 4.270620 89.000000 20 367.254151
-1.739226 0.504952 2.472011 33.000000 18 367.254154
-1.716885 0.498468 2.016381 35.000000 16 367.254156
-1.714157 0.492814 1.832525 22.000000 15 367.254114
-2.139220 0.615023 1.876528 8.000000 13 367.254117
-2.437278 0.701175 1.747374 10.000000 11 367.254119
-3.522355 1.013344 2.004324 92.000000 9 367.254122
-7.427261 2.138150 3.210997 21.000000 7 367.254124
-8.279616 2.385090 2.620958 88.000000 5 367.254127
-4.753338 1.369282 1.030621 12.000000 3 367.254129
-5.234818 1.508971 0.581085 10.000000 1 367.254132
-1.868809 0.540456 1.813217 24.000000 14 367.254140
-2.324469 0.672237 1.845450 10.000000 12 367.254142
-2.892366 0.837021 1.854306 88.000000 10 367.254145
-3.815753 1.104244 1.923772 78.000000 8 367.254147
-7.838908 2.269994 2.927902 36.000000 6 367.254150
-4.640704 1.344734 1.256037 48.000000 4 367.254152
-5.041532 1.461836 0.823405 19.000000 2 367.254155
-4.471538 1.297407 0.281492 36.000000 0 367.254158
-0.035957 0.017536 3.029158 97.000000 31 367.254169
-0.459681 0.146558 3.067703 78.000000 28 367.254172
-0.594887 0.190459 3.026511 72.000000 27 367.254174
-0.869877 0.259873 2.947760 90.000000 25 367.254177
-1.793458 0.525102 4.462066 38.000000 23 367.254179
-2.233008 0.653384 4.329328 77.000000 21 367.254182
-2.704116 0.791238 4.210687 92.000000 19 367.254184
-1.727969 0.505610 2.231448 32.000000 17 367.254187
-0.181524 0.067418 3.179084 27.000000 30 367.254195
-0.322331 0.111099 3.131802 63.000000 29 367.254197
-0.732048 0.224312 2.983275 95.000000 26 367.254200
-1.583352 0.466582 4.543013 38.000000 24 367.254202
-2.013427 0.592565 4.401568 95.000000 22 367.254205
-2.463637 0.724607 4.270620 89.000000 20 367.254207
-1.737453 0.511020 2.472011 32.000000 18 367.254210
-1.715135 0.504458 2.016381 36.000000 16 367.254213
-1.712426 0.498794 1.832525 22.000000 15 367.254170
-2.159485 0.629018 1.895354 6.000000 13 367.254173
-2.434815 0.709679 1.747374 10.000000 11 367.254175
-3.518797 1.025633 2.004324 91.000000 9 367.254178
-7.406400 2.160169 3.205377 12.000000 7 367.254181
-8.275846 2.415321 2.622367 75.000000 5 367.254183
-4.748529 1.385866 1.030621 12.000000 3 367.254186
-5.229519 1.527234 0.581085 9.000000 1 367.254188
-1.870495 0.548026 1.816541 24.000000 14 367.254196
-2.333745 0.683756 1.854280 13.000000 12 367.254199
-2.889426 0.847112 1.854306 88.000000 10 367.254201
-3.807521 1.116280 1.921674 74.000000 8 367.254204
-7.835468 2.298673 2.929544 27.000000 6 367.254206
-4.696612 1.378723 1.271277 82.000000 4 367.254209
-5.041150 1.480821 0.824095 18.000000 2 367.254211
-0.035895 0.017662 3.029158 97.000000 31 367.254225
-0.459167 0.148162 3.067703 78.000000 28 367.254227
-0.594218 0.192534 3.026511 72.000000 27 367.254230
-0.868965 0.262908 2.947760 90.000000 25 367.254232
-1.791614 0.531359 4.462066 37.000000 23 367.254235
-2.230713 0.661175 4.329328 77.000000 21 367.254237
-2.701337 0.800672 4.210687 92.000000 19 367.254240
-1.726193 0.511639 2.231448 32.000000 17 367.254242
-0.181288 0.068051 3.179084 28.000000 30 367.254250
-0.322445 0.112401 3.136773 64.000000 29 367.254253
-0.731260 0.226866 2.983275 93.000000 26 367.254255
-1.581713 0.472106 4.543013 38.000000 24 367.254258
-2.011347 0.599590 4.401568 95.000000 22 367.254260
-2.461093 0.733202 4.270620 89.000000 20 367.254263
-1.735659 0.517082 2.472011 32.000000 18 367.254266
-1.713363 0.510442 2.016381 36.000000 16 367.254268
-1.710674 0.504769 1.832525 23.000000 15 367.254226
-2.198347 0.648671 1.929870 5.000000 13 367.254228
-2.432323 0.718173 1.747374 10.000000 11 367.254231
-3.515195 1.037910 2.004324 91.000000 9 367.254233
-7.398815 2.186009 3.205377 9.000000 7 367.254236
-4.743663 1.402433 1.030621 12.000000 3 367.254241
-4.464858 1.320853 0.510138 22.000000 1 367.254244
-1.879311 0.557740 1.826516 10.000000 14 367.254251
-2.412719 0.716049 1.916086 8.000000 12 367.254254
-2.886452 0.857193 1.854306 88.000000 10 367.254257
-3.803601 1.129564 1.921674 71.000000 8 367.254259
-7.827396 2.326010 2.929544 20.000000 6 367.254262
-4.663816 1.386797 1.264243 78.000000 4 367.254264
-5.035951 1.498409 0.824095 18.000000 2 367.254267
-0.035834 0.017787 3.029158 96.000000 31 367.254280
-0.458647 0.149764 3.067703 78.000000 28 367.254283
-0.594510 0.194925 3.031406 72.000000 27 367.254285
-0.868042 0.265940 2.947760 90.000000 25 367.254288
-1.787877 0.537048 4.457463 37.000000 23 367.254290
-2.228392 0.668957 4.329328 80.000000 21 367.254293
-2.698526 0.810097 4.210687 92.000000 19 367.254295
-1.724397 0.517661 2.231448 32.000000 17 367.254298
-0.181049 0.068683 3.179084 28.000000 30 367.254306
-0.322050 0.113525 3.136773 66.000000 29 367.254308
-0.730464 0.229417 2.983275 93.000000 26 367.254311
-1.580056 0.477625 4.543013 38.000000 24 367.254313
-2.009241 0.606607 4.401568 95.000000 22 367.254316
-2.458519 0.741789 4.270620 90.000000 20 367.254319
-1.733843 0.523137 2.472011 32.000000 18 367.254321
-1.711571 0.516420 2.016381 35.000000 16 367.254324
-1.708902 0.510737 1.832525 23.000000 15 367.254281
-2.225908 0.665259 1.954972 5.000000 13 367.254284
-2.429801 0.726659 1.747374 9.000000 11 367.254286
-3.511551 1.050174 2.004324 91.000000 9 367.254289
-7.426671 2.222455 3.220362 6.000000 7 367.254292
-8.203632 2.456524 2.605457 11.000000 5 367.254294
-4.738739 1.418983 1.030621 12.000000 3 367.254297
-4.445909 1.332142 0.508799 40.000000 1 367.254299
-1.884505 0.566446 1.833166 4.000000 14 367.254307
-2.487622 0.747737 1.974949 6.000000 12 367.254310
-2.879314 0.866022 1.851774 88.000000 10 367.254312
-3.799635 1.142834 1.921674 67.000000 8 367.254315
-7.810185 2.350596 2.926259 18.000000 6 367.254317
-4.607751 1.387650 1.251347 71.000000 4 367.254320
-5.030690 1.515978 0.824095 18.000000 2 367.254322
-6.117481 1.844644 0.351423 9.000000 0 367.254325
-0.035771 0.017912 3.029158 97.000000 31 367.254336
-0.458121 0.151364 3.067703 78.000000 28 367.254338
-0.593826 0.196999 3.031406 74.000000 27 367.254341
-0.867108 0.268968 2.947760 89.000000 25 367.254343
-1.785992 0.543285 4.457463 37.000000 23 367.254346
-2.226043 0.676732 4.329328 80.000000 21 367.254348
-2.698374 0.820330 4.214820 91.000000 19 367.254351
-1.722579 0.523677 2.231448 32.000000 17 367.254353
-0.180539 0.069210 3.174092 28.000000 30 367.254361
-0.321150 0.114469 3.131802 64.000000 29 367.254364
-0.729659 0.231965 2.983275 95.000000 26 367.254366
-1.578379 0.483137 4.543013 38.000000 24 367.254369
-2.007112 0.613617 4.401568 95.000000 22 367.254371
-2.458408 0.751128 4.274886 89.000000 20 367.254374
-1.732006 0.529186 2.472011 33.000000 18 367.254377
-1.709758 0.522391 2.016381 35.000000 16 367.254379
-1.707108 0.516699 1.832525 22.000000 15 367.254337
-2.260832 0.684303 1.986350 6.000000 13 367.254339
-2.427250 0.735137 1.747374 9.000000 11 367.254342
-3.507864 1.062425 2.004324 91.000000 9 367.254345
-7.463233 2.261811 3.239092 4.000000 7 367.254347
-8.172055 2.478184 2.598411 5.000000 5 367.254350
-4.738458 1.436941 1.031553 11.000000 3 367.254352
-4.441231 1.347653 0.508799 62.000000 1 367.254355
-1.907524 0.580633 1.856440 2.000000 14 367.254363
-2.508198 0.763478 1.992608 6.000000 12 367.254365
-2.876273 0.876067 1.851774 88.000000 10 367.254368
-3.795622 1.156090 1.921674 64.000000 8 367.254370
-7.815485 2.381975 2.931187 24.000000 6 367.254373
-4.579633 1.396636 1.245486 33.000000 4 367.254375
-5.025367 1.533529 0.824095 18.000000 2 367.254378
-6.111005 1.865987 0.351423 5.000000 0 367.254380
-0.035745 0.018060 3.034158 97.000000 31 367.254391
-0.457590 0.152962 3.067703 78.000000 28 367.254394
-0.593135 0.199071 3.031406 72.000000 27 367.254396
-0.866164 0.271993 2.947760 89.000000 25 367.254399
-1.785952 0.550091 4.462066 37.000000 23 367.254401
-2.223668 0.684498 4.329328 81.000000 21 367.254404
-2.695494 0.829744 4.214820 91.000000 19 367.254406
-1.717677 0.528744 2.227611 32.000000 17 367.254409
-0.180296 0.069839 3.174092 28.000000 30 367.254417
-0.320748 0.115589 3.131802 64.000000 29 367.254419
-0.728844 0.234511 2.983275 95.000000 26 367.254422
-1.576683 0.488644 4.543013 38.000000 24 367.254424
-2.004957 0.620619 4.401568 95.000000 22 367.254427
-2.455771 0.759705 4.274886 89.000000 20 367.254430
-1.730149 0.535229 2.472011 32.000000 18 367.254432
-1.707924 0.528356 2.016381 35.000000 16 367.254435
-1.705294 0.522655 1.832525 22.000000 15 367.254392
-2.295649 0.703598 2.017728 6.000000 13 367.254395
-2.424669 0.743605 1.747374 9.000000 11 367.254397
-3.508369 1.075962 2.006642 91.000000 9 367.254400
-7.628138 2.340891 3.312140 2.000000 7 367.254403
-8.268831 2.539083 2.630822 3.000000 5 367.254405
-4.733413 1.453473 1.031553 12.000000 3 367.254408
-4.417458 1.357297 0.507014 68.000000 1 367.254410
-1.894780 0.583988 1.846465 2.000000 14 367.254418
-2.505518 0.772229 1.992608 6.000000 12 367.254421
-2.873198 0.886102 1.851774 88.000000 10 367.254423
-3.791564 1.169333 1.921674 59.000000 8 367.254426
-15.708469 4.847563 5.807528 85.000000 6 367.254428
-4.551509 1.405443 1.239624 14.000000 4 367.254431
-5.019983 1.551062 0.824095 17.000000 2 367.254433
-6.080589 1.879928 0.350416 4.000000 0 367.254436
-0.035682 0.018185 3.034158 96.000000 31 367.254447
-0.457054 0.154558 3.067703 78.000000 28 367.254449
-0.592436 0.201140 3.031406 72.000000 27 367.254452
-0.865209 0.275015 2.947760 90.000000 25 367.254454
-1.784021 0.556322 4.462066 37.000000 23 367.254457
-2.221264 0.692256 4.329328 81.000000 21 367.254459
-2.692581 0.839148 4.214820 92.000000 19 367.254462
-1.715821 0.534736 2.227611 32.000000 17 367.254465
-0.180051 0.070468 3.174092 28.000000 30 367.254472
-0.320343 0.116708 3.131802 65.000000 29 367.254475
-0.729217 0.237443 2.988115 95.000000 26 367.254477
-1.574968 0.494144 4.543013 38.000000 24 367.254480
-2.004857 0.628265 4.406069 95.000000 22 367.254483
-2.453105 0.768273 4.274886 89.000000 20 367.254485
-1.728270 0.541265 2.472011 32.000000 18 367.254488
-1.706069 0.534315 2.016381 35.000000 16 367.254490
-1.703460 0.528604 1.832525 23.000000 15 367.254448
-2.322923 0.720837 2.042830 7.000000 13 367.254450
-2.422059 0.752064 1.747374 9.000000 11 367.254453
-3.504592 1.088202 2.006642 91.000000 9 367.254456
-7.628774 2.370255 3.315886 2.000000 7 367.254458
-8.461483 2.630596 2.692827 3.000000 5 367.254461
-4.728311 1.469987 1.031553 12.000000 3 367.254463
-4.403183 1.369750 0.506122 54.000000 1 367.254466
-1.889164 0.589486 1.843140 2.000000 14 367.254474
-2.502807 0.780970 1.992608 6.000000 12 367.254476
-2.874202 0.897411 1.854306 88.000000 10 367.254479
-3.787459 1.182561 1.921674 53.000000 8 367.254481
-15.704973 4.906590 5.812456 100.000000 6 367.254484
-5.014539 1.568575 0.824095 16.000000 2 367.254489
-6.078757 1.902635 0.350617 4.000000 0 367.254491
-0.035618 0.018309 3.034158 95.000000 31 367.254502
-0.457246 0.156405 3.072643 78.000000 28 367.254505
-0.591730 0.203207 3.031406 72.000000 27 367.254507
-0.864244 0.278033 2.947760 92.000000 25 367.254510
-1.782068 0.562546 4.462066 38.000000 23 367.254512
-2.218835 0.700005 4.329328 81.000000 21 367.254515
-2.689636 0.848541 4.214820 92.000000 19 367.254517
-1.713944 0.540722 2.227611 31.000000 17 367.254520
-0.179804 0.071096 3.174092 27.000000 30 367.254528
-0.319933 0.117825 3.131802 66.000000 29 367.254530
-0.728384 0.239987 2.988115 95.000000 26 367.254533
-1.573233 0.499639 4.543013 38.000000 24 367.254535
-2.002652 0.635260 4.406069 95.000000 22 367.254538
-2.450408 0.776831 4.274886 90.000000 20 367.254541
-1.726370 0.547294 2.472011 33.000000 18 367.254543
-1.704194 0.540267 2.016381 35.000000 16 367.254546
-1.701604 0.534547 1.832525 23.000000 15 367.254503
-2.372387 0.745275 2.086759 7.000000 13 367.254506
-2.419419 0.760514 1.747374 9.000000 11 367.254509
-3.500772 1.100429 2.006642 91.000000 9 367.254511
-7.655832 2.407997 3.330871 3.000000 7 367.254514
-8.452250 2.660116 2.692827 3.000000 5 367.254516
-4.723151 1.486483 1.031553 11.000000 3 367.254519
-4.388875 1.382120 0.505229 32.000000 1 367.254521
-1.879973 0.593828 1.836491 3.000000 14 367.254529
-2.500066 0.789702 1.992608 7.000000 12 367.254532
-2.871052 0.907438 1.854306 87.000000 10 367.254534
-3.783308 1.195774 1.921674 52.000000 8 367.254537
-15.683249 4.959958 5.810814 101.000000 6 367.254539
-5.009033 1.586070 0.824095 17.000000 2 367.254544
-6.081604 1.926860 0.351020 4.000000 0 367.254547
-0.035554 0.018433 3.034158 95.000000 31 367.254558
-0.456697 0.158000 3.072643 78.000000 28 367.254560
-0.591017 0.205271 3.031406 72.000000 27 367.254563
-0.863268 0.281048 2.947760 89.000000 25 367.254565
-1.780093 0.568763 4.462066 37.000000 23 367.254568
-2.216377 0.707746 4.329328 81.000000 21 367.254570
-2.686657 0.857925 4.214820 92.000000 19 367.254573
-1.712046 0.546702 2.227611 31.000000 17 367.254576
-0.179823 0.071833 3.179084 27.000000 30 367.254583
-0.319520 0.118941 3.131802 65.000000 29 367.254586
-0.727542 0.242528 2.988115 95.000000 26 367.254588
-1.571479 0.505128 4.543013 38.000000 24 367.254591
-2.000422 0.642246 4.406069 95.000000 22 367.254594
-2.447681 0.785380 4.274886 90.000000 20 367.254596
-1.724449 0.553317 2.472011 33.000000 18 367.254599
-1.702297 0.546212 2.016381 35.000000 16 367.254601
-1.699728 0.540484 1.832525 22.000000 15 367.254559
-2.373481 0.754731 2.089896 7.000000 13 367.254561
-2.416749 0.768955 1.747374 9.000000 11 367.254564
-3.496910 1.112642 2.006642 91.000000 9 367.254567
-7.665051 2.440332 3.338363 3.000000 7 367.254569
-8.433770 2.686692 2.690008 3.000000 5 367.254572
-4.713252 1.501469 1.030621 12.000000 3 367.254574
-4.379278 1.395919 0.504783 21.000000 1 367.254577
-1.874332 0.599249 1.833166 5.000000 14 367.254585
-2.501144 0.799655 1.995552 8.000000 12 367.254587
-2.867867 0.917454 1.854306 88.000000 10 367.254590
-3.779111 1.208973 1.921674 47.000000 8 367.254592
-15.679332 5.018991 5.815742 110.000000 6 367.254595
-8.535980 2.734029 2.252506 17.000000 4 367.254597
-5.003466 1.603545 0.824095 17.000000 2 367.254600
-10.789337 3.459921 0.550738 13.000000 0 367.254603
-0.035490 0.018557 3.034158 96.000000 31 367.254613
-0.456143 0.159593 3.072643 75.000000 28 367.254616
-0.590297 0.207333 3.031406 71.000000 27 367.254618
-0.862282 0.284060 2.947760 89.000000 25 367.254621
-1.778097 0.574974 4.462066 37.000000 23 367.254623
-2.213894 0.715479 4.329328 81.000000 21 367.254626
-2.683646 0.867298 4.214820 92.000000 19 367.254629
-1.710127 0.552675 2.227611 32.000000 17 367.254631
-0.179571 0.072460 3.179084 27.000000 30 367.254639
-0.319103 0.120056 3.131802 65.000000 29 367.254641
-0.726691 0.245067 2.988115 95.000000 26 367.254644
-1.569707 0.510610 4.543013 38.000000 24 367.254647
-1.998168 0.649225 4.406069 95.000000 22 367.254649
-2.444925 0.793919 4.274886 90.000000 20 367.254652
-1.722507 0.559333 2.472011 32.000000 18 367.254654
-1.700381 0.552151 2.016381 35.000000 16 367.254657
-1.697831 0.546414 1.832525 22.000000 15 367.254614
-2.422711 0.779708 2.133825 8.000000 13 367.254617
-2.414051 0.777386 1.747374 10.000000 11 367.254620
-3.493005 1.124842 2.006642 91.000000 9 367.254622
-8.424340 2.716115 2.690008 3.000000 5 367.254627
-4.707983 1.517913 1.030621 11.000000 3 367.254630
-4.364900 1.408139 0.503891 14.000000 1 367.254632
-1.868676 0.604639 1.829841 6.000000 14 367.254640
-2.498338 0.808380 1.995552 9.000000 12 367.254643
-2.864647 0.927460 1.854306 88.000000 10 367.254645
-3.774868 1.222157 1.921674 40.000000 8 367.254648
-15.661717 5.073691 5.815742 114.000000 6 367.254650
-8.531010 2.765307 2.253679 14.000000 4 367.254653
-5.002549 1.622528 0.824785 17.000000 2 367.254655
-10.781945 3.499103 0.550939 26.000000 0 367.254658
-0.035425 0.018681 3.034158 96.000000 31 367.254669
-0.455583 0.161184 3.072643 75.000000 28 367.254671
-0.589570 0.209392 3.031406 72.000000 27 367.254674
-0.861285 0.287068 2.947760 89.000000 25 367.254676
-1.776079 0.581177 4.462066 37.000000 23 367.254679
-2.213660 0.723947 4.333717 81.000000 21 367.254681
-2.680602 0.876660 4.214820 91.000000 19 367.254684
-1.708187 0.558641 2.227611 32.000000 17 367.254687
-0.179317 0.073086 3.179084 26.000000 30 367.254694
-0.318682 0.121169 3.131802 65.000000 29 367.254697
-0.725831 0.247602 2.988115 95.000000 26 367.254699
-1.567915 0.516086 4.543013 38.000000 24 367.254702
-1.995890 0.656196 4.406069 95.000000 22 367.254705
-2.442139 0.802449 4.274886 90.000000 20 367.254707
-1.720544 0.565343 2.472011 32.000000 18 367.254710
-1.698443 0.558083 2.016381 35.000000 16 367.254712
-1.695913 0.552337 1.832525 25.000000 15 367.254670
-2.419975 0.788160 2.133825 6.000000 13 367.254673
-2.411322 0.785808 1.747374 11.000000 11 367.254675
-3.489057 1.137028 2.006642 90.000000 9 367.254678
-15.740032 5.132473 6.777252 52.000000 7 367.254680
-4.707325 1.535861 1.031553 12.000000 3 367.254685
-4.355224 1.421821 0.503444 11.000000 1 367.254688
-1.863005 0.609996 1.826516 7.000000 14 367.254696
-2.499342 0.818354 1.998495 8.000000 12 367.254698
-2.861392 0.937453 1.854306 88.000000 10 367.254701
-3.774892 1.236740 1.923772 39.000000 8 367.254703
-15.648400 5.129802 5.817385 113.000000 6 367.254706
-4.996854 1.639981 0.824785 16.000000 2 367.254711
-0.035359 0.018805 3.034158 96.000000 31 367.254724
-0.455018 0.162774 3.072643 77.000000 28 367.254727
-0.588835 0.211449 3.031406 71.000000 27 367.254729
-0.860278 0.290073 2.947760 89.000000 25 367.254732
-1.774040 0.587373 4.462066 37.000000 23 367.254734
-2.211119 0.731670 4.333717 80.000000 21 367.254737
-2.677526 0.886012 4.214820 92.000000 19 367.254740
-1.706227 0.564600 2.227611 32.000000 17 367.254742
-0.179061 0.073712 3.179084 26.000000 30 367.254750
-0.318257 0.122281 3.131802 63.000000 29 367.254752
-0.724962 0.250134 2.988115 93.000000 26 367.254755
-1.566104 0.521556 4.543013 38.000000 24 367.254758
-1.993587 0.663159 4.406069 95.000000 22 367.254760
-2.439323 0.810968 4.274886 89.000000 20 367.254763
-1.718560 0.571345 2.472011 32.000000 18 367.254765
-1.696484 0.564008 2.016381 35.000000 16 367.254768
-1.693975 0.558253 1.832525 26.000000 15 367.254725
-2.398723 0.790511 2.118136 5.000000 13 367.254728
-2.408564 0.794220 1.747374 12.000000 11 367.254731
-3.485067 1.149200 2.006642 91.000000 9 367.254733
-15.726422 5.188837 6.779124 85.000000 7 367.254736
-17.019575 5.618800 5.354797 30.000000 5 367.254738
-4.715930 1.556903 1.034351 10.000000 3 367.254741
-4.345506 1.435453 0.502998 4.000000 1 367.254743
-1.857320 0.615321 1.823191 7.000000 14 367.254751
-2.500307 0.828345 2.001438 4.000000 12 367.254754
-2.858103 0.947436 1.854306 88.000000 10 367.254756
-3.774859 1.251337 1.925870 38.000000 8 367.254759
-15.630399 5.184393 5.817385 114.000000 6 367.254761
-16.141727 5.357122 4.192692 12.000000 4 367.254764
-4.995799 1.658974 0.825475 13.000000 2 367.254767
-0.035293 0.018928 3.034158 96.000000 31 367.254780
-0.453716 0.164096 3.067703 77.000000 28 367.254782
-0.588094 0.213503 3.031406 71.000000 27 367.254785
-0.859260 0.293074 2.947760 90.000000 25 367.254787
-1.771978 0.593562 4.462066 37.000000 23 367.254790
-2.208552 0.739383 4.333717 80.000000 21 367.254793
-2.674417 0.895353 4.214820 93.000000 19 367.254795
-1.704246 0.570553 2.227611 31.000000 17 367.254798
-0.178536 0.074224 3.174092 27.000000 30 367.254805
-0.317828 0.123391 3.131802 63.000000 29 367.254808
-0.724085 0.252663 2.988115 93.000000 26 367.254811
-1.564273 0.527020 4.543013 38.000000 24 367.254813
-1.991260 0.670114 4.406069 95.000000 22 367.254816
-2.436477 0.819478 4.274886 89.000000 20 367.254818
-1.716555 0.577340 2.472011 32.000000 18 367.254821
-1.694505 0.569927 2.016381 35.000000 16 367.254823
-1.692016 0.564163 1.832525 25.000000 15 367.254781
-2.244536 0.748393 1.989488 4.000000 13 367.254784
-2.405777 0.802623 1.747374 12.000000 11 367.254786
-3.481034 1.161358 2.006642 91.000000 9 367.254789
-15.699419 5.240765 6.775378 85.000000 7 367.254791
-16.981659 5.672096 5.349161 35.000000 5 367.254794
-4.335745 1.449035 0.502552 3.000000 1 367.254799
-1.855160 0.621800 1.823191 7.000000 14 367.254807
-2.409254 0.807523 1.933745 2.000000 12 367.254809
-2.854778 0.957407 1.854306 87.000000 10 367.254812
-3.770468 1.264506 1.925870 38.000000 8 367.254814
-15.612206 5.238922 5.817385 114.000000 6 367.254817
-16.155186 5.424264 4.200898 23.000000 4 367.254819
-0.035227 0.019051 3.034158 96.000000 31 367.254835
-0.453141 0.165679 3.067703 77.000000 28 367.254838
-0.587345 0.215554 3.031406 71.000000 27 367.254840
-0.858232 0.296072 2.947760 90.000000 25 367.254843
-1.769896 0.599744 4.462066 37.000000 23 367.254845
-2.205957 0.747088 4.333717 81.000000 21 367.254848
-2.671275 0.904683 4.214820 93.000000 19 367.254850
-1.702244 0.576498 2.227611 31.000000 17 367.254853
-0.178276 0.074846 3.174092 27.000000 30 367.254861
-0.317396 0.124500 3.131802 64.000000 29 367.254863
-0.723198 0.255189 2.988115 93.000000 26 367.254866
-1.564058 0.533034 4.547705 38.000000 24 367.254868
-1.988909 0.677061 4.406069 94.000000 22 367.254871
-2.433602 0.827978 4.274886 89.000000 20 367.254873
-1.714530 0.583329 2.472011 32.000000 18 367.254876
-1.692506 0.575838 2.016381 35.000000 16 367.254879
-1.693415 0.571206 1.836029 25.000000 15 367.254836
-2.186580 0.737560 1.942421 3.000000 13 367.254839
-2.402961 0.811016 1.747374 12.000000 11 367.254841
-3.481156 1.174919 2.008960 90.000000 9 367.254844
-15.689814 5.298501 6.779124 86.000000 7 367.254847
-16.961758 5.731339 5.349161 36.000000 5 367.254849
-4.321226 1.460970 0.501660 3.000000 1 367.254854
-1.849442 0.627073 1.819866 8.000000 14 367.254862
-2.360485 0.800352 1.898427 2.000000 12 367.254865
-2.851419 0.967366 1.854306 87.000000 10 367.254867
-3.770329 1.279118 1.927968 36.000000 8 367.254870
-15.593824 5.293387 5.817385 114.000000 6 367.254872
-16.103935 5.469681 4.192692 24.000000 4 367.254875
-0.035124 0.019149 3.029158 96.000000 31 367.254891
-0.452560 0.167260 3.067703 77.000000 28 367.254893
-0.586589 0.217603 3.031406 72.000000 27 367.254896
-0.857193 0.299066 2.947760 90.000000 25 367.254898
-1.767791 0.605918 4.462066 37.000000 23 367.254901
-2.203336 0.754784 4.333717 81.000000 21 367.254903
-2.665439 0.913090 4.210687 92.000000 19 367.254906
-1.700221 0.582436 2.227611 32.000000 17 367.254908
-0.178013 0.075468 3.174092 28.000000 30 367.254916
-0.316959 0.125607 3.131802 63.000000 29 367.254919
-0.722303 0.257712 2.988115 93.000000 26 367.254921
-1.562188 0.538490 4.547705 37.000000 24 367.254924
-1.986533 0.683999 4.406069 94.000000 22 367.254926
-2.433163 0.837317 4.279151 89.000000 20 367.254929
-1.712483 0.589310 2.472011 32.000000 18 367.254932
-1.690485 0.581743 2.016381 35.000000 16 367.254934
-1.691411 0.577113 1.836029 25.000000 15 367.254892
-2.069779 0.706218 1.845150 4.000000 13 367.254894
-2.400116 0.819398 1.747374 13.000000 11 367.254897
-3.477034 1.187063 2.008960 90.000000 9 367.254899
-15.666838 5.351738 6.777252 90.000000 7 367.254902
-16.946186 5.792063 5.350570 37.000000 5 367.254905
-4.334948 1.482491 0.503444 5.000000 1 367.254910
-1.847242 0.633525 1.819866 7.000000 14 367.254917
-2.273562 0.779739 1.833678 3.000000 12 367.254920
-2.848025 0.977313 1.854306 88.000000 10 367.254923
-3.770134 1.293744 1.930066 34.000000 8 367.254925
-15.575252 5.347788 5.817385 114.000000 6 367.254928
-16.116922 5.536916 4.200898 25.000000 4 367.254930
-0.035057 0.019272 3.029158 96.000000 31 367.254946
-0.451973 0.168838 3.067703 77.000000 28 367.254949
-0.585826 0.219650 3.031406 72.000000 27 367.254951
-0.857552 0.302553 2.952532 89.000000 25 367.254954
-1.765666 0.612085 4.462066 34.000000 23 367.254956
-2.200688 0.762470 4.333717 81.000000 21 367.254959
-2.662236 0.922389 4.210687 92.000000 19 367.254961
-1.698178 0.588368 2.227611 32.000000 17 367.254964
-0.177749 0.076089 3.174092 28.000000 30 367.254972
-0.316519 0.126712 3.131802 63.000000 29 367.254974
-0.721399 0.260232 2.988115 93.000000 26 367.254977
-1.560298 0.543940 4.547705 38.000000 24 367.254979
-1.984133 0.690929 4.406069 94.000000 22 367.254982
-2.430225 0.845805 4.279151 89.000000 20 367.254985
-1.710415 0.595284 2.472011 32.000000 18 367.254987
-1.688444 0.587640 2.016381 35.000000 16 367.254990
-1.689386 0.583014 1.836029 25.000000 15 367.254947
-2.074661 0.715978 1.851425 6.000000 13 367.254950
-2.397241 0.827771 1.747374 13.000000 11 367.254952
-3.472869 1.199193 2.008960 90.000000 9 367.254955
-15.648061 5.406393 6.777252 88.000000 7 367.254958
-16.934931 5.854315 5.353388 39.000000 5 367.254960
-4.343865 1.502498 0.504783 5.000000 1 367.254965
-1.845019 0.639969 1.819866 6.000000 14 367.254973
-2.255551 0.782372 1.821905 5.000000 12 367.254976
-2.844596 0.987249 1.854306 89.000000 10 367.254978
-3.769883 1.308385 1.932164 32.000000 8 367.254981
-15.556490 5.402122 5.817385 115.000000 6 367.254983
-16.083723 5.588355 4.197381 25.000000 4 367.254986
-0.034954 0.019369 3.024158 96.000000 31 367.255002
-0.451381 0.170415 3.067703 77.000000 28 367.255004
-0.585055 0.221693 3.031406 71.000000 27 367.255007
-0.856491 0.305545 2.952532 89.000000 25 367.255009
-1.765362 0.618891 4.466668 34.000000 23 367.255012
-2.198013 0.770148 4.333717 81.000000 21 367.255014
-2.658999 0.931676 4.210687 92.000000 19 367.255017
-1.699139 0.595352 2.231448 32.000000 17 367.255019
-0.177482 0.076709 3.174092 29.000000 30 367.255027
-0.316074 0.127816 3.131802 63.000000 29 367.255030
-0.720486 0.262748 2.988115 93.000000 26 367.255032
-1.558390 0.549383 4.547705 38.000000 24 367.255035
-1.981709 0.697851 4.406069 94.000000 22 367.255037
-2.427258 0.854283 4.279151 90.000000 20 367.255040
-1.708327 0.601251 2.472011 32.000000 18 367.255043
-1.686383 0.593530 2.016381 35.000000 16 367.255045
-1.687341 0.588907 1.836029 26.000000 15 367.255003
-2.068474 0.721933 1.848287 8.000000 13 367.255005
-2.398284 0.837513 1.750116 14.000000 11 367.255008
-3.468662 1.211308 2.008960 90.000000 9 367.255011
-15.629094 5.460981 6.777252 85.000000 7 367.255013
-16.918922 5.914977 5.354797 40.000000 5 367.255016
-1.839250 0.645169 1.816541 6.000000 14 367.255029
-2.229922 0.782213 1.804246 6.000000 12 367.255031
-2.841132 0.997172 1.854306 88.000000 10 367.255034
-3.765293 1.321536 1.932164 31.000000 8 367.255036
-15.537538 5.456392 5.817385 117.000000 6 367.255039
-16.068705 5.646075 4.198554 25.000000 4 367.255041
-0.034886 0.019491 3.024158 96.000000 31 367.255057
-0.450783 0.171990 3.067703 77.000000 28 367.255060
-0.584278 0.223734 3.031406 71.000000 27 367.255062
-0.855419 0.308533 2.952532 89.000000 25 367.255065
-1.761350 0.624397 4.462066 37.000000 23 367.255067
-2.195311 0.777815 4.333717 77.000000 21 367.255070
-2.658384 0.941892 4.214820 92.000000 19 367.255072
-1.697050 0.601279 2.231448 32.000000 17 367.255075
-0.177213 0.077328 3.174092 29.000000 30 367.255083
-0.316120 0.129122 3.136773 64.000000 29 367.255085
-0.719565 0.265261 2.988115 93.000000 26 367.255088
-1.556463 0.554819 4.547705 38.000000 24 367.255090
-1.979138 0.705110 4.406069 95.000000 22 367.255093
-2.424110 0.863173 4.279151 90.000000 20 367.255096
-1.706112 0.607508 2.472011 32.000000 18 367.255098
-1.684196 0.599707 2.016381 35.000000 16 367.255101
-1.685275 0.594794 1.836029 26.000000 15 367.255058
-2.084296 0.735627 1.863976 12.000000 13 367.255061
-2.399289 0.847272 1.752857 14.000000 11 367.255063
-3.464413 1.223409 2.008960 90.000000 9 367.255066
-15.609936 5.515504 6.777252 87.000000 7 367.255069
-16.902695 5.975597 5.356207 42.000000 5 367.255071
-1.836873 0.651906 1.816541 6.000000 14 367.255084
-2.261322 0.802548 1.830735 14.000000 12 367.255087
-2.837459 1.007579 1.854306 88.000000 10 367.255089
-3.764701 1.336846 1.934262 31.000000 8 367.255092
-15.517435 5.513303 5.817385 116.000000 6 367.255094
-16.043322 5.703304 4.197381 25.000000 4 367.255097
-0.034814 0.019619 3.024158 96.000000 31 367.255113
-0.450150 0.173641 3.067703 78.000000 28 367.255115
-0.583454 0.225874 3.031406 71.000000 27 367.255118
-0.854282 0.311666 2.952532 89.000000 25 367.255120
-1.759049 0.630848 4.462066 37.000000 23 367.255123
-2.192446 0.785856 4.333717 77.000000 21 367.255125
-2.654914 0.951629 4.214820 93.000000 19 367.255128
-1.694835 0.607495 2.231448 32.000000 17 367.255131
-0.176929 0.077977 3.174092 28.000000 30 367.255138
-0.315645 0.130280 3.136773 64.000000 29 367.255141
-0.718588 0.267897 2.988115 93.000000 26 367.255143
-1.552796 0.559935 4.543013 38.000000 24 367.255146
-1.976665 0.712014 4.406069 95.000000 22 367.255149
-2.421083 0.871630 4.279151 89.000000 20 367.255151
-1.706817 0.614481 2.476000 33.000000 18 367.255154
-1.682092 0.605582 2.016381 35.000000 16 367.255156
-1.683084 0.600966 1.836029 25.000000 15 367.255114
-2.085252 0.744570 1.867114 8.000000 13 367.255116
-2.400105 0.857467 1.755598 15.000000 11 367.255119
-3.459905 1.236098 2.008960 91.000000 9 367.255122
-15.593980 5.574241 6.779124 87.000000 7 367.255124
-16.885197 6.039124 5.357616 42.000000 5 367.255127
-14.310213 5.120977 1.454764 62.000000 1 367.255132
-1.834587 0.658314 1.816541 6.000000 14 367.255140
-2.288943 0.821358 1.854280 15.000000 12 367.255142
-2.833924 1.017477 1.854306 89.000000 10 367.255145
-3.755740 1.348446 1.932164 30.000000 8 367.255147
-15.502539 5.569032 5.819027 115.000000 6 367.255150
-16.023315 5.759271 4.197381 25.000000 4 367.255152
-0.034746 0.019740 3.024158 96.000000 31 367.255168
-0.449541 0.175211 3.067703 78.000000 28 367.255171
-0.582662 0.227909 3.031406 71.000000 27 367.255173
-0.853189 0.314646 2.952532 90.000000 25 367.255176
-1.758673 0.637651 4.466668 38.000000 23 367.255178
-2.189689 0.793505 4.333717 81.000000 21 367.255181
-2.651576 0.960890 4.214820 93.000000 19 367.255183
-1.695719 0.614500 2.235285 32.000000 17 367.255186
-0.176655 0.078594 3.174092 28.000000 30 367.255194
-0.315188 0.131381 3.136773 64.000000 29 367.255196
-0.717648 0.270404 2.988115 92.000000 26 367.255199
-1.550832 0.565352 4.543013 38.000000 24 367.255201
-1.974168 0.718909 4.406069 95.000000 22 367.255204
-2.418025 0.880076 4.279151 89.000000 20 367.255207
-1.704661 0.620435 2.476000 33.000000 18 367.255209
-1.679968 0.611450 2.016381 35.000000 16 367.255212
-1.680976 0.606838 1.836029 25.000000 15 367.255169
-2.086302 0.753167 1.870252 8.000000 13 367.255172
-2.397098 0.865839 1.755598 15.000000 11 367.255175
-3.459736 1.249673 2.011278 90.000000 9 367.255177
-15.574428 5.628640 6.779124 86.000000 7 367.255180
-16.868525 6.099659 5.359025 42.000000 5 367.255182
-14.292250 5.170899 1.454764 59.000000 1 367.255187
-1.835788 0.665988 1.819866 7.000000 14 367.255195
-2.267064 0.822451 1.839564 25.000000 12 367.255198
-2.834408 1.028834 1.856839 89.000000 10 367.255200
-3.751010 1.361547 1.932164 28.000000 8 367.255203
-15.483004 5.623112 5.819027 115.000000 6 367.255205
-16.003115 5.815167 4.197381 25.000000 4 367.255208
-0.034677 0.019862 3.024158 96.000000 31 367.255224
-0.448927 0.176779 3.067703 77.000000 28 367.255226
-0.581863 0.229942 3.031406 71.000000 27 367.255229
-0.852086 0.317622 2.952532 89.000000 25 367.255231
-1.754602 0.643113 4.462066 38.000000 23 367.255234
-2.189156 0.801967 4.338106 80.000000 21 367.255236
-2.650847 0.971108 4.218953 93.000000 19 367.255239
-1.693563 0.620416 2.235285 32.000000 17 367.255242
-0.176380 0.079210 3.174092 27.000000 30 367.255249
