# .PCD v.7 - Point Cloud Data file format
VERSION .7
FIELDS x y z intensity ring timestamp
SIZE 4 4 4 4 2 8
TYPE F F F F U D
COUNT 1 1 1 1 1 1
WIDTH 907
HEIGHT 1
VIEWPOINT 0 0 0 1 0 0 0
POINTS 907
DATA ascii
-0.344858 -1.109947 0.493442 37.000000 6 366.930447
-0.343475 -1.104817 0.369765 16.000000 4 366.930450
-0.335349 -1.078016 0.249479 13.000000 2 366.930452
-0.344402 -1.106437 0.140421 29.000000 0 366.930455
-0.020305 -0.038841 3.469141 10.000000 31 366.930466
-0.173752 -0.510438 3.428269 18.000000 28 366.930468
-0.228992 -0.670077 3.427920 20.000000 27 366.930471
-0.318565 -0.995544 3.386759 59.000000 25 366.930473
-0.381261 -1.214444 3.058296 22.000000 23 366.930476
-0.372333 -1.186715 2.345653 36.000000 21 366.930478
-0.364122 -1.160537 1.859039 38.000000 19 366.930481
-0.358553 -1.142782 1.510103 39.000000 17 366.930483
-0.076949 -0.195238 3.458614 17.000000 30 366.930491
-0.129335 -0.352678 3.454944 12.000000 29 366.930494
-0.272949 -0.832739 3.409126 28.000000 26 366.930496
-0.365143 -1.156051 3.351050 20.000000 24 366.930499
-0.377889 -1.197841 2.659745 31.000000 22 366.930501
-0.369877 -1.173143 2.082195 38.000000 20 366.930504
-0.363319 -1.152336 1.674111 38.000000 18 366.930507
-0.356129 -1.129522 1.362202 39.000000 16 366.930509
-0.354272 -1.133975 1.247266 39.000000 15 366.930467
-0.351491 -1.125067 1.032465 40.000000 13 366.930469
-0.348737 -1.115566 0.850915 42.000000 11 366.930472
-0.349398 -1.117674 0.699275 40.000000 9 366.930474
-0.346246 -1.106912 0.556909 39.000000 7 366.930477
-0.339718 -1.085377 0.424022 28.000000 5 366.930480
-0.337481 -1.078230 0.305975 9.000000 3 366.930482
-0.337803 -1.078601 0.194221 14.000000 1 366.930485
-0.353601 -1.125614 1.131623 47.000000 14 366.930492
-0.350875 -1.116928 0.936014 48.000000 12 366.930495
-0.349597 -1.112181 0.770428 47.000000 10 366.930498
-0.350104 -1.113785 0.627175 42.000000 8 366.930500
-0.348730 -1.108737 0.493442 37.000000 6 366.930503
-0.347329 -1.103611 0.369765 16.000000 4 366.930505
-0.339110 -1.076839 0.249479 12.000000 2 366.930508
-0.348262 -1.105228 0.140421 28.000000 0 366.930510
-0.020441 -0.038770 3.469141 10.000000 31 366.930521
-0.175533 -0.509828 3.428269 25.000000 28 366.930524
-0.231996 -0.671198 3.437710 18.000000 27 366.930526
-0.322959 -0.997268 3.396302 77.000000 25 366.930529
-0.385497 -1.213106 3.058296 22.000000 23 366.930531
-0.376473 -1.185408 2.345653 35.000000 21 366.930534
-0.368171 -1.159259 1.859039 38.000000 19 366.930536
-0.363511 -1.144578 1.513940 39.000000 17 366.930539
-0.077630 -0.194968 3.458614 17.000000 30 366.930547
-0.130751 -0.352725 3.459915 14.000000 29 366.930549
-0.276647 -0.834169 3.418804 24.000000 26 366.930552
-0.370753 -1.159701 3.365128 20.000000 24 366.930554
-0.382068 -1.196514 2.659745 31.000000 22 366.930557
-0.373970 -1.171845 2.082195 38.000000 20 366.930560
-0.367340 -1.151061 1.674111 38.000000 18 366.930562
-0.360069 -1.128272 1.362202 39.000000 16 366.930565
-0.358228 -1.132732 1.247266 39.000000 15 366.930522
-0.355416 -1.123833 1.032465 40.000000 13 366.930525
-0.352629 -1.114342 0.850915 42.000000 11 366.930527
-0.353298 -1.116448 0.699275 40.000000 9 366.930530
-0.350108 -1.105697 0.556909 39.000000 7 366.930533
-0.343504 -1.084185 0.424022 28.000000 5 366.930535
-0.341243 -1.077045 0.305975 9.000000 3 366.930538
-0.341566 -1.077415 0.194221 13.000000 1 366.930540
-0.357528 -1.124373 1.131623 47.000000 14 366.930548
-0.354772 -1.115696 0.936014 46.000000 12 366.930551
-0.353477 -1.110954 0.770428 47.000000 10 366.930553
-0.353990 -1.112556 0.627175 42.000000 8 366.930556
-0.352598 -1.107513 0.493442 37.000000 6 366.930558
-0.351180 -1.102392 0.369765 16.000000 4 366.930561
-0.342867 -1.075649 0.249479 12.000000 2 366.930563
-0.352118 -1.104006 0.140421 28.000000 0 366.930566
-0.020552 -0.038662 3.464142 10.000000 31 366.930577
-0.177311 -0.509213 3.428269 16.000000 28 366.930579
-0.234674 -0.671345 3.442605 18.000000 27 366.930582
-0.326904 -0.997553 3.401074 39.000000 25 366.930584
-0.390328 -1.213613 3.062898 22.000000 23 366.930587
-0.379875 -1.181805 2.341264 36.000000 21 366.930589
-0.372215 -1.157967 1.859039 38.000000 19 366.930592
-0.367504 -1.143303 1.513940 39.000000 17 366.930594
-0.078310 -0.194696 3.458614 16.000000 30 366.930602
-0.132170 -0.352766 3.464886 17.000000 29 366.930605
-0.279957 -0.834390 3.423643 20.000000 26 366.930607
-0.375330 -1.160041 3.369821 20.000000 24 366.930610
-0.385572 -1.193101 2.655245 31.000000 22 366.930612
-0.378058 -1.170532 2.082195 38.000000 20 366.930615
-0.371355 -1.149772 1.674111 38.000000 18 366.930618
-0.364006 -1.127008 1.362202 39.000000 16 366.930620
-0.362180 -1.131474 1.247266 39.000000 15 366.930578
-0.359337 -1.122586 1.032465 44.000000 13 366.930580
-0.356516 -1.113104 0.850915 43.000000 11 366.930583
-0.357193 -1.115208 0.699275 40.000000 9 366.930586
-0.353965 -1.104468 0.556909 39.000000 7 366.930588
-0.347287 -1.082979 0.424022 28.000000 5 366.930591
-0.345000 -1.075848 0.305975 9.000000 3 366.930593
-0.345325 -1.076216 0.194221 13.000000 1 366.930596
-0.361451 -1.123118 1.131623 45.000000 14 366.930604
-0.358664 -1.114451 0.936014 50.000000 12 366.930606
-0.357353 -1.109713 0.770428 45.000000 10 366.930609
-0.357871 -1.111314 0.627175 42.000000 8 366.930611
-0.356462 -1.106275 0.493442 37.000000 6 366.930614
-0.353534 -1.096533 0.368592 16.000000 4 366.930616
-0.346620 -1.074445 0.249479 12.000000 2 366.930619
-0.355970 -1.102770 0.140421 28.000000 0 366.930621
-0.020711 -0.038626 3.469141 10.000000 31 366.930632
-0.179088 -0.508591 3.428269 15.000000 28 366.930635
-0.236676 -0.669562 3.437710 18.000000 27 366.930637
-0.330854 -0.997824 3.405846 25.000000 25 366.930640
-0.395166 -1.214101 3.067501 23.000000 23 366.930642
-0.383998 -1.180472 2.341264 35.000000 21 366.930645
-0.375384 -1.153984 1.854906 38.000000 19 366.930647
-0.371492 -1.142013 1.513940 39.000000 17 366.930650
-0.078989 -0.194421 3.458614 16.000000 30 366.930658
-0.133401 -0.352302 3.464886 17.000000 29 366.930660
-0.283273 -0.834599 3.428482 20.000000 26 366.930663
-0.379914 -1.160364 3.374514 23.000000 24 366.930665
-0.389735 -1.191748 2.655245 31.000000 22 366.930668
-0.382142 -1.169205 2.082195 37.000000 20 366.930671
-0.374430 -1.145603 1.670122 38.000000 18 366.930673
-0.367937 -1.125731 1.362202 39.000000 16 366.930676
-0.366127 -1.130203 1.247266 39.000000 15 366.930633
-0.363253 -1.121324 1.032465 46.000000 13 366.930636
-0.360400 -1.111853 0.850915 43.000000 11 366.930638
-0.361083 -1.113954 0.699275 40.000000 9 366.930641
-0.357819 -1.103226 0.556909 39.000000 7 366.930644
-0.351065 -1.081760 0.424022 28.000000 5 366.930646
-0.348753 -1.074637 0.305975 9.000000 3 366.930649
-0.349080 -1.075004 0.194221 13.000000 1 366.930651
-0.365369 -1.121849 1.131623 47.000000 14 366.930659
-0.362552 -1.113192 0.936014 50.000000 12 366.930662
-0.361224 -1.108459 0.770428 47.000000 10 366.930664
-0.363154 -1.114373 0.629273 43.000000 8 366.930667
-0.360321 -1.105024 0.493442 37.000000 6 366.930669
-0.357359 -1.095292 0.368592 16.000000 4 366.930672
-0.350368 -1.073229 0.249479 12.000000 2 366.930674
-0.358266 -1.096772 0.140219 30.000000 0 366.930677
-0.020845 -0.038553 3.469141 10.000000 31 366.930688
-0.180862 -0.507962 3.428269 13.000000 28 366.930690
-0.238669 -0.667773 3.432815 21.000000 27 366.930693
-0.334810 -0.998079 3.410618 22.000000 25 366.930695
-0.400013 -1.214569 3.072103 23.000000 23 366.930698
-0.388116 -1.179125 2.341264 35.000000 21 366.930700
-0.379410 -1.152667 1.854906 38.000000 19 366.930703
-0.375477 -1.140709 1.513940 38.000000 17 366.930706
-0.079667 -0.194145 3.458614 14.000000 30 366.930713
-0.134630 -0.351834 3.464886 17.000000 29 366.930716
-0.286184 -0.833605 3.428482 20.000000 26 366.930718
-0.384504 -1.160669 3.379206 25.000000 24 366.930721
-0.393892 -1.190380 2.655245 31.000000 22 366.930724
-0.386221 -1.167864 2.082195 37.000000 20 366.930726
-0.378427 -1.144289 1.670122 38.000000 18 366.930729
-0.371865 -1.124439 1.362202 40.000000 16 366.930731
-0.370070 -1.128918 1.247266 40.000000 15 366.930689
-0.367165 -1.120050 1.032465 46.000000 13 366.930691
-0.364278 -1.110588 0.850915 43.000000 11 366.930694
-0.364970 -1.112687 0.699275 40.000000 9 366.930697
-0.361667 -1.101970 0.556909 39.000000 7 366.930699
-0.354839 -1.080528 0.424022 28.000000 5 366.930702
-0.350970 -1.068746 0.305042 9.000000 3 366.930704
-0.352830 -1.073779 0.194221 13.000000 1 366.930707
-0.369283 -1.120567 1.131623 44.000000 14 366.930715
-0.366436 -1.111920 0.936014 50.000000 12 366.930717
-0.365091 -1.107191 0.770428 45.000000 10 366.930720
-0.367042 -1.113098 0.629273 43.000000 8 366.930722
-0.364176 -1.103760 0.493442 37.000000 6 366.930725
-0.361181 -1.094038 0.368592 16.000000 4 366.930727
-0.352559 -1.067297 0.248789 13.000000 2 366.930730
-0.362092 -1.095515 0.140219 29.000000 0 366.930732
-0.020980 -0.038480 3.469141 10.000000 31 366.930743
-0.182898 -0.508059 3.433208 13.000000 28 366.930746
-0.240652 -0.665979 3.427920 15.000000 27 366.930748
-0.338772 -0.998318 3.415389 22.000000 25 366.930751
-0.404250 -1.213166 3.072103 21.000000 23 366.930753
-0.392230 -1.177763 2.341264 36.000000 21 366.930756
-0.383431 -1.151335 1.854906 38.000000 19 366.930758
-0.379456 -1.139392 1.513940 38.000000 17 366.930761
-0.080310 -0.193879 3.458614 10.000000 30 366.930769
-0.135602 -0.350888 3.459915 18.000000 29 366.930771
-0.288947 -0.832652 3.428482 20.000000 26 366.930774
-0.388899 -1.161024 3.383899 38.000000 24 366.930776
-0.398045 -1.188998 2.655245 31.000000 22 366.930779
-0.390295 -1.166509 2.082195 38.000000 20 366.930782
-0.382419 -1.142962 1.670122 38.000000 18 366.930784
-0.375591 -1.123200 1.362202 39.000000 16 366.930787
-0.374008 -1.127620 1.247266 40.000000 15 366.930744
-0.371073 -1.118761 1.032465 46.000000 13 366.930747
-0.368153 -1.109310 0.850915 43.000000 11 366.930750
-0.368851 -1.111406 0.699275 40.000000 9 366.930752
-0.365320 -1.100765 0.556909 39.000000 7 366.930755
-0.358420 -1.079345 0.424022 28.000000 5 366.930757
-0.354698 -1.067514 0.305042 9.000000 3 366.930760
-0.356576 -1.072541 0.194221 13.000000 1 366.930762
-0.373192 -1.119271 1.131623 44.000000 14 366.930770
-0.370315 -1.110634 0.936014 50.000000 12 366.930773
-0.368761 -1.105974 0.770428 47.000000 10 366.930775
-0.370731 -1.111875 0.629273 43.000000 8 366.930778
-0.367834 -1.102546 0.493442 37.000000 6 366.930780
-0.364807 -1.092835 0.368592 16.000000 4 366.930783
-0.356096 -1.066122 0.248789 13.000000 2 366.930785
-0.365723 -1.094308 0.140219 28.000000 0 366.930788
-0.021107 -0.038411 3.469141 10.000000 31 366.930799
-0.184848 -0.508179 3.438148 18.000000 28 366.930801
-0.242509 -0.664221 3.423024 12.000000 27 366.930804
-0.342566 -0.998602 3.420161 21.000000 25 366.930806
-0.408271 -1.211818 3.072103 21.000000 23 366.930809
-0.396898 -1.178726 2.345653 36.000000 21 366.930811
-0.387247 -1.150058 1.854906 38.000000 19 366.930814
-0.382209 -1.135089 1.510103 39.000000 17 366.930817
-0.080987 -0.193598 3.458614 10.000000 30 366.930824
-0.136826 -0.350413 3.459915 17.000000 29 366.930827
-0.291852 -0.831638 3.428482 18.000000 26 366.930829
-0.393504 -1.161294 3.388592 27.000000 24 366.930832
-0.401287 -1.185609 2.650744 31.000000 22 366.930835
-0.394161 -1.165208 2.082195 38.000000 20 366.930837
-0.386207 -1.141687 1.670122 38.000000 18 366.930840
-0.379510 -1.121882 1.362202 39.000000 16 366.930842
-0.377746 -1.126373 1.247266 40.000000 15 366.930800
-0.374781 -1.117524 1.032465 46.000000 13 366.930802
-0.370499 -1.104119 0.848173 43.000000 11 366.930805
-0.372535 -1.110177 0.699275 40.000000 9 366.930808
-0.369160 -1.099483 0.556909 39.000000 7 366.930810
-0.360658 -1.073540 0.422613 28.000000 5 366.930813
-0.358236 -1.066332 0.305042 8.000000 3 366.930815
-0.360131 -1.071352 0.194221 13.000000 1 366.930818
-0.376902 -1.118028 1.131623 47.000000 14 366.930826
-0.372704 -1.105569 0.933071 50.000000 12 366.930828
-0.372619 -1.104680 0.770428 45.000000 10 366.930831
-0.373160 -1.106274 0.627175 42.000000 8 366.930833
-0.371681 -1.101255 0.493442 37.000000 6 366.930836
-0.368619 -1.091555 0.368592 16.000000 4 366.930838
-0.359815 -1.064873 0.248789 13.000000 2 366.930841
-0.369540 -1.093024 0.140219 28.000000 0 366.930844
-0.021241 -0.038337 3.469141 10.000000 31 366.930854
-0.186889 -0.508260 3.443087 22.000000 28 366.930857
-0.245179 -0.664325 3.427920 12.000000 27 366.930859
-0.346049 -0.997400 3.420161 21.000000 25 366.930862
-0.411869 -1.208537 3.067501 22.000000 23 366.930864
-0.401010 -1.177333 2.345653 35.000000 21 366.930867
-0.391259 -1.148699 1.854906 38.000000 19 366.930870
-0.386169 -1.133748 1.510103 39.000000 17 366.930872
-0.081662 -0.193314 3.458614 10.000000 30 366.930880
-0.137852 -0.349437 3.454944 16.000000 29 366.930882
-0.294753 -0.830614 3.428482 12.000000 26 366.930885
-0.398114 -1.161545 3.393285 26.000000 24 366.930888
-0.405424 -1.184201 2.650744 31.000000 22 366.930890
-0.398226 -1.163825 2.082195 38.000000 20 366.930893
-0.390190 -1.140332 1.670122 38.000000 18 366.930895
-0.383424 -1.120551 1.362202 40.000000 16 366.930898
-0.381675 -1.125048 1.247266 39.000000 15 366.930855
-0.378679 -1.116209 1.032465 46.000000 13 366.930858
-0.374351 -1.102819 0.848173 43.000000 11 366.930861
-0.376408 -1.108870 0.699275 40.000000 9 366.930863
-0.372995 -1.098187 0.556909 39.000000 7 366.930866
-0.364403 -1.072275 0.422613 28.000000 5 366.930868
-0.361956 -1.065075 0.305042 8.000000 3 366.930871
-0.363868 -1.070089 0.194221 13.000000 1 366.930873
-0.380802 -1.116705 1.131623 47.000000 14 366.930881
-0.376561 -1.104262 0.933071 50.000000 12 366.930884
-0.376473 -1.103373 0.770428 47.000000 10 366.930886
-0.377019 -1.104964 0.627175 42.000000 8 366.930889
-0.375523 -1.099951 0.493442 37.000000 6 366.930891
-0.372427 -1.090261 0.368592 16.000000 4 366.930894
-0.363530 -1.063610 0.248789 13.000000 2 366.930896
-0.373354 -1.091728 0.140219 28.000000 0 366.930899
-0.021375 -0.038262 3.469141 10.000000 31 366.930910
-0.188933 -0.508333 3.448026 21.000000 28 366.930912
-0.247853 -0.664419 3.432815 15.000000 27 366.930915
-0.350023 -0.997595 3.424933 17.000000 25 366.930917
-0.415448 -1.205245 3.062898 21.000000 23 366.930920
-0.405117 -1.175927 2.345653 35.000000 21 366.930922
-0.395267 -1.147326 1.854906 38.000000 19 366.930925
-0.390124 -1.132393 1.510103 39.000000 17 366.930928
-0.082336 -0.193028 3.458614 10.000000 30 366.930935
-0.138872 -0.348458 3.449972 15.000000 29 366.930938
-0.297650 -0.829580 3.428482 12.000000 26 366.930940
-0.403297 -1.163410 3.402670 23.000000 24 366.930943
-0.409555 -1.182778 2.650744 30.000000 22 366.930946
-0.402286 -1.162428 2.082195 38.000000 20 366.930948
-0.394168 -1.138963 1.670122 38.000000 18 366.930951
-0.387333 -1.119205 1.362202 40.000000 16 366.930953
-0.385600 -1.123709 1.247266 40.000000 15 366.930911
-0.381310 -1.111199 1.029328 44.000000 13 366.930914
-0.378198 -1.101505 0.848173 43.000000 11 366.930916
-0.380276 -1.107549 0.699275 40.000000 9 366.930919
-0.376827 -1.096879 0.556909 39.000000 7 366.930921
-0.368144 -1.070996 0.422613 27.000000 5 366.930924
-0.365672 -1.063805 0.305042 8.000000 3 366.930926
-0.367602 -1.068812 0.194221 13.000000 1 366.930929
-0.384698 -1.115369 1.131623 44.000000 14 366.930937
-0.380414 -1.102941 0.933071 50.000000 12 366.930939
-0.380322 -1.102052 0.770428 49.000000 10 366.930942
-0.380874 -1.103642 0.627175 42.000000 8 366.930944
-0.377819 -1.094170 0.491800 37.000000 6 366.930947
-0.376230 -1.088955 0.368592 16.000000 4 366.930949
-0.367241 -1.062335 0.248789 12.000000 2 366.930952
-0.377162 -1.090418 0.140219 29.000000 0 366.930955
-0.021533 -0.038224 3.474141 10.000000 31 366.930965
-0.190433 -0.506943 3.443087 21.000000 28 366.930968
-0.250531 -0.664502 3.437710 18.000000 27 366.930970
-0.353004 -0.994960 3.420161 15.000000 25 366.930973
-0.419009 -1.201942 3.058296 21.000000 23 366.930975
-0.408431 -1.172243 2.341264 35.000000 21 366.930978
-0.399269 -1.145939 1.854906 38.000000 19 366.930981
-0.394075 -1.131024 1.510103 39.000000 17 366.930983
-0.082976 -0.192754 3.458614 11.000000 30 366.930991
-0.140027 -0.347995 3.449972 12.000000 29 366.930993
-0.300400 -0.828589 3.428482 17.000000 26 366.930996
-0.407723 -1.163694 3.407363 17.000000 24 366.930999
-0.413681 -1.181342 2.650744 30.000000 22 366.931001
-0.405480 -1.158555 2.077929 37.000000 20 366.931004
-0.398141 -1.137580 1.670122 38.000000 18 366.931006
-0.391042 -1.117915 1.362202 40.000000 16 366.931009
-0.389520 -1.122356 1.247266 40.000000 15 366.930966
-0.385186 -1.109861 1.029328 44.000000 13 366.930969
-0.382041 -1.100178 0.848173 43.000000 11 366.930972
-0.384140 -1.106215 0.699275 40.000000 9 366.930974
-0.380462 -1.095623 0.556909 39.000000 7 366.930977
-0.371693 -1.069770 0.422613 27.000000 5 366.930979
-0.369383 -1.062522 0.305042 8.000000 3 366.930982
-0.371330 -1.067522 0.194221 14.000000 1 366.930984
-0.388589 -1.114020 1.131623 47.000000 14 366.930992
-0.384261 -1.101606 0.933071 50.000000 12 366.930995
-0.383975 -1.100785 0.770428 49.000000 10 366.930997
-0.384531 -1.102373 0.627175 40.000000 8 366.931000
-0.381445 -1.092911 0.491800 37.000000 6 366.931002
-0.379839 -1.087701 0.368592 16.000000 4 366.931005
-0.370762 -1.061111 0.248789 12.000000 2 366.931008
-0.380776 -1.089161 0.140219 29.000000 0 366.931010
-0.021660 -0.038152 3.474141 10.000000 31 366.931021
-0.191837 -0.505583 3.438148 17.000000 28 366.931023
-0.253096 -0.664619 3.442605 18.000000 27 366.931026
-0.356301 -0.993784 3.420161 15.000000 25 366.931028
-0.422344 -1.198704 3.053693 21.000000 23 366.931031
-0.412316 -1.170882 2.341264 35.000000 21 366.931034
-0.402132 -1.141955 1.850773 38.000000 19 366.931036
-0.397823 -1.129711 1.510103 39.000000 17 366.931039
-0.083531 -0.192198 3.453622 12.000000 30 366.931046
-0.141241 -0.347505 3.449972 12.000000 29 366.931049
-0.303290 -0.827535 3.428482 20.000000 26 366.931052
-0.412359 -1.163891 3.412056 17.000000 24 366.931054
-0.416870 -1.177910 2.646243 30.000000 22 366.931057
-0.409319 -1.157204 2.077929 37.000000 20 366.931059
-0.400906 -1.133412 1.666132 38.000000 18 366.931062
-0.394942 -1.116543 1.362202 39.000000 16 366.931064
-0.392059 -1.117693 1.243761 39.000000 15 366.931022
-0.388865 -1.108578 1.029328 44.000000 13 366.931025
-0.385687 -1.098905 0.848173 43.000000 11 366.931027
-0.387806 -1.104935 0.699275 40.000000 9 366.931030
-0.382748 -1.089914 0.555036 39.000000 7 366.931032
-0.375425 -1.068465 0.422613 28.000000 5 366.931035
-0.372904 -1.061292 0.305042 8.000000 3 366.931037
-0.373216 -1.061587 0.193775 12.000000 1 366.931040
-0.392281 -1.112725 1.131623 44.000000 14 366.931048
-0.387912 -1.100326 0.933071 50.000000 12 366.931050
-0.387815 -1.099438 0.770428 47.000000 10 366.931053
-0.388377 -1.101024 0.627175 40.000000 8 366.931055
-0.385258 -1.091573 0.491800 37.000000 6 366.931058
-0.383634 -1.086368 0.368592 16.000000 4 366.931060
-0.374463 -1.059810 0.248789 12.000000 2 366.931063
-0.384576 -1.087826 0.140219 29.000000 0 366.931066
-0.021793 -0.038076 3.474141 10.000000 31 366.931076
-0.193322 -0.504185 3.433208 13.000000 28 366.931079
-0.255414 -0.663732 3.442605 16.000000 27 366.931081
-0.359768 -0.992534 3.420161 14.000000 25 366.931084
-0.426525 -1.197222 3.053693 21.000000 23 366.931086
-0.415597 -1.167179 2.336876 35.000000 21 366.931089
-0.406116 -1.140544 1.850773 38.000000 19 366.931091
-0.401764 -1.128315 1.510103 39.000000 17 366.931094
-0.084202 -0.191905 3.453622 13.000000 30 366.931102
-0.142249 -0.346516 3.445001 13.000000 29 366.931104
-0.305740 -0.825292 3.423643 17.000000 26 366.931107
-0.417002 -1.164069 3.416749 22.000000 24 366.931109
-0.420979 -1.176448 2.646243 30.000000 22 366.931112
-0.412478 -1.153313 2.073663 37.000000 20 366.931114
-0.404860 -1.132006 1.666132 38.000000 18 366.931117
-0.398837 -1.115157 1.362202 39.000000 16 366.931120
-0.395958 -1.116317 1.243761 39.000000 15 366.931077
-0.392732 -1.107213 1.029328 44.000000 13 366.931080
-0.389521 -1.097552 0.848173 43.000000 11 366.931082
-0.391661 -1.103575 0.699275 40.000000 9 366.931085
-0.386550 -1.088572 0.555036 39.000000 7 366.931088
-0.379153 -1.067149 0.422613 28.000000 5 366.931090
-0.376607 -1.059983 0.305042 8.000000 3 366.931093
-0.376920 -1.060278 0.193775 13.000000 1 366.931095
-0.396162 -1.111349 1.131623 44.000000 14 366.931103
-0.391751 -1.098965 0.933071 50.000000 12 366.931106
-0.391650 -1.098077 0.770428 47.000000 10 366.931108
-0.392218 -1.099661 0.627175 42.000000 8 366.931111
-0.389066 -1.090221 0.491800 37.000000 6 366.931113
-0.387424 -1.085023 0.368592 16.000000 4 366.931116
-0.378160 -1.058497 0.248789 13.000000 2 366.931118
-0.388371 -1.086476 0.140219 29.000000 0 366.931121
-0.021901 -0.037964 3.469141 10.000000 31 366.931132
-0.194799 -0.502782 3.428269 13.000000 28 366.931134
-0.257360 -0.661887 3.437710 12.000000 27 366.931137
-0.362717 -0.989870 3.415389 14.000000 25 366.931139
-0.430702 -1.195726 3.053693 22.000000 23 366.931142
-0.419669 -1.165721 2.336876 35.000000 21 366.931144
-0.410095 -1.139120 1.850773 38.000000 19 366.931147
-0.405700 -1.126906 1.510103 39.000000 17 366.931149
-0.084871 -0.191610 3.453622 14.000000 30 366.931157
-0.143663 -0.346510 3.449972 14.000000 29 366.931160
-0.308619 -0.824220 3.423643 13.000000 26 366.931162
-0.421062 -1.162606 3.416749 17.000000 24 366.931165
-0.425083 -1.174971 2.646243 30.000000 22 366.931167
-0.416501 -1.151866 2.073663 37.000000 20 366.931170
-0.408809 -1.130586 1.666132 37.000000 18 366.931173
-0.402727 -1.113759 1.362202 39.000000 16 366.931175
-0.399853 -1.114928 1.243761 40.000000 15 366.931133
-0.396594 -1.105836 1.029328 46.000000 13 366.931135
-0.393350 -1.096186 0.848173 43.000000 11 366.931138
-0.395511 -1.102201 0.699275 40.000000 9 366.931140
-0.390348 -1.087216 0.555036 39.000000 7 366.931143
-0.382875 -1.065819 0.422613 28.000000 5 366.931146
-0.380305 -1.058662 0.305042 8.000000 3 366.931148
-0.380619 -1.058956 0.193775 12.000000 1 366.931151
-0.400039 -1.109959 1.131623 47.000000 14 366.931158
-0.395584 -1.097591 0.933071 50.000000 12 366.931161
-0.395481 -1.096704 0.770428 47.000000 10 366.931164
-0.396054 -1.098285 0.627175 40.000000 8 366.931166
-0.392869 -1.088857 0.491800 37.000000 6 366.931169
-0.391209 -1.083664 0.368592 16.000000 4 366.931171
-0.381853 -1.057170 0.248789 13.000000 2 366.931174
-0.392161 -1.085114 0.140219 28.000000 0 366.931176
-0.022033 -0.037887 3.469141 9.000000 31 366.931187
-0.196269 -0.501376 3.423330 15.000000 28 366.931190
-0.259296 -0.660037 3.432815 12.000000 27 366.931192
-0.366170 -0.988598 3.415389 20.000000 25 366.931195
-0.434873 -1.194215 3.053693 21.000000 23 366.931197
-0.422916 -1.161998 2.332487 35.000000 21 366.931200
-0.414068 -1.137681 1.850773 38.000000 19 366.931202
-0.408535 -1.122471 1.506266 39.000000 17 366.931205
-0.085659 -0.191576 3.458614 14.000000 30 366.931213
-0.144872 -0.346006 3.449972 16.000000 29 366.931215
-0.311048 -0.821961 3.418804 13.000000 26 366.931218
-0.424525 -1.159509 3.412056 16.000000 24 366.931220
-0.429181 -1.173481 2.646243 30.000000 22 366.931223
-0.420519 -1.150405 2.073663 37.000000 20 366.931226
-0.412753 -1.129152 1.666132 37.000000 18 366.931228
-0.406612 -1.112346 1.362202 39.000000 16 366.931231
-0.403742 -1.113526 1.243761 40.000000 15 366.931188
-0.400452 -1.104445 1.029328 44.000000 13 366.931191
-0.397174 -1.094806 0.848173 43.000000 11 366.931193
-0.397845 -1.096649 0.696957 40.000000 9 366.931196
-0.394140 -1.085846 0.555036 39.000000 7 366.931199
-0.386593 -1.064476 0.422613 28.000000 5 366.931201
-0.383998 -1.057328 0.305042 8.000000 3 366.931204
-0.384313 -1.057621 0.193775 12.000000 1 366.931206
-0.403911 -1.108556 1.131623 47.000000 14 366.931214
-0.399413 -1.096203 0.933071 48.000000 12 366.931217
-0.399307 -1.095316 0.770428 47.000000 10 366.931219
-0.399885 -1.096896 0.627175 42.000000 8 366.931222
-0.396667 -1.087479 0.491800 37.000000 6 366.931224
-0.393323 -1.077726 0.367420 16.000000 4 366.931227
-0.387240 -1.060483 0.249479 12.000000 2 366.931229
-0.395946 -1.083739 0.140219 28.000000 0 366.931232
-0.022140 -0.037775 3.464142 8.000000 31 366.931243
-0.198018 -0.500688 3.423330 17.000000 28 366.931245
-0.260846 -0.657236 3.423024 15.000000 27 366.931248
-0.369618 -0.987314 3.415389 20.000000 25 366.931250
-0.439714 -1.194523 3.058296 21.000000 23 366.931253
-0.426970 -1.160514 2.332487 35.000000 21 366.931255
-0.418037 -1.136229 1.850773 38.000000 19 366.931258
-0.412451 -1.121038 1.506266 39.000000 17 366.931260
-0.086327 -0.191276 3.458614 17.000000 30 366.931268
-0.145870 -0.345007 3.445001 20.000000 29 366.931271
-0.313017 -0.818521 3.409126 15.000000 26 366.931273
-0.427971 -1.156401 3.407363 16.000000 24 366.931276
-0.433275 -1.171975 2.646243 30.000000 22 366.931278
-0.424533 -1.148930 2.073663 37.000000 20 366.931281
-0.416692 -1.127704 1.666132 37.000000 18 366.931284
-0.410493 -1.110920 1.362202 39.000000 16 366.931286
-0.407627 -1.112110 1.243761 39.000000 15 366.931244
-0.404305 -1.103040 1.029328 44.000000 13 366.931246
-0.400993 -1.093413 0.848173 42.000000 11 366.931249
-0.401670 -1.095253 0.696957 40.000000 9 366.931252
-0.397928 -1.084464 0.555036 39.000000 7 366.931254
-0.390307 -1.063120 0.422613 28.000000 5 366.931257
-0.387686 -1.055982 0.305042 8.000000 3 366.931259
-0.386285 -1.051598 0.193329 13.000000 1 366.931262
-0.407779 -1.107139 1.131623 47.000000 14 366.931270
-0.403237 -1.094802 0.933071 50.000000 12 366.931272
-0.403128 -1.093916 0.770428 47.000000 10 366.931275
-0.403712 -1.095494 0.627175 42.000000 8 366.931277
-0.400461 -1.086087 0.491800 37.000000 6 366.931280
-0.397082 -1.076346 0.367420 16.000000 4 366.931282
-0.390939 -1.059124 0.249479 12.000000 2 366.931285
-0.399727 -1.082350 0.140219 29.000000 0 366.931287
-0.022271 -0.037697 3.464142 11.000000 31 366.931298
-0.199476 -0.499272 3.418391 27.000000 28 366.931301
-0.262759 -0.655377 3.418129 23.000000 27 366.931303
-0.372534 -0.984621 3.410618 23.000000 25 366.931306
-0.443881 -1.192981 3.058296 22.000000 23 366.931308
-0.431018 -1.159017 2.332487 35.000000 21 366.931311
-0.422001 -1.134763 1.850773 38.000000 19 366.931313
-0.416361 -1.119591 1.506266 39.000000 17 366.931316
-0.086994 -0.190974 3.458614 23.000000 30 366.931324
-0.146863 -0.344005 3.440030 27.000000 29 366.931326
-0.315418 -0.816250 3.404286 27.000000 26 366.931329
-0.430795 -1.151668 3.397978 28.000000 24 366.931331
-0.437363 -1.170456 2.646243 30.000000 22 366.931334
-0.428540 -1.147441 2.073663 37.000000 20 366.931337
-0.420626 -1.126243 1.666132 37.000000 18 366.931339
-0.414368 -1.109480 1.362202 39.000000 16 366.931342
-0.411506 -1.110680 1.243761 39.000000 15 366.931299
-0.408153 -1.101622 1.029328 44.000000 13 366.931302
-0.404807 -1.092007 0.848173 42.000000 11 366.931304
-0.405491 -1.093845 0.696957 40.000000 9 366.931307
-0.401711 -1.083068 0.555036 39.000000 7 366.931310
-0.392346 -1.057253 0.421203 28.000000 5 366.931312
-0.389661 -1.050017 0.304110 8.000000 3 366.931315
-0.389953 -1.050243 0.193329 13.000000 1 366.931317
-0.411641 -1.105709 1.131623 47.000000 14 366.931325
-0.407056 -1.093388 0.933071 48.000000 12 366.931328
-0.406944 -1.092502 0.770428 47.000000 10 366.931330
-0.407533 -1.094078 0.627175 42.000000 8 366.931333
-0.404249 -1.084683 0.491800 37.000000 6 366.931335
-0.400837 -1.074953 0.367420 16.000000 4 366.931338
-0.394634 -1.057753 0.249479 11.000000 2 366.931340
-0.403502 -1.080948 0.140219 29.000000 0 366.931343
-0.022377 -0.037584 3.459142 11.000000 31 366.931354
-0.200926 -0.497853 3.413451 29.000000 28 366.931356
-0.264662 -0.653512 3.413234 29.000000 27 366.931359
-0.375435 -0.981919 3.405846 31.000000 25 366.931361
-0.448042 -1.191424 3.058296 22.000000 23 366.931364
-0.435904 -1.159748 2.336876 35.000000 21 366.931366
-0.425959 -1.133283 1.850773 38.000000 19 366.931369
-0.420267 -1.118131 1.506266 39.000000 17 366.931372
-0.087783 -0.190931 3.463606 28.000000 30 366.931379
-0.147850 -0.343001 3.435058 29.000000 29 366.931382
-0.317808 -0.813972 3.399447 33.000000 26 366.931384
-0.434203 -1.148543 3.393285 37.000000 24 366.931387
-0.442216 -1.170959 2.650744 30.000000 22 366.931390
-0.433464 -1.148378 2.077929 37.000000 20 366.931392
-0.424555 -1.124768 1.666132 38.000000 18 366.931395
-0.418238 -1.108027 1.362202 39.000000 16 366.931397
-0.415381 -1.109237 1.243761 40.000000 15 366.931355
-0.411996 -1.100191 1.029328 40.000000 13 366.931357
-0.408616 -1.090587 0.848173 42.000000 11 366.931360
-0.409307 -1.092422 0.696957 39.000000 9 366.931363
-0.405489 -1.081659 0.555036 39.000000 7 366.931365
-0.396034 -1.055877 0.421203 27.000000 5 366.931368
-0.393324 -1.048650 0.304110 8.000000 3 366.931370
-0.393617 -1.048876 0.193329 14.000000 1 366.931373
-0.415498 -1.104265 1.131623 47.000000 14 366.931381
-0.410871 -1.091960 0.933071 48.000000 12 366.931383
-0.409236 -1.087040 0.767895 47.000000 10 366.931386
-0.409751 -1.088401 0.625077 43.000000 8 366.931388
-0.408033 -1.083265 0.491800 37.000000 6 366.931391
-0.404587 -1.073548 0.367420 16.000000 4 366.931393
-0.400071 -1.061003 0.250168 11.000000 2 366.931396
-0.407273 -1.079533 0.140219 30.000000 0 366.931398
-0.022508 -0.037506 3.459142 11.000000 31 366.931409
-0.202369 -0.496429 3.408512 35.000000 28 366.931412
-0.266942 -0.652584 3.413234 36.000000 27 366.931414
-0.378322 -0.979210 3.401074 39.000000 25 366.931417
-0.452199 -1.189853 3.058296 22.000000 23 366.931419
-0.439950 -1.158219 2.336876 35.000000 21 366.931422
-0.429913 -1.131789 1.850773 38.000000 19 366.931424
-0.424167 -1.116657 1.506266 39.000000 17 366.931427
-0.088169 -0.190115 3.453622 31.000000 30 366.931435
-0.148773 -0.342019 3.430087 32.000000 29 366.931437
-0.320505 -0.812914 3.399447 39.000000 26 366.931440
-0.437393 -1.145485 3.388592 38.000000 24 366.931442
-0.446300 -1.169408 2.650744 31.000000 22 366.931445
-0.437470 -1.146858 2.077929 37.000000 20 366.931448
-0.428478 -1.123279 1.666132 38.000000 18 366.931450
-0.421910 -1.106634 1.362202 39.000000 16 366.931453
-0.419250 -1.107780 1.243761 40.000000 15 366.931410
-0.415834 -1.098746 1.029328 40.000000 13 366.931413
-0.412421 -1.089154 0.848173 42.000000 11 366.931416
-0.413118 -1.090987 0.696957 39.000000 9 366.931418
-0.409074 -1.080309 0.555036 39.000000 7 366.931421
-0.399534 -1.054558 0.421203 28.000000 5 366.931423
-0.396982 -1.047271 0.304110 8.000000 3 366.931426
-0.397276 -1.047495 0.193329 14.000000 1 366.931428
-0.418023 -1.099318 1.128298 44.000000 14 366.931436
-0.414680 -1.090520 0.933071 50.000000 12 366.931439
-0.412838 -1.085677 0.767895 47.000000 10 366.931441
-0.413358 -1.087036 0.625077 42.000000 8 366.931444
-0.411623 -1.081906 0.491800 37.000000 6 366.931446
-0.408145 -1.072200 0.367420 16.000000 4 366.931449
-0.403587 -1.059671 0.250168 11.000000 2 366.931451
-0.410851 -1.078177 0.140219 30.000000 0 366.931454
-0.022633 -0.037431 3.459142 11.000000 31 366.931465
-0.203718 -0.495037 3.403573 43.000000 28 366.931467
-0.268715 -0.650754 3.408339 37.000000 27 366.931470
-0.381024 -0.976558 3.396302 39.000000 25 366.931472
-0.456142 -1.188347 3.058296 22.000000 23 366.931475
-0.443788 -1.156754 2.336876 35.000000 21 366.931477
-0.433663 -1.130357 1.850773 38.000000 19 366.931480
-0.427868 -1.115245 1.506266 39.000000 17 366.931483
-0.088584 -0.189283 3.443639 32.000000 30 366.931490
-0.149750 -0.341009 3.425115 36.000000 29 366.931493
-0.322875 -0.810622 3.394608 39.000000 26 366.931495
-0.440768 -1.142341 3.383899 39.000000 24 366.931498
-0.450959 -1.169954 2.655245 31.000000 22 366.931501
-0.441271 -1.145401 2.077929 38.000000 20 366.931503
-0.432201 -1.121852 1.666132 38.000000 18 366.931506
-0.425771 -1.105155 1.362202 39.000000 16 366.931508
-0.422921 -1.106384 1.243761 40.000000 15 366.931466
-0.419475 -1.097361 1.029328 44.000000 13 366.931468
-0.416030 -1.087781 0.848173 40.000000 11 366.931471
-0.416733 -1.089611 0.696957 39.000000 9 366.931474
-0.412843 -1.078874 0.555036 39.000000 7 366.931476
-0.404927 -1.057637 0.422613 28.000000 5 366.931479
-0.402209 -1.050536 0.305042 8.000000 3 366.931481
-0.400747 -1.046172 0.193329 13.000000 1 366.931484
-0.421666 -1.097926 1.128298 44.000000 14 366.931492
-0.418294 -1.089139 0.933071 50.000000 12 366.931494
-0.416625 -1.084229 0.767895 45.000000 10 366.931497
-0.417150 -1.085587 0.625077 40.000000 8 366.931499
-0.415397 -1.080463 0.491800 37.000000 6 366.931502
-0.413630 -1.075305 0.368592 15.000000 4 366.931504
-0.407283 -1.058255 0.250168 12.000000 2 366.931507
-0.414612 -1.076736 0.140219 28.000000 0 366.931510
-0.022789 -0.037387 3.464142 11.000000 31 366.931520
-0.205146 -0.493605 3.398634 44.000000 28 366.931523
-0.270985 -0.649812 3.408339 38.000000 27 366.931525
-0.384430 -0.975222 3.396302 38.000000 25 366.931528
-0.460994 -1.188569 3.062898 22.000000 23 366.931530
-0.447823 -1.155198 2.336876 35.000000 21 366.931533
-0.437606 -1.128837 1.850773 38.000000 19 366.931536
-0.431758 -1.113744 1.506266 39.000000 17 366.931538
-0.089119 -0.188711 3.438648 33.000000 30 366.931546
-0.150722 -0.339997 3.420144 39.000000 29 366.931548
-0.325703 -0.809490 3.394608 39.000000 26 366.931551
-0.444753 -1.140795 3.383899 39.000000 24 366.931554
-0.455040 -1.168373 2.655245 31.000000 22 366.931556
-0.445266 -1.143854 2.077929 37.000000 20 366.931559
-0.436114 -1.120336 1.666132 38.000000 18 366.931561
-0.430856 -1.106821 1.365877 39.000000 16 366.931564
-0.426781 -1.104901 1.243761 40.000000 15 366.931521
-0.423303 -1.095890 1.029328 44.000000 13 366.931524
-0.419825 -1.086322 0.848173 42.000000 11 366.931527
-0.420534 -1.088150 0.696957 38.000000 9 366.931529
-0.416606 -1.077427 0.555036 39.000000 7 366.931532
-0.408617 -1.056217 0.422613 28.000000 5 366.931534
-0.405873 -1.049126 0.305042 8.000000 3 366.931537
-0.406194 -1.049411 0.193775 13.000000 1 366.931539
-0.425496 -1.096447 1.128298 44.000000 14 366.931547
-0.422093 -1.087672 0.933071 50.000000 12 366.931550
-0.420408 -1.082769 0.767895 45.000000 10 366.931552
-0.420937 -1.084124 0.625077 40.000000 8 366.931555
-0.420876 -1.083408 0.493442 37.000000 6 366.931557
-0.417381 -1.073855 0.368592 15.000000 4 366.931560
-0.409180 -1.052212 0.249479 12.000000 2 366.931562
-0.418368 -1.075282 0.140219 28.000000 0 366.931565
-0.022919 -0.037307 3.464142 11.000000 31 366.931576
-0.206868 -0.492886 3.398634 44.000000 28 366.931578
-0.272856 -0.647924 3.403444 38.000000 27 366.931581
-0.387279 -0.972487 3.391531 38.000000 25 366.931583
-0.465140 -1.186953 3.062898 22.000000 23 366.931586
-0.451853 -1.153627 2.336876 35.000000 21 366.931588
-0.442570 -1.129922 1.854906 38.000000 19 366.931591
-0.435643 -1.112230 1.506266 39.000000 17 366.931594
-0.089651 -0.188138 3.433656 36.000000 30 366.931601
-0.151689 -0.338982 3.415172 40.000000 29 366.931604
-0.328527 -0.808348 3.394608 39.000000 26 366.931606
-0.448732 -1.139236 3.383899 39.000000 24 366.931609
-0.459116 -1.166777 2.655245 31.000000 22 366.931612
-0.449257 -1.142293 2.077929 37.000000 20 366.931614
-0.440022 -1.118807 1.666132 38.000000 18 366.931617
-0.434717 -1.105310 1.365877 39.000000 16 366.931619
-0.430635 -1.103404 1.243761 40.000000 15 366.931577
-0.427126 -1.094406 1.029328 44.000000 13 366.931580
-0.423614 -1.084850 0.848173 42.000000 11 366.931582
-0.424330 -1.086675 0.696957 38.000000 9 366.931585
-0.420364 -1.075966 0.555036 39.000000 7 366.931587
-0.412301 -1.054784 0.422613 28.000000 5 366.931590
-0.411321 -1.052278 0.305975 8.000000 3 366.931592
-0.409855 -1.047987 0.193775 13.000000 1 366.931595
-0.429320 -1.094955 1.128298 44.000000 14 366.931603
-0.425887 -1.086192 0.933071 50.000000 12 366.931605
-0.424185 -1.081294 0.767895 47.000000 10 366.931608
-0.424718 -1.082648 0.625077 40.000000 8 366.931610
-0.424656 -1.081932 0.493442 37.000000 6 366.931613
-0.421127 -1.072392 0.368592 15.000000 4 366.931615
-0.412850 -1.050777 0.249479 12.000000 2 366.931618
-0.422118 -1.073815 0.140219 29.000000 0 366.931621
-0.023049 -0.037227 3.464142 12.000000 31 366.931631
-0.208891 -0.492876 3.403573 44.000000 28 366.931634
-0.275116 -0.646968 3.403444 38.000000 27 366.931636
-0.390672 -0.971129 3.391531 38.000000 25 366.931639
-0.469280 -1.185322 3.062898 19.000000 23 366.931641
-0.455877 -1.152043 2.336876 35.000000 21 366.931644
-0.446512 -1.128371 1.854906 38.000000 19 366.931647
-0.440703 -1.113684 1.510103 39.000000 17 366.931649
-0.090181 -0.187564 3.428664 38.000000 30 366.931657
-0.152872 -0.338450 3.415172 40.000000 29 366.931659
-0.331346 -0.807196 3.394608 38.000000 26 366.931662
-0.452706 -1.137663 3.383899 39.000000 24 366.931665
-0.463186 -1.165167 2.655245 30.000000 22 366.931667
-0.453241 -1.140718 2.077929 37.000000 20 366.931670
-0.443925 -1.117264 1.666132 38.000000 18 366.931672
-0.438572 -1.103786 1.365877 39.000000 16 366.931675
-0.434484 -1.101894 1.243761 40.000000 15 366.931632
-0.430943 -1.092908 1.029328 44.000000 13 366.931635
-0.428933 -1.087254 0.850915 42.000000 11 366.931638
-0.428120 -1.085187 0.696957 38.000000 9 366.931640
-0.424118 -1.074492 0.555036 39.000000 7 366.931643
-0.415981 -1.053339 0.422613 28.000000 5 366.931645
-0.414992 -1.050835 0.305975 8.000000 3 366.931648
-0.413511 -1.046550 0.193775 14.000000 1 366.931650
-0.433140 -1.093450 1.128298 47.000000 14 366.931658
-0.429676 -1.084699 0.933071 50.000000 12 366.931661
-0.427956 -1.079807 0.767895 47.000000 10 366.931663
-0.428495 -1.081159 0.625077 42.000000 8 366.931666
-0.428430 -1.080444 0.493442 37.000000 6 366.931668
-0.424868 -1.070915 0.368592 16.000000 4 366.931671
-0.416516 -1.049330 0.249479 12.000000 2 366.931674
-0.425864 -1.072335 0.140219 28.000000 0 366.931676
-0.023206 -0.037181 3.469141 12.000000 31 366.931687
-0.210610 -0.492144 3.403573 48.000000 28 366.931689
-0.277373 -0.646004 3.403444 37.000000 27 366.931692
-0.394059 -0.969760 3.391531 38.000000 25 366.931694
-0.473415 -1.183677 3.062898 19.000000 23 366.931697
-0.459896 -1.150445 2.336876 35.000000 21 366.931700
-0.450448 -1.126805 1.854906 38.000000 19 366.931702
-0.444587 -1.112139 1.510103 39.000000 17 366.931705
-0.090835 -0.187248 3.428664 50.000000 30 366.931712
-0.154052 -0.337915 3.415172 40.000000 29 366.931715
-0.333680 -0.804873 3.389769 39.000000 26 366.931718
-0.456031 -1.134474 3.379206 38.000000 24 366.931720
-0.467250 -1.163544 2.655245 30.000000 22 366.931723
-0.457220 -1.139129 2.077929 37.000000 20 366.931725
-0.446700 -1.112911 1.662143 38.000000 18 366.931728
-0.442422 -1.102248 1.365877 39.000000 16 366.931730
-0.438327 -1.100371 1.243761 40.000000 15 366.931688
-0.434755 -1.091397 1.029328 42.000000 13 366.931691
-0.432726 -1.085750 0.850915 43.000000 11 366.931693
-0.431906 -1.083686 0.696957 38.000000 9 366.931696
-0.427866 -1.073005 0.555036 39.000000 7 366.931698
-0.419655 -1.051880 0.422613 27.000000 5 366.931701
-0.418658 -1.049380 0.305975 8.000000 3 366.931703
-0.417161 -1.045100 0.193775 14.000000 1 366.931706
-0.438342 -1.095398 1.131623 45.000000 14 366.931714
-0.433460 -1.083192 0.933071 50.000000 12 366.931716
-0.431723 -1.078307 0.767895 47.000000 10 366.931719
-0.432266 -1.079657 0.625077 42.000000 8 366.931721
-0.432198 -1.078941 0.493442 37.000000 6 366.931724
-0.426795 -1.064914 0.367420 15.000000 4 366.931726
-0.418333 -1.043273 0.248789 13.000000 2 366.931729
-0.429605 -1.070842 0.140219 28.000000 0 366.931732
-0.023335 -0.037099 3.469141 12.000000 31 366.931743
-0.212326 -0.491406 3.403573 48.000000 28 366.931746
-0.279626 -0.645032 3.403444 37.000000 27 366.931748
-0.396875 -0.966997 3.386759 38.000000 25 366.931751
-0.477544 -1.182017 3.062898 22.000000 23 366.931753
-0.464806 -1.151054 2.341264 34.000000 21 366.931756
-0.454378 -1.125226 1.854906 38.000000 19 366.931758
-0.448467 -1.110580 1.510103 39.000000 17 366.931761
-0.091455 -0.186946 3.428664 55.000000 30 366.931769
-0.154948 -0.336917 3.410201 40.000000 29 366.931771
-0.336347 -0.803762 3.389769 39.000000 26 366.931774
-0.459790 -1.132956 3.379206 39.000000 24 366.931776
-0.471309 -1.161905 2.655245 31.000000 22 366.931779
-0.461194 -1.137526 2.077929 37.000000 20 366.931781
-0.450582 -1.111345 1.662143 38.000000 18 366.931784
-0.446075 -1.100775 1.365877 39.000000 16 366.931787
-0.442166 -1.098834 1.243761 40.000000 15 366.931744
-0.438563 -1.089873 1.029328 44.000000 13 366.931747
-0.436513 -1.084233 0.850915 43.000000 11 366.931749
-0.435686 -1.082172 0.696957 39.000000 9 366.931752
-0.431422 -1.071580 0.555036 39.000000 7 366.931755
-0.423141 -1.050483 0.422613 28.000000 5 366.931757
-0.422318 -1.047913 0.305975 8.000000 3 366.931760
-0.420807 -1.043638 0.193775 14.000000 1 366.931762
-0.442163 -1.093862 1.131623 44.000000 14 366.931770
-0.437238 -1.081672 0.933071 50.000000 12 366.931773
-0.435296 -1.076869 0.767895 45.000000 10 366.931775
-0.435844 -1.078217 0.625077 43.000000 8 366.931778
-0.435774 -1.077502 0.493442 37.000000 6 366.931780
-0.430324 -1.063493 0.367420 15.000000 4 366.931783
-0.421790 -1.041880 0.248789 13.000000 2 366.931785
-0.433153 -1.069411 0.140219 28.000000 0 366.931788
-0.023485 -0.037056 3.474141 12.000000 31 366.931799
-0.213955 -0.490699 3.403573 47.000000 28 366.931801
-0.281764 -0.644101 3.403444 38.000000 27 366.931804
-0.400079 -0.965675 3.386759 38.000000 25 366.931806
-0.480723 -1.178618 3.058296 22.000000 23 366.931809
-0.468620 -1.149506 2.341264 34.000000 21 366.931811
-0.459170 -1.126319 1.859039 38.000000 19 366.931814
-0.452147 -1.109087 1.510103 39.000000 17 366.931816
-0.091978 -0.186367 3.423673 51.000000 30 366.931824
-0.156123 -0.336374 3.410201 40.000000 29 366.931827
-0.339151 -0.802583 3.389769 39.000000 26 366.931829
-0.463088 -1.129747 3.374514 39.000000 24 366.931832
-0.475159 -1.160336 2.655245 30.000000 22 366.931834
-0.464963 -1.135990 2.077929 37.000000 20 366.931837
-0.454264 -1.109845 1.662143 38.000000 18 366.931840
-0.449915 -1.099211 1.365877 39.000000 16 366.931842
-0.445807 -1.097362 1.243761 39.000000 15 366.931800
-0.442174 -1.088413 1.029328 44.000000 13 366.931802
-0.440106 -1.082780 0.850915 43.000000 11 366.931805
-0.439272 -1.080721 0.696957 39.000000 9 366.931807
-0.435160 -1.070068 0.555036 39.000000 7 366.931810
-0.426805 -1.049000 0.422613 26.000000 5 366.931813
-0.425791 -1.046506 0.305975 8.000000 3 366.931815
-0.424265 -1.042236 0.193775 13.000000 1 366.931818
-0.445787 -1.092389 1.131623 47.000000 14 366.931825
-0.440823 -1.080217 0.933071 50.000000 12 366.931828
-0.439053 -1.075343 0.767895 45.000000 10 366.931831
-0.441321 -1.080891 0.627175 42.000000 8 366.931833
-0.437747 -1.071603 0.491800 37.000000 6 366.931836
-0.434034 -1.061984 0.367420 15.000000 4 366.931838
-0.425425 -1.040401 0.248789 13.000000 2 366.931841
-0.436884 -1.067893 0.140219 29.000000 0 366.931843
-0.023614 -0.036974 3.474141 12.000000 31 366.931854
-0.215666 -0.489949 3.403573 47.000000 28 366.931857
-0.284010 -0.643113 3.403444 38.000000 27 366.931859
-0.403448 -0.964273 3.386759 38.000000 25 366.931862
-0.484834 -1.176933 3.058296 22.000000 23 366.931864
-0.472630 -1.147863 2.341264 35.000000 21 366.931867
-0.463098 -1.124709 1.859039 38.000000 19 366.931869
-0.456016 -1.107502 1.510103 39.000000 17 366.931872
-0.092628 -0.186044 3.423673 50.000000 30 366.931880
-0.157296 -0.335827 3.410201 40.000000 29 366.931882
-0.341456 -0.800238 3.384929 39.000000 26 366.931885
-0.467029 -1.128124 3.374514 38.000000 24 366.931887
-0.479207 -1.158670 2.655245 30.000000 22 366.931890
-0.468926 -1.134360 2.077929 37.000000 20 366.931893
-0.458136 -1.108252 1.662143 38.000000 18 366.931895
-0.453749 -1.097634 1.365877 39.000000 16 366.931898
-0.449635 -1.095799 1.243761 39.000000 15 366.931855
-0.445971 -1.086862 1.029328 44.000000 13 366.931858
-0.443883 -1.081237 0.850915 42.000000 11 366.931860
-0.443042 -1.079182 0.696957 40.000000 9 366.931863
-0.438892 -1.068542 0.555036 39.000000 7 366.931866
-0.430464 -1.047503 0.422613 26.000000 5 366.931868
-0.427574 -1.040470 0.305042 8.000000 3 366.931871
-0.427901 -1.040749 0.193775 13.000000 1 366.931873
-0.449598 -1.090827 1.131623 44.000000 14 366.931881
-0.444591 -1.078671 0.933071 50.000000 12 366.931884
-0.444447 -1.077790 0.770428 47.000000 10 366.931886
-0.445091 -1.079344 0.627175 43.000000 8 366.931889
-0.441485 -1.070068 0.491800 37.000000 6 366.931891
-0.437738 -1.060462 0.367420 15.000000 4 366.931894
-0.430944 -1.043487 0.249479 13.000000 2 366.931896
-0.438701 -1.061744 0.140018 28.000000 0 366.931899
-0.023743 -0.036892 3.474141 12.000000 31 366.931910
-0.217375 -0.489193 3.403573 48.000000 28 366.931912
-0.286253 -0.642118 3.403444 38.000000 27 366.931915
-0.406811 -0.962859 3.386759 38.000000 25 366.931917
-0.488939 -1.175233 3.058296 22.000000 23 366.931920
-0.476634 -1.146207 2.341264 35.000000 21 366.931922
-0.467022 -1.123086 1.859039 38.000000 19 366.931925
-0.459879 -1.105903 1.510103 39.000000 17 366.931927
-0.093276 -0.185720 3.423673 50.000000 30 366.931935
-0.158467 -0.335276 3.410201 42.000000 29 366.931938
-0.344248 -0.799041 3.384929 39.000000 26 366.931940
-0.470964 -1.126487 3.374514 38.000000 24 366.931943
-0.483249 -1.156991 2.655245 30.000000 22 366.931945
-0.472883 -1.132716 2.077929 37.000000 20 366.931948
-0.462002 -1.106646 1.662143 38.000000 18 366.931951
-0.457578 -1.096044 1.365877 39.000000 16 366.931953
-0.453457 -1.094223 1.243761 40.000000 15 366.931911
-0.449762 -1.085299 1.029328 44.000000 13 366.931913
-0.446053 -1.075818 0.848173 43.000000 11 366.931916
-0.446806 -1.077628 0.696957 40.000000 9 366.931919
-0.442619 -1.067004 0.555036 39.000000 7 366.931921
-0.434118 -1.045994 0.422613 28.000000 5 366.931924
-0.431203 -1.038971 0.305042 8.000000 3 366.931926
-0.431531 -1.039249 0.193775 13.000000 1 366.931929
-0.453403 -1.089250 1.131623 47.000000 14 366.931937
-0.448353 -1.077113 0.933071 50.000000 12 366.931939
-0.448207 -1.076232 0.770428 47.000000 10 366.931942
-0.448856 -1.077784 0.627175 43.000000 8 366.931944
-0.445217 -1.068521 0.491800 37.000000 6 366.931947
-0.443307 -1.063414 0.368592 15.000000 4 366.931949
-0.434584 -1.041976 0.249479 12.000000 2 366.931952
-0.442404 -1.060206 0.140018 28.000000 0 366.931954
-0.023871 -0.036809 3.474141 13.000000 31 366.931965
-0.219082 -0.488432 3.403573 48.000000 28 366.931968
-0.288493 -0.641115 3.403444 38.000000 27 366.931970
-0.410170 -0.961433 3.386759 38.000000 25 366.931973
-0.493795 -1.175320 3.062898 22.000000 23 366.931975
-0.480632 -1.144536 2.341264 35.000000 21 366.931978
-0.470939 -1.121449 1.859039 38.000000 19 366.931980
-0.463737 -1.104291 1.510103 39.000000 17 366.931983
-0.093924 -0.185393 3.423673 50.000000 30 366.931991
-0.159637 -0.334721 3.410201 40.000000 29 366.931993
-0.347035 -0.797834 3.384929 39.000000 26 366.931996
-0.474222 -1.123246 3.369821 38.000000 24 366.931998
-0.487284 -1.155297 2.655245 30.000000 22 366.932001
-0.477847 -1.133462 2.082195 37.000000 20 366.932004
-0.467032 -1.107804 1.666132 38.000000 18 366.932006
-0.461401 -1.094440 1.365877 39.000000 16 366.932009
-0.457274 -1.092633 1.243761 39.000000 15 366.931966
-0.453548 -1.083723 1.029328 44.000000 13 366.931969
-0.449805 -1.074255 0.848173 43.000000 11 366.931971
-0.450565 -1.076062 0.696957 40.000000 9 366.931974
-0.446341 -1.065452 0.555036 39.000000 7 366.931977
-0.437767 -1.044473 0.422613 28.000000 5 366.931979
-0.434827 -1.037460 0.305042 8.000000 3 366.931982
-0.435156 -1.037736 0.193775 14.000000 1 366.931984
-0.457202 -1.087661 1.131623 47.000000 14 366.931992
-0.452110 -1.075541 0.933071 50.000000 12 366.931995
-0.451961 -1.074661 0.770428 47.000000 10 366.931997
-0.452615 -1.076210 0.627175 43.000000 8 366.932000
-0.448944 -1.066960 0.491800 37.000000 6 366.932002
-0.447017 -1.061861 0.368592 15.000000 4 366.932005
-0.438218 -1.040453 0.249479 12.000000 2 366.932007
-0.446102 -1.058656 0.140018 28.000000 0 366.932010
-0.023973 -0.036691 3.469141 13.000000 31 366.932021
-0.220464 -0.486956 3.398634 48.000000 28 366.932023
-0.290729 -0.640104 3.403444 38.000000 27 366.932026
-0.413523 -0.959995 3.386759 38.000000 25 366.932028
-0.497895 -1.173589 3.062898 22.000000 23 366.932031
-0.484624 -1.142851 2.341264 35.000000 21 366.932033
-0.474851 -1.119798 1.859039 38.000000 19 366.932036
