# .PCD v.7 - Point Cloud Data file format
VERSION .7
FIELDS x y z intensity ring timestamp
SIZE 4 4 4 4 2 8
TYPE F F F F U D
COUNT 1 1 1 1 1 1
WIDTH 906
HEIGHT 1
VIEWPOINT 0 0 0 1 0 0 0
POINTS 906
DATA ascii
-1.144745 -0.833239 0.917309 42.000000 10 367.439441
-1.153095 -0.839314 0.746764 49.000000 8 367.439444
-1.146036 -0.833870 0.582147 48.000000 6 367.439446
-1.140059 -0.829217 0.430725 39.000000 4 367.439449
-0.034754 -0.017228 2.889163 96.000000 31 367.439465
-0.387983 -0.266729 2.993614 53.000000 28 367.439467
-0.505922 -0.346901 2.972663 46.000000 27 367.439470
-0.734940 -0.525326 2.933445 43.000000 25 367.439472
-0.963393 -0.696637 2.860387 41.000000 23 367.439475
-1.186324 -0.858143 2.749410 25.000000 21 367.439477
-1.181595 -0.854719 2.214473 36.000000 19 367.439480
-1.173045 -0.848532 1.809384 37.000000 17 367.439482
-0.148988 -0.092557 2.864612 95.000000 30 367.439490
-0.271951 -0.177812 2.982660 39.000000 29 367.439493
-0.617767 -0.435048 2.944562 46.000000 26 367.439495
-0.847833 -0.610830 2.895851 42.000000 24 367.439498
-1.089502 -0.785506 2.839779 40.000000 22 367.439500
-1.183802 -0.853801 2.457597 33.000000 20 367.439503
-1.173082 -0.846066 1.989282 37.000000 18 367.439506
-1.169538 -0.843507 1.641514 39.000000 16 367.439508
-1.163828 -0.844029 1.492584 39.000000 15 367.439466
-1.159025 -0.840543 1.236421 39.000000 13 367.439468
-1.156195 -0.838183 1.020886 40.000000 11 367.439471
-1.152539 -0.835529 0.831402 44.000000 9 367.439473
-1.149347 -0.832909 0.661799 42.000000 7 367.439476
-1.146358 -0.830438 0.505755 39.000000 5 367.439479
-1.137736 -0.824192 0.358202 36.000000 3 367.439481
-0.282176 -0.204340 0.124166 6.000000 1 367.439484
-1.162007 -0.839926 1.357712 40.000000 14 367.439491
-1.151929 -0.832639 1.118490 39.000000 12 367.439494
-1.151141 -0.831763 0.919841 42.000000 10 367.439497
-1.159696 -0.837942 0.748862 50.000000 8 367.439499
-1.152768 -0.832630 0.583790 50.000000 6 367.439502
-1.146888 -0.828078 0.431897 39.000000 4 367.439504
-0.034814 -0.017106 2.889163 96.000000 31 367.439520
-0.388270 -0.264935 2.988675 63.000000 28 367.439523
-0.507130 -0.345133 2.972663 39.000000 27 367.439525
-0.736770 -0.522757 2.933445 45.000000 25 367.439528
-0.965819 -0.693270 2.860387 41.000000 23 367.439530
-1.193204 -0.856792 2.758187 26.000000 21 367.439533
-1.186857 -0.852231 2.218606 35.000000 19 367.439535
-1.178604 -0.846302 1.813221 37.000000 17 367.439538
-0.149310 -0.092036 2.864612 95.000000 30 367.439546
-0.273019 -0.177152 2.987631 40.000000 29 367.439548
-0.619281 -0.432889 2.944562 45.000000 26 367.439551
-0.849960 -0.607867 2.895851 44.000000 24 367.439553
-1.092237 -0.781699 2.839779 41.000000 22 367.439556
-1.191017 -0.852700 2.466129 33.000000 20 367.439559
-1.178479 -0.843720 1.993271 36.000000 18 367.439561
-1.175232 -0.841393 1.645189 39.000000 16 367.439564
-1.169661 -0.842045 1.496089 39.000000 15 367.439521
-1.165112 -0.838767 1.239559 38.000000 13 367.439524
-1.159114 -0.834142 1.020886 40.000000 11 367.439526
-1.159045 -0.834089 0.833720 44.000000 9 367.439529
-1.156010 -0.831599 0.663672 42.000000 7 367.439532
-1.153145 -0.829232 0.507164 39.000000 5 367.439534
-1.144594 -0.823084 0.359134 36.000000 3 367.439537
-0.270756 -0.194633 0.122827 5.000000 1 367.439539
-1.167966 -0.838042 1.361037 39.000000 14 367.439547
-1.158113 -0.830970 1.121433 39.000000 12 367.439550
-1.157540 -0.830253 0.922373 42.000000 10 367.439552
-1.166302 -0.836534 0.750960 47.000000 8 367.439555
-1.159505 -0.831352 0.585433 50.000000 6 367.439557
-1.153722 -0.826901 0.433070 39.000000 4 367.439560
-1.139146 -0.816153 0.287418 5.000000 2 367.439562
-0.288169 -0.206388 0.107974 4.000000 0 367.439565
-0.034873 -0.016985 2.889163 96.000000 31 367.439576
-0.389192 -0.263579 2.988675 62.000000 28 367.439578
-0.508332 -0.343361 2.972663 39.000000 27 367.439581
-0.738590 -0.520182 2.933445 45.000000 25 367.439583
-0.968233 -0.689894 2.860387 40.000000 23 367.439586
-1.200089 -0.855403 2.766964 28.000000 21 367.439588
-1.192116 -0.849716 2.222739 35.000000 19 367.439591
-1.184162 -0.844043 1.817058 37.000000 17 367.439593
-0.149631 -0.091514 2.864612 96.000000 30 367.439601
-0.274085 -0.176486 2.992603 48.000000 29 367.439604
-0.620789 -0.430724 2.944562 45.000000 26 367.439606
-0.852076 -0.604896 2.895851 45.000000 24 367.439609
-1.094959 -0.777881 2.839779 41.000000 22 367.439611
-1.196112 -0.850048 2.470395 33.000000 20 367.439614
-1.183873 -0.841348 1.997261 36.000000 18 367.439617
-1.180925 -0.839249 1.648865 39.000000 16 367.439619
-1.178396 -0.842104 1.503098 39.000000 15 367.439577
-1.171200 -0.836958 1.242697 39.000000 13 367.439579
-1.165421 -0.832521 1.023627 40.000000 11 367.439582
-1.165554 -0.832613 0.836038 44.000000 9 367.439585
-1.162679 -0.830253 0.665545 42.000000 7 367.439587
-1.159937 -0.827989 0.508574 39.000000 5 367.439590
-1.147461 -0.819083 0.359134 36.000000 3 367.439592
-1.173925 -0.836126 1.364362 40.000000 14 367.439603
-1.164299 -0.829267 1.124376 40.000000 12 367.439605
-1.163943 -0.828707 0.924906 42.000000 10 367.439608
-1.169215 -0.832458 0.750960 50.000000 8 367.439610
-1.166247 -0.830038 0.587075 48.000000 6 367.439613
-1.160562 -0.825686 0.434242 39.000000 4 367.439615
-1.141988 -0.812172 0.287418 6.000000 2 367.439618
-0.288888 -0.205381 0.107974 6.000000 0 367.439620
-0.034932 -0.016863 2.889163 96.000000 31 367.439631
-0.390110 -0.262218 2.988675 62.000000 28 367.439634
-0.508681 -0.341018 2.967768 43.000000 27 367.439636
-0.740401 -0.517601 2.933445 43.000000 25 367.439639
-0.970635 -0.686510 2.860387 40.000000 23 367.439641
-1.205024 -0.852592 2.771353 28.000000 21 367.439644
-1.197372 -0.847175 2.226871 35.000000 19 367.439646
-1.189718 -0.841757 1.820895 36.000000 17 367.439649
-0.149949 -0.090991 2.864612 96.000000 30 367.439657
-0.275150 -0.175814 2.997574 53.000000 29 367.439659
-0.621252 -0.427842 2.939723 48.000000 26 367.439662
-0.854182 -0.601918 2.895851 44.000000 24 367.439664
-1.097667 -0.774054 2.839779 40.000000 22 367.439667
-1.203334 -0.848874 2.478927 33.000000 20 367.439670
-1.189266 -0.838947 2.001250 36.000000 18 367.439672
-1.186618 -0.837076 1.652540 38.000000 16 367.439675
-1.181329 -0.837985 1.503098 39.000000 15 367.439632
-1.177289 -0.835117 1.245834 39.000000 13 367.439635
-1.171731 -0.830867 1.026368 40.000000 11 367.439637
-1.168453 -0.828539 0.836038 42.000000 9 367.439640
-1.165570 -0.826189 0.665545 42.000000 7 367.439643
-1.162820 -0.823935 0.508574 39.000000 5 367.439645
-1.154321 -0.817913 0.360067 36.000000 3 367.439648
-1.179886 -0.834179 1.367687 40.000000 14 367.439658
-1.170487 -0.827531 1.127319 40.000000 12 367.439661
-1.170350 -0.827128 0.927438 42.000000 10 367.439663
-1.175820 -0.830991 0.753058 50.000000 8 367.439666
-1.172995 -0.828687 0.588718 48.000000 6 367.439668
-1.163437 -0.821630 0.434242 39.000000 4 367.439671
-1.132679 -0.799613 0.285349 4.000000 2 367.439673
-0.293685 -0.207252 0.108176 8.000000 0 367.439676
-0.034991 -0.016741 2.889163 96.000000 31 367.439687
-0.391023 -0.260855 2.988675 62.000000 28 367.439689
-0.509869 -0.339240 2.967768 40.000000 27 367.439692
-0.742203 -0.515013 2.933445 43.000000 25 367.439694
-0.971426 -0.681996 2.855785 40.000000 23 367.439697
-1.211914 -0.851134 2.780131 26.000000 21 367.439699
-1.204927 -0.846225 2.235137 35.000000 19 367.439702
-1.195272 -0.839441 1.824732 36.000000 17 367.439705
-0.150266 -0.090467 2.864612 95.000000 30 367.439712
-0.276213 -0.175138 3.002545 56.000000 29 367.439715
-0.622742 -0.425671 2.939723 48.000000 26 367.439717
-0.856278 -0.598933 2.895851 42.000000 24 367.439720
-1.100363 -0.770218 2.839779 40.000000 22 367.439723
-1.208426 -0.846165 2.483193 33.000000 20 367.439725
-1.197125 -0.838248 2.009229 36.000000 18 367.439728
-1.192310 -0.834874 1.656215 38.000000 16 367.439730
-1.190078 -0.837963 1.510107 39.000000 15 367.439688
-1.183380 -0.833244 1.248972 39.000000 13 367.439690
-1.178043 -0.829178 1.029110 40.000000 11 367.439693
-1.174961 -0.827006 0.838357 42.000000 9 367.439696
-1.172238 -0.824783 0.667418 42.000000 7 367.439698
-1.169613 -0.822631 0.509983 40.000000 5 367.439701
-1.161187 -0.816705 0.360999 36.000000 3 367.439703
-1.185848 -0.832201 1.371012 39.000000 14 367.439714
-1.176677 -0.825762 1.130262 39.000000 12 367.439716
-1.176759 -0.825513 0.929971 44.000000 10 367.439719
-1.182429 -0.829488 0.755157 48.000000 8 367.439721
-1.175880 -0.824587 0.588718 48.000000 6 367.439724
-1.170278 -0.820354 0.435414 39.000000 4 367.439726
-0.298498 -0.209092 0.108377 6.000000 0 367.439731
-0.035049 -0.016618 2.889163 96.000000 31 367.439742
-0.391931 -0.259489 2.988675 63.000000 28 367.439745
-0.511050 -0.337458 2.967768 40.000000 27 367.439747
-0.742767 -0.511572 2.928674 45.000000 25 367.439750
-0.973801 -0.678600 2.855785 38.000000 23 367.439752
-1.218808 -0.849639 2.788908 25.000000 21 367.439755
-1.210182 -0.843623 2.239270 35.000000 19 367.439757
-1.203455 -0.838930 1.832406 36.000000 17 367.439760
-0.150581 -0.089942 2.864612 96.000000 30 367.439768
-0.276823 -0.174172 3.002545 64.000000 29 367.439770
-0.624224 -0.423494 2.939723 46.000000 26 367.439773
-0.858364 -0.595940 2.895851 45.000000 24 367.439775
-1.101256 -0.765130 2.835278 41.000000 22 367.439778
-1.215656 -0.844918 2.491725 33.000000 20 367.439781
-1.202518 -0.835785 2.013219 36.000000 18 367.439783
-1.198000 -0.832641 1.659890 38.000000 16 367.439786
-1.195919 -0.835847 1.513611 39.000000 15 367.439743
-1.189472 -0.831338 1.252110 39.000000 13 367.439746
-1.184358 -0.827456 1.031851 40.000000 11 367.439749
-1.181473 -0.825437 0.840675 42.000000 9 367.439751
-1.175110 -0.820686 0.667418 40.000000 7 367.439754
-1.172477 -0.818543 0.509983 40.000000 5 367.439756
-1.168058 -0.815458 0.361932 36.000000 3 367.439759
-1.191810 -0.830191 1.374337 39.000000 14 367.439769
-1.182869 -0.823960 1.133206 39.000000 12 367.439772
-1.183172 -0.823864 0.932503 42.000000 10 367.439774
-1.189042 -0.827949 0.757255 50.000000 8 367.439777
-1.182628 -0.823176 0.590361 48.000000 6 367.439779
-1.173134 -0.816264 0.435414 39.000000 4 367.439782
-0.286921 -0.199492 0.107773 4.000000 0 367.439787
-0.035107 -0.016496 2.889163 96.000000 31 367.439798
-0.392835 -0.258119 2.988675 63.000000 28 367.439800
-0.511372 -0.335115 2.962873 40.000000 27 367.439803
-0.744548 -0.508976 2.928674 45.000000 25 367.439805
-0.974557 -0.674086 2.851182 38.000000 23 367.439808
-1.223737 -0.846742 2.793297 24.000000 21 367.439810
-1.215434 -0.840994 2.243403 35.000000 19 367.439813
-1.209013 -0.836548 1.836243 36.000000 17 367.439816
-0.150644 -0.089270 2.859621 96.000000 30 367.439823
-0.277883 -0.173487 3.007517 68.000000 29 367.439826
-0.625699 -0.421313 2.939723 46.000000 26 367.439828
-0.859018 -0.591961 2.891159 45.000000 24 367.439831
-1.103920 -0.761281 2.835278 41.000000 22 367.439834
-1.222891 -0.843632 2.500257 33.000000 20 367.439836
-1.210390 -0.835005 2.021198 36.000000 18 367.439839
-1.203690 -0.830380 1.663565 38.000000 16 367.439841
-1.201760 -0.833700 1.517116 39.000000 15 367.439799
-1.195566 -0.829400 1.255248 39.000000 13 367.439801
-1.190675 -0.825699 1.034593 40.000000 11 367.439804
-1.187987 -0.823832 0.842993 42.000000 9 367.439807
-1.181778 -0.819221 0.669291 40.000000 7 367.439809
-1.179271 -0.817178 0.511392 40.000000 5 367.439812
-1.174935 -0.814174 0.362865 36.000000 3 367.439814
-1.197772 -0.828149 1.377661 39.000000 14 367.439825
-1.189063 -0.822125 1.136149 40.000000 12 367.439827
-1.186040 -0.819729 0.932503 42.000000 10 367.439830
-1.195658 -0.826373 0.759353 50.000000 8 367.439832
-1.189379 -0.821727 0.592004 50.000000 6 367.439835
-1.179976 -0.814926 0.436587 40.000000 4 367.439837
-0.035164 -0.016373 2.889163 95.000000 31 367.439853
-0.393733 -0.256746 2.988675 63.000000 28 367.439856
-0.512539 -0.333328 2.962873 40.000000 27 367.439858
-0.746320 -0.506374 2.928674 46.000000 25 367.439861
-0.976904 -0.670680 2.851182 41.000000 23 367.439863
-1.230635 -0.845178 2.802074 21.000000 21 367.439866
-1.220682 -0.838340 2.247536 34.000000 19 367.439869
-1.217211 -0.835953 1.843917 37.000000 17 367.439871
-0.150954 -0.088744 2.859621 95.000000 30 367.439879
-0.278487 -0.172516 3.007517 70.000000 29 367.439881
-0.627165 -0.419126 2.939723 48.000000 26 367.439884
-0.861079 -0.588959 2.891159 42.000000 24 367.439887
-1.106571 -0.757423 2.835278 41.000000 22 367.439889
-1.230132 -0.842305 2.508789 32.000000 20 367.439892
-1.215784 -0.832477 2.025187 36.000000 18 367.439894
-1.209379 -0.828088 1.667240 38.000000 16 367.439897
-1.207600 -0.831522 1.520620 39.000000 15 367.439854
-1.201660 -0.827429 1.258385 39.000000 13 367.439857
-1.196995 -0.823909 1.037334 40.000000 11 367.439860
-1.194505 -0.822192 0.845311 44.000000 9 367.439862
-1.188449 -0.817718 0.671164 40.000000 7 367.439865
-1.186069 -0.815775 0.512801 40.000000 5 367.439867
-1.181817 -0.812851 0.363797 37.000000 3 367.439870
-1.206813 -0.828189 1.384311 39.000000 14 367.439880
-1.195258 -0.820256 1.139092 40.000000 12 367.439883
-1.192449 -0.818023 0.935036 42.000000 10 367.439885
-1.202278 -0.824762 0.761451 50.000000 8 367.439888
-1.196135 -0.820241 0.593646 48.000000 6 367.439890
-1.186823 -0.813551 0.437759 40.000000 4 367.439893
-0.035221 -0.016250 2.889163 95.000000 31 367.439909
-0.394627 -0.255370 2.988675 63.000000 28 367.439911
-0.513699 -0.331537 2.962873 43.000000 27 367.439914
-0.748083 -0.503766 2.928674 46.000000 25 367.439916
-0.979239 -0.667266 2.851182 41.000000 23 367.439919
-1.233577 -0.840877 2.802074 21.000000 21 367.439921
-1.225926 -0.835659 2.251669 34.000000 19 367.439924
-1.222771 -0.833505 1.847754 37.000000 17 367.439927
-0.151012 -0.088072 2.854629 95.000000 30 367.439934
-0.279087 -0.171543 3.007517 71.000000 29 367.439937
-0.628625 -0.416934 2.939723 48.000000 26 367.439939
-0.863130 -0.585950 2.891159 42.000000 24 367.439942
-1.109208 -0.753556 2.835278 41.000000 22 367.439945
-1.235222 -0.839472 2.513055 33.000000 20 367.439947
-1.221176 -0.829923 2.029177 36.000000 18 367.439950
-1.215066 -0.825767 1.670916 38.000000 16 367.439952
-1.213439 -0.829314 1.524125 38.000000 15 367.439910
-1.207755 -0.825426 1.261523 39.000000 13 367.439913
-1.203316 -0.822084 1.040076 40.000000 11 367.439915
-1.201025 -0.820516 0.847629 44.000000 9 367.439918
-1.195125 -0.816179 0.673037 40.000000 7 367.439920
-1.192871 -0.814335 0.514210 39.000000 5 367.439923
-1.188705 -0.811491 0.364730 37.000000 3 367.439925
-1.212783 -0.826074 1.387636 39.000000 14 367.439936
-1.201455 -0.818354 1.142035 39.000000 12 367.439938
-1.198861 -0.816282 0.937568 42.000000 10 367.439941
-1.208901 -0.823115 0.763549 50.000000 8 367.439943
-1.198991 -0.816061 0.593646 48.000000 6 367.439946
-1.193674 -0.812137 0.438931 39.000000 4 367.439948
-0.035278 -0.016127 2.889163 95.000000 31 367.439964
-0.395516 -0.253991 2.988675 63.000000 28 367.439967
-0.514854 -0.329742 2.962873 43.000000 27 367.439969
-0.749837 -0.501152 2.928674 46.000000 25 367.439972
-0.981563 -0.663843 2.851182 40.000000 23 367.439974
-1.238489 -0.837909 2.806463 21.000000 21 367.439977
-1.233497 -0.834528 2.259935 34.000000 19 367.439980
-1.230983 -0.832824 1.855428 37.000000 17 367.439982
-0.151319 -0.087544 2.854629 95.000000 30 367.439990
-0.279684 -0.170567 3.007517 74.000000 29 367.439992
-0.630076 -0.414737 2.939723 46.000000 26 367.439995
-0.865170 -0.582933 2.891159 42.000000 24 367.439998
-1.111832 -0.749679 2.835278 41.000000 22 367.440000
-1.242469 -0.838072 2.521587 33.000000 20 367.440003
-1.229063 -0.829026 2.037156 36.000000 18 367.440005
-1.220751 -0.823416 1.674591 38.000000 16 367.440008
-1.219278 -0.827075 1.527629 38.000000 15 367.439965
-1.213850 -0.823390 1.264661 39.000000 13 367.439968
-1.209639 -0.820226 1.042817 40.000000 11 367.439971
-1.207549 -0.818805 0.849947 42.000000 9 367.439973
-1.201804 -0.814604 0.674910 40.000000 7 367.439976
-1.199678 -0.812857 0.515620 39.000000 5 367.439978
-1.195597 -0.810092 0.365662 37.000000 3 367.439981
-1.218753 -0.823927 1.390961 39.000000 14 367.439991
-1.207652 -0.816419 1.144978 40.000000 12 367.439994
-1.208848 -0.816920 0.942633 44.000000 10 367.439996
-1.215527 -0.821431 0.765647 48.000000 8 367.439999
-1.205745 -0.814514 0.595289 48.000000 6 367.440001
-1.200530 -0.810686 0.440104 40.000000 4 367.440004
-0.035334 -0.016004 2.889163 95.000000 31 367.440020
-0.396400 -0.252609 2.988675 63.000000 28 367.440022
-0.516001 -0.327942 2.962873 42.000000 27 367.440025
-0.751582 -0.498531 2.928674 46.000000 25 367.440027
-0.983874 -0.660413 2.851182 40.000000 23 367.440030
-1.241407 -0.833580 2.806463 21.000000 21 367.440033
-1.238739 -0.831786 2.264068 34.000000 19 367.440035
-1.236544 -0.830309 1.859265 37.000000 17 367.440038
-0.151623 -0.087016 2.854629 95.000000 30 367.440045
-0.280278 -0.169590 3.007517 75.000000 29 367.440048
-0.631520 -0.412535 2.939723 46.000000 26 367.440051
-0.867199 -0.579910 2.891159 45.000000 24 367.440053
-1.114442 -0.745794 2.835278 40.000000 22 367.440056
-1.249721 -0.836631 2.530118 33.000000 20 367.440058
-1.234454 -0.826407 2.041145 36.000000 18 367.440061
-1.226435 -0.821036 1.678266 37.000000 16 367.440063
-1.225116 -0.824806 1.531134 38.000000 15 367.440021
-1.219946 -0.821322 1.267799 39.000000 13 367.440024
-1.215964 -0.818333 1.045559 40.000000 11 367.440026
-1.214075 -0.817059 0.852265 44.000000 9 367.440029
-1.204640 -0.810404 0.674910 42.000000 7 367.440031
-1.206489 -0.811341 0.517029 40.000000 5 367.440034
-1.202493 -0.808655 0.366595 34.000000 3 367.440036
-1.224723 -0.821748 1.394286 39.000000 14 367.440047
-1.213851 -0.814451 1.147921 40.000000 12 367.440049
-1.215272 -0.815097 0.945165 44.000000 10 367.440052
-1.222157 -0.819711 0.767745 50.000000 8 367.440054
-1.212504 -0.812930 0.596932 50.000000 6 367.440057
-1.207390 -0.809196 0.441276 40.000000 4 367.440059
-0.035390 -0.015881 2.889163 95.000000 31 367.440076
-0.397280 -0.251224 2.988675 63.000000 28 367.440079
-0.517143 -0.326139 2.962873 42.000000 27 367.440081
-0.753317 -0.495905 2.928674 46.000000 25 367.440084
-0.986173 -0.656975 2.851182 40.000000 23 367.440086
-1.242315 -0.827913 2.802074 26.000000 21 367.440089
-1.243976 -0.829017 2.268201 34.000000 19 367.440091
-1.244771 -0.829544 1.866939 37.000000 17 367.440094
-0.151926 -0.086486 2.854629 95.000000 30 367.440102
-0.280868 -0.168611 3.007517 74.000000 29 367.440104
-0.632956 -0.410328 2.939723 49.000000 26 367.440107
-0.867780 -0.575925 2.886466 47.000000 24 367.440109
-1.117038 -0.741899 2.835278 40.000000 22 367.440112
-1.254807 -0.833707 2.534384 32.000000 20 367.440114
-1.242351 -0.825429 2.049124 36.000000 18 367.440117
-1.232118 -0.818626 1.681941 37.000000 16 367.440120
-1.230953 -0.822506 1.534639 38.000000 15 367.440077
-1.226043 -0.819222 1.270936 39.000000 13 367.440080
-1.222290 -0.816406 1.048300 40.000000 11 367.440082
-1.220604 -0.815277 0.854583 44.000000 9 367.440085
-1.211317 -0.808768 0.676783 42.000000 7 367.440088
-1.213304 -0.809788 0.518438 40.000000 5 367.440090
-1.209395 -0.807179 0.367528 34.000000 3 367.440093
-1.230692 -0.819538 1.397611 39.000000 14 367.440103
-1.223415 -0.814689 1.153808 39.000000 12 367.440106
-1.221699 -0.813239 0.947698 45.000000 10 367.440108
-1.228788 -0.817955 0.769843 50.000000 8 367.440111
-1.219265 -0.811309 0.598574 48.000000 6 367.440113
-1.214254 -0.807669 0.442448 42.000000 4 367.440116
-0.035445 -0.015757 2.889163 95.000000 31 367.440132
-0.398154 -0.249835 2.988675 62.000000 28 367.440134
-0.518278 -0.324332 2.962873 43.000000 27 367.440137
-0.755044 -0.493272 2.928674 48.000000 25 367.440139
-0.988460 -0.653528 2.851182 40.000000 23 367.440142
-1.245198 -0.823572 2.802074 30.000000 21 367.440144
-1.251557 -0.827775 2.276467 34.000000 19 367.440147
-1.250333 -0.826962 1.870776 36.000000 17 367.440149
-0.152480 -0.086096 2.859621 95.000000 30 367.440157
-0.281455 -0.167629 3.007517 70.000000 29 367.440160
-0.634385 -0.408117 2.939723 46.000000 26 367.440162
-0.869785 -0.572892 2.886466 45.000000 24 367.440165
-1.119621 -0.737995 2.835278 40.000000 22 367.440167
-1.262064 -0.832193 2.542916 32.000000 20 367.440170
-1.247741 -0.822746 2.053114 36.000000 18 367.440173
-1.240628 -0.818053 1.689291 37.000000 16 367.440175
-1.236789 -0.820175 1.538143 38.000000 15 367.440133
-1.232139 -0.817088 1.274074 39.000000 13 367.440135
-1.228618 -0.814445 1.051042 40.000000 11 367.440138
-1.227135 -0.813459 0.856901 42.000000 9 367.440140
-1.217997 -0.807095 0.678656 42.000000 7 367.440143
-1.220123 -0.808197 0.519847 40.000000 5 367.440146
-1.216300 -0.805665 0.368460 37.000000 3 367.440148
-1.236661 -0.817296 1.400935 39.000000 14 367.440158
-1.229624 -0.812643 1.156751 40.000000 12 367.440161
-1.228127 -0.811346 0.950230 44.000000 10 367.440164
-1.235423 -0.816162 0.771941 50.000000 8 367.440166
-1.226031 -0.809650 0.600217 48.000000 6 367.440169
-1.225179 -0.808781 0.444793 38.000000 4 367.440171
-0.035541 -0.015647 2.894163 93.000000 31 367.440187
-0.399024 -0.248444 2.988675 63.000000 28 367.440190
-0.519407 -0.322521 2.962873 43.000000 27 367.440192
-0.756761 -0.490633 2.928674 48.000000 25 367.440195
-0.990736 -0.650074 2.851182 41.000000 23 367.440197
-1.246062 -0.817906 2.797685 35.000000 21 367.440200
-1.256791 -0.824945 2.280600 34.000000 19 367.440202
-1.258572 -0.826111 1.878449 37.000000 17 367.440205
-0.152780 -0.085563 2.859621 95.000000 30 367.440213
-0.282039 -0.166646 3.007517 68.000000 29 367.440215
-0.635805 -0.405900 2.939723 46.000000 26 367.440218
-0.871780 -0.569853 2.886466 45.000000 24 367.440220
-1.120368 -0.732890 2.830777 40.000000 22 367.440223
-1.269325 -0.830639 2.551448 32.000000 20 367.440226
-1.255650 -0.821686 2.061093 37.000000 18 367.440228
-1.246313 -0.815574 1.692967 37.000000 16 367.440231
-1.242623 -0.817813 1.541648 38.000000 15 367.440188
-1.241487 -0.817063 1.280350 39.000000 13 367.440191
-1.234946 -0.812449 1.053783 40.000000 11 367.440193
-1.229967 -0.809170 0.856901 42.000000 9 367.440196
-1.224681 -0.805386 0.680529 40.000000 7 367.440199
-1.226945 -0.806569 0.521256 42.000000 5 367.440201
-1.223210 -0.804113 0.369393 38.000000 3 367.440204
-1.242629 -0.815022 1.404260 39.000000 14 367.440214
-1.235833 -0.810562 1.159694 40.000000 12 367.440217
-1.234557 -0.809417 0.952762 44.000000 10 367.440219
-1.242060 -0.814333 0.774039 50.000000 8 367.440222
-1.228850 -0.805366 0.600217 48.000000 6 367.440224
-1.232061 -0.807163 0.445965 38.000000 4 367.440227
-0.035596 -0.015523 2.894163 93.000000 31 367.440243
-0.399888 -0.247050 2.988675 63.000000 28 367.440245
-0.520530 -0.320706 2.962873 42.000000 27 367.440248
-0.757213 -0.487181 2.923902 46.000000 25 367.440250
-0.991362 -0.645546 2.846580 41.000000 23 367.440253
-1.246902 -0.812243 2.793297 37.000000 21 367.440255
-1.262021 -0.822089 2.284733 34.000000 19 367.440258
-1.264134 -0.823462 1.882286 37.000000 17 367.440260
-0.153078 -0.085029 2.859621 95.000000 30 367.440268
-0.282619 -0.165660 3.007517 63.000000 29 367.440271
-0.636156 -0.403005 2.934883 48.000000 26 367.440273
-0.873764 -0.566806 2.886466 45.000000 24 367.440276
-1.122919 -0.728975 2.830777 41.000000 22 367.440278
-1.274405 -0.827623 2.555714 32.000000 20 367.440281
-1.261038 -0.818940 2.065082 37.000000 18 367.440284
-1.251995 -0.813065 1.696642 37.000000 16 367.440286
-1.248456 -0.815421 1.545152 38.000000 15 367.440244
-1.247591 -0.814853 1.283488 39.000000 13 367.440246
-1.241276 -0.810419 1.056525 40.000000 11 367.440249
-1.236494 -0.807294 0.859219 42.000000 9 367.440252
-1.231367 -0.803640 0.682402 40.000000 7 367.440254
-1.229753 -0.802281 0.521256 40.000000 5 367.440257
-1.230124 -0.802523 0.370326 38.000000 3 367.440259
-1.251726 -0.814754 1.410910 39.000000 14 367.440270
-1.242043 -0.808448 1.162637 40.000000 12 367.440272
-1.240989 -0.807454 0.955295 45.000000 10 367.440275
-1.248699 -0.812468 0.776137 52.000000 8 367.440277
-1.235612 -0.803646 0.601860 50.000000 6 367.440280
-1.238946 -0.805507 0.447138 40.000000 4 367.440282
-0.035650 -0.015398 2.894163 95.000000 31 367.440298
-0.400748 -0.245652 2.988675 49.000000 28 367.440301
-0.521646 -0.318887 2.962873 42.000000 27 367.440303
-0.758909 -0.484535 2.923902 46.000000 25 367.440306
-0.993609 -0.642081 2.846580 41.000000 23 367.440308
-1.249730 -0.807886 2.793297 38.000000 21 367.440311
-1.269609 -0.820734 2.292999 33.000000 19 367.440313
-1.269694 -0.820785 1.886123 36.000000 17 367.440316
-0.153373 -0.084494 2.859621 96.000000 30 367.440324
-0.283195 -0.164673 3.007517 53.000000 29 367.440326
-0.637559 -0.400782 2.934883 48.000000 26 367.440329
-0.875737 -0.563753 2.886466 42.000000 24 367.440331
-1.125457 -0.725051 2.830777 41.000000 22 367.440334
-1.281670 -0.825995 2.564246 32.000000 20 367.440337
-1.268956 -0.817798 2.073061 37.000000 18 367.440339
-1.257676 -0.810526 1.700317 37.000000 16 367.440342
-1.254287 -0.812998 1.548657 38.000000 15 367.440299
-1.253694 -0.812610 1.286625 39.000000 13 367.440302
-1.244097 -0.806081 1.056525 40.000000 11 367.440304
-1.243022 -0.805382 0.861537 42.000000 9 367.440307
-1.238056 -0.801857 0.684275 40.000000 7 367.440310
-1.236573 -0.800591 0.522666 39.000000 5 367.440312
-1.237041 -0.800893 0.371258 38.000000 3 367.440315
-1.254562 -0.810380 1.410910 39.000000 14 367.440325
-1.248252 -0.806301 1.165580 39.000000 12 367.440328
-1.247422 -0.805456 0.957827 44.000000 10 367.440330
-1.255340 -0.810566 0.778235 52.000000 8 367.440333
-1.242377 -0.801889 0.603502 46.000000 6 367.440335
-1.241750 -0.801177 0.447138 42.000000 4 367.440338
-0.035703 -0.015274 2.894163 95.000000 31 367.440354
-0.400939 -0.243849 2.983736 49.000000 28 367.440356
-0.522756 -0.317064 2.962873 42.000000 27 367.440359
-0.760595 -0.481883 2.923902 46.000000 25 367.440361
-0.995844 -0.638609 2.846580 41.000000 23 367.440364
-1.250525 -0.802225 2.788908 38.000000 21 367.440366
-1.274835 -0.817817 2.297132 33.000000 19 367.440369
-1.275249 -0.818079 1.889960 36.000000 17 367.440372
-0.153667 -0.083958 2.859621 95.000000 30 367.440379
-0.283768 -0.163683 3.007517 48.000000 29 367.440382
-0.638954 -0.398554 2.934883 48.000000 26 367.440384
-0.876245 -0.559763 2.881773 42.000000 24 367.440387
-1.127981 -0.721118 2.830777 43.000000 22 367.440390
-1.288940 -0.824327 2.572778 32.000000 20 367.440392
-1.274342 -0.814988 2.077051 37.000000 18 367.440395
-1.266209 -0.809784 1.707667 37.000000 16 367.440397
-1.263116 -0.812473 1.555666 38.000000 15 367.440355
-1.259797 -0.810335 1.289763 38.000000 13 367.440357
-1.250421 -0.803995 1.059266 39.000000 11 367.440360
-1.249552 -0.803434 0.863855 42.000000 9 367.440363
-1.244747 -0.800037 0.686148 40.000000 7 367.440365
-1.243396 -0.798862 0.524075 39.000000 5 367.440368
-1.243962 -0.799226 0.372191 38.000000 3 367.440370
-1.263671 -0.810026 1.417560 39.000000 14 367.440381
-1.254462 -0.804120 1.168524 39.000000 12 367.440383
-1.253856 -0.803423 0.960360 42.000000 10 367.440386
-1.261983 -0.808628 0.780333 52.000000 8 367.440388
-1.249146 -0.800094 0.605145 48.000000 6 367.440391
-1.248633 -0.799458 0.448310 42.000000 4 367.440393
-0.035756 -0.015149 2.894163 96.000000 31 367.440409
-0.401788 -0.242448 2.983736 63.000000 28 367.440412
-0.523860 -0.315238 2.962873 39.000000 27 367.440414
-0.762273 -0.479225 2.923902 45.000000 25 367.440417
-0.998067 -0.635129 2.846580 43.000000 23 367.440419
-1.253318 -0.797855 2.788908 38.000000 21 367.440422
-1.282430 -0.816384 2.305398 33.000000 19 367.440424
-1.280802 -0.815344 1.893797 36.000000 17 367.440427
-0.153960 -0.083421 2.859621 95.000000 30 367.440435
-0.284338 -0.162692 3.007517 39.000000 29 367.440437
-0.640341 -0.396321 2.934883 48.000000 26 367.440440
-0.878194 -0.556701 2.881773 45.000000 24 367.440442
-1.130491 -0.717176 2.830777 43.000000 22 367.440445
-1.294011 -0.821220 2.577044 32.000000 20 367.440448
-1.282268 -0.813764 2.085030 36.000000 18 367.440450
-1.271891 -0.807175 1.711342 37.000000 16 367.440453
-1.268951 -0.809978 1.559170 38.000000 15 367.440410
-1.265900 -0.808027 1.292901 38.000000 13 367.440413
-1.256745 -0.801875 1.062008 39.000000 11 367.440416
-1.259819 -0.803833 0.868491 42.000000 9 367.440418
-1.251441 -0.798180 0.688021 40.000000 7 367.440421
-1.250222 -0.797096 0.525484 39.000000 5 367.440423
-1.246744 -0.794878 0.372191 38.000000 3 367.440426
-1.269642 -0.807615 1.420884 39.000000 14 367.440436
-1.264082 -0.804075 1.174410 39.000000 12 367.440439
-1.260291 -0.801354 0.962892 42.000000 10 367.440441
-1.268628 -0.806653 0.782431 52.000000 8 367.440444
-1.255917 -0.798262 0.606788 48.000000 6 367.440446
-1.255518 -0.797702 0.449482 45.000000 4 367.440449
-0.035767 -0.015011 2.889163 96.000000 31 367.440465
-0.402632 -0.241044 2.983736 64.000000 28 367.440467
-0.524957 -0.313407 2.962873 39.000000 27 367.440470
-0.762674 -0.475771 2.919130 46.000000 25 367.440472
-1.000278 -0.631641 2.846580 43.000000 23 367.440475
-1.256096 -0.793475 2.788908 38.000000 21 367.440477
-1.287651 -0.813405 2.309530 33.000000 19 367.440480
-1.289061 -0.814293 1.901471 36.000000 17 367.440483
-0.154250 -0.082884 2.859621 96.000000 30 367.440490
-0.284904 -0.161698 3.007517 38.000000 29 367.440493
-0.641720 -0.394084 2.934883 48.000000 26 367.440495
-0.880132 -0.553632 2.881773 42.000000 24 367.440498
-1.132988 -0.713226 2.830777 43.000000 22 367.440501
-1.301284 -0.819477 2.585575 31.000000 20 367.440503
-1.287652 -0.810890 2.089019 36.000000 18 367.440506
-1.277569 -0.804537 1.715018 37.000000 16 367.440508
-1.274783 -0.807451 1.562675 38.000000 15 367.440466
-1.272001 -0.805686 1.296039 39.000000 13 367.440468
-1.266602 -0.801957 1.067490 40.000000 11 367.440471
-1.266360 -0.801800 0.870809 45.000000 9 367.440474
-1.258136 -0.796286 0.689894 40.000000 7 367.440476
-1.257051 -0.795292 0.526893 42.000000 5 367.440479
-1.253662 -0.793148 0.373123 38.000000 3 367.440481
-1.275611 -0.805171 1.424209 38.000000 14 367.440492
-1.270299 -0.801815 1.177353 40.000000 12 367.440494
-1.266726 -0.799251 0.965425 40.000000 10 367.440497
-1.275275 -0.804641 0.784529 52.000000 8 367.440499
-1.262690 -0.796393 0.608430 42.000000 6 367.440502
-1.262407 -0.795907 0.450655 45.000000 4 367.440504
-0.035819 -0.014886 2.889163 95.000000 31 367.440520
-0.402802 -0.239241 2.978796 64.000000 28 367.440523
-0.526048 -0.311573 2.962873 40.000000 27 367.440525
-0.764330 -0.473106 2.919130 46.000000 25 367.440528
-1.000821 -0.627108 2.841977 41.000000 23 367.440530
-1.258858 -0.789086 2.788908 38.000000 21 367.440533
-1.295251 -0.811895 2.317796 33.000000 19 367.440536
-1.294612 -0.811491 1.905308 36.000000 17 367.440538
-0.154538 -0.082345 2.859621 96.000000 30 367.440546
-0.285467 -0.160703 3.007517 36.000000 29 367.440548
-0.643092 -0.391841 2.934883 49.000000 26 367.440551
-0.882059 -0.550557 2.881773 42.000000 24 367.440554
-1.133624 -0.708113 2.826276 43.000000 22 367.440556
-1.308560 -0.817694 2.594107 31.000000 20 367.440559
-1.295586 -0.809584 2.096998 36.000000 18 367.440561
-1.286120 -0.803666 1.722368 37.000000 16 367.440564
-1.280613 -0.804894 1.566179 38.000000 15 367.440521
-1.278102 -0.803313 1.299176 39.000000 13 367.440524
-1.272934 -0.799755 1.070232 40.000000 11 367.440527
-1.272902 -0.799732 0.873127 42.000000 9 367.440529
-1.264834 -0.794355 0.691767 42.000000 7 367.440532
-1.263883 -0.793450 0.528302 42.000000 5 367.440534
-1.260584 -0.791379 0.374056 39.000000 3 367.440537
-1.281578 -0.802696 1.427534 39.000000 14 367.440547
-1.276516 -0.799522 1.180296 40.000000 12 367.440550
-1.273162 -0.797112 0.967957 40.000000 10 367.440552
-1.281922 -0.802593 0.786627 53.000000 8 367.440555
-1.269465 -0.794486 0.610073 44.000000 6 367.440557
-1.265177 -0.791495 0.450655 45.000000 4 367.440560
-0.035871 -0.014761 2.889163 95.000000 31 367.440576
-0.403635 -0.237833 2.978796 64.000000 28 367.440578
-0.527132 -0.309735 2.962873 43.000000 27 367.440581
-0.765977 -0.470435 2.919130 46.000000 25 367.440583
-1.003004 -0.623611 2.841977 41.000000 23 367.440586
-1.259570 -0.783422 2.784519 38.000000 21 367.440588
-1.300467 -0.808855 2.321929 33.000000 19 367.440591
-1.302881 -0.810353 1.912982 36.000000 17 367.440594
-0.154568 -0.081671 2.854629 96.000000 30 367.440601
-0.286026 -0.159705 3.007517 35.000000 29 367.440604
-0.644456 -0.389594 2.934883 49.000000 26 367.440606
-0.883975 -0.547475 2.881773 45.000000 24 367.440609
-1.136089 -0.704151 2.826276 43.000000 22 367.440612
-1.315839 -0.815870 2.602639 31.000000 20 367.440614
-1.303527 -0.808233 2.104977 36.000000 18 367.440617
-1.291799 -0.800958 1.726043 37.000000 16 367.440619
-1.286441 -0.802307 1.569684 38.000000 15 367.440577
-1.287504 -0.802967 1.305452 39.000000 13 367.440580
-1.279266 -0.797519 1.072973 40.000000 11 367.440582
-1.279445 -0.797628 0.875445 45.000000 9 367.440585
-1.271534 -0.792387 0.693640 40.000000 7 367.440587
-1.270716 -0.791570 0.529711 40.000000 5 367.440590
-1.263338 -0.786974 0.374056 39.000000 3 367.440592
-1.287544 -0.800188 1.430859 38.000000 14 367.440603
-1.282732 -0.797195 1.183239 40.000000 12 367.440605
-1.279600 -0.794938 0.970490 39.000000 10 367.440608
-1.288571 -0.800509 0.788725 52.000000 8 367.440610
-1.276242 -0.792541 0.611716 48.000000 6 367.440613
-1.272062 -0.789637 0.451827 45.000000 4 367.440615
-0.035922 -0.014636 2.889163 95.000000 31 367.440631
-0.404463 -0.236423 2.978796 64.000000 28 367.440634
-0.527330 -0.307380 2.957978 43.000000 27 367.440636
-0.767614 -0.467758 2.919130 48.000000 25 367.440639
-1.005175 -0.620106 2.841977 38.000000 23 367.440641
-1.262297 -0.779020 2.784519 38.000000 21 367.440644
-1.308072 -0.807266 2.330195 33.000000 19 367.440647
-1.308430 -0.807484 1.916819 36.000000 17 367.440649
-0.155109 -0.081264 2.859621 96.000000 30 367.440657
-0.286114 -0.158448 3.002545 34.000000 29 367.440659
-0.645812 -0.387342 2.934883 52.000000 26 367.440662
-0.885881 -0.544386 2.881773 45.000000 24 367.440665
-1.136685 -0.699041 2.821775 41.000000 22 367.440667
-1.320901 -0.812639 2.606905 30.000000 20 367.440670
-1.311475 -0.806837 2.112956 37.000000 18 367.440672
-1.297474 -0.798220 1.729718 37.000000 16 367.440675
-1.292266 -0.799688 1.573188 38.000000 15 367.440632
-1.293610 -0.800516 1.308590 39.000000 13 367.440635
-1.285599 -0.795248 1.075715 40.000000 11 367.440638
-1.285990 -0.795487 0.877763 44.000000 9 367.440640
-1.274292 -0.787944 0.693640 39.000000 7 367.440643
-1.277553 -0.789652 0.531121 42.000000 5 367.440645
-1.270256 -0.785142 0.374989 39.000000 3 367.440648
-1.296687 -0.799609 1.437509 38.000000 14 367.440658
-1.288947 -0.794834 1.186182 40.000000 12 367.440661
-1.286037 -0.792729 0.973022 40.000000 10 367.440663
-1.295221 -0.798387 0.790823 53.000000 8 367.440666
-1.283022 -0.790558 0.613358 46.000000 6 367.440668
-1.278949 -0.787741 0.452999 45.000000 4 367.440671
-0.035973 -0.014511 2.889163 95.000000 31 367.440687
-0.405286 -0.235009 2.978796 64.000000 28 367.440689
-0.528400 -0.305538 2.957978 47.000000 27 367.440692
-0.769242 -0.465076 2.919130 48.000000 25 367.440694
-1.005667 -0.615574 2.837374 38.000000 23 367.440697
-1.265009 -0.774609 2.784519 38.000000 21 367.440700
-1.315681 -0.805634 2.338461 33.000000 19 367.440702
-1.313975 -0.804586 1.920656 36.000000 17 367.440705
-0.155392 -0.080722 2.859621 95.000000 30 367.440712
-0.286665 -0.157448 3.002545 32.000000 29 367.440715
-0.646079 -0.384442 2.930044 51.000000 26 367.440718
-0.887776 -0.541290 2.881773 45.000000 24 367.440720
-1.139118 -0.695069 2.821775 41.000000 22 367.440723
-1.328181 -0.810740 2.615437 29.000000 20 367.440725
-1.316856 -0.803824 2.116946 36.000000 18 367.440728
-1.303146 -0.795453 1.733393 37.000000 16 367.440730
-1.301128 -0.798904 1.580198 38.000000 15 367.440688
-1.299714 -0.798032 1.311728 39.000000 13 367.440691
-1.295494 -0.795130 1.081198 40.000000 11 367.440693
-1.292534 -0.793311 0.880081 44.000000 9 367.440696
-1.280986 -0.785915 0.695514 39.000000 7 367.440698
-1.284391 -0.787695 0.532530 42.000000 5 367.440701
-1.277176 -0.783271 0.375921 38.000000 3 367.440703
-1.302656 -0.797027 1.440833 38.000000 14 367.440714
-1.295162 -0.792439 1.189126 40.000000 12 367.440716
-1.292474 -0.790484 0.975554 42.000000 10 367.440719
-1.301872 -0.796229 0.792921 53.000000 8 367.440721
-1.289802 -0.788538 0.615001 44.000000 6 367.440724
-1.285839 -0.785807 0.454171 44.000000 4 367.440726
-0.036024 -0.014385 2.889163 96.000000 31 367.440742
-0.406103 -0.233593 2.978796 64.000000 28 367.440745
-0.529463 -0.303691 2.957978 47.000000 27 367.440747
-0.770861 -0.462388 2.919130 48.000000 25 367.440750
-1.007810 -0.612059 2.837374 41.000000 23 367.440752
-1.267705 -0.770189 2.784519 37.000000 21 367.440755
-1.323295 -0.803959 2.346727 33.000000 19 367.440757
-1.322255 -0.803324 1.928330 36.000000 17 367.440760
-0.155673 -0.080179 2.859621 96.000000 30 367.440768
-0.287213 -0.156447 3.002545 32.000000 29 367.440770
-0.647417 -0.382185 2.930044 49.000000 26 367.440773
-0.889660 -0.538188 2.881773 44.000000 24 367.440775
-1.141537 -0.691088 2.821775 43.000000 22 367.440778
-1.335465 -0.808801 2.623969 28.000000 20 367.440780
-1.324810 -0.802345 2.124924 36.000000 18 367.440783
-1.311715 -0.794412 1.740744 37.000000 16 367.440786
-1.306955 -0.796213 1.583702 38.000000 15 367.440743
-1.305816 -0.795516 1.314865 39.000000 13 367.440746
-1.301833 -0.792778 1.083939 40.000000 11 367.440748
-1.299079 -0.791098 0.882399 44.000000 9 367.440751
-1.287682 -0.783849 0.697387 39.000000 7 367.440754
-1.291231 -0.785701 0.533939 42.000000 5 367.440756
-1.279903 -0.778808 0.375921 39.000000 3 367.440759
-1.308622 -0.794413 1.444158 38.000000 14 367.440769
-1.301376 -0.790011 1.192069 39.000000 12 367.440772
-1.298911 -0.788204 0.978087 42.000000 10 367.440774
-1.308523 -0.794034 0.795020 53.000000 8 367.440777
-1.296585 -0.786480 0.616644 46.000000 6 367.440779
-1.292730 -0.783834 0.455344 44.000000 4 367.440782
-0.036074 -0.014259 2.889163 95.000000 31 367.440798
-0.406241 -0.231790 2.973857 66.000000 28 367.440800
-0.530520 -0.301841 2.957978 45.000000 27 367.440803
-0.772470 -0.459694 2.919130 50.000000 25 367.440805
-1.009940 -0.608538 2.837374 41.000000 23 367.440808
-1.270385 -0.765759 2.784519 37.000000 21 367.440810
-1.330914 -0.802240 2.354993 32.000000 19 367.440813
-1.327797 -0.800358 1.932167 36.000000 17 367.440815
-0.155693 -0.079505 2.854629 96.000000 30 367.440823
-0.287757 -0.155443 3.002545 32.000000 29 367.440826
-0.648747 -0.379923 2.930044 48.000000 26 367.440828
-0.891533 -0.535079 2.881773 44.000000 24 367.440831
-1.143942 -0.687099 2.821775 44.000000 22 367.440833
-1.342751 -0.806821 2.632501 27.000000 20 367.440836
-1.332769 -0.800820 2.132904 36.000000 18 367.440839
-1.317385 -0.791574 1.744419 37.000000 16 367.440841
-1.312778 -0.793490 1.587207 38.000000 15 367.440799
-1.311916 -0.792967 1.318003 39.000000 13 367.440801
-1.308171 -0.790391 1.086681 40.000000 11 367.440804
-1.305625 -0.788850 0.884717 42.000000 9 367.440806
-1.294378 -0.781747 0.699260 42.000000 7 367.440809
-1.293965 -0.781189 0.533939 40.000000 5 367.440812
-1.286819 -0.776875 0.376854 38.000000 3 367.440814
-1.314586 -0.791767 1.447483 38.000000 14 367.440824
-1.307588 -0.787549 1.195012 39.000000 12 367.440827
-1.305348 -0.785889 0.980619 42.000000 10 367.440830
-1.315175 -0.791803 0.797118 46.000000 8 367.440832
-1.303368 -0.784385 0.618286 46.000000 6 367.440835
-1.299623 -0.781822 0.456516 44.000000 4 367.440837
-0.036123 -0.014133 2.889163 95.000000 31 367.440853
-0.407048 -0.230370 2.973857 65.000000 28 367.440856
-0.531570 -0.299988 2.957978 45.000000 27 367.440858
-0.774070 -0.456995 2.919130 48.000000 25 367.440861
-1.012058 -0.605009 2.837374 41.000000 23 367.440863
-1.273051 -0.761320 2.784519 38.000000 21 367.440866
-1.336121 -0.799034 2.359126 32.000000 19 367.440868
-1.336085 -0.799009 1.939841 36.000000 17 367.440871
-0.155970 -0.078961 2.854629 96.000000 30 367.440879
-0.288298 -0.154438 3.002545 31.000000 29 367.440881
-0.650070 -0.377656 2.930044 52.000000 26 367.440884
-0.891913 -0.531081 2.877080 45.000000 24 367.440886
-1.146334 -0.683102 2.821775 44.000000 22 367.440889
-1.350039 -0.804800 2.641033 27.000000 20 367.440892
-1.338145 -0.797707 2.136893 36.000000 18 367.440894
-1.325965 -0.790442 1.751769 37.000000 16 367.440897
-1.321657 -0.792571 1.594216 38.000000 15 367.440854
-1.318015 -0.790385 1.321141 39.000000 13 367.440857
-1.314509 -0.787970 1.089422 40.000000 11 367.440859
-1.312170 -0.786565 0.887035 40.000000 9 367.440862
-1.305053 -0.781989 0.703006 42.000000 7 367.440865
-1.300800 -0.779132 0.535348 40.000000 5 367.440867
-1.293737 -0.774902 0.377787 39.000000 3 367.440870
-1.320548 -0.789089 1.450808 38.000000 14 367.440880
-1.313799 -0.785053 1.197955 39.000000 12 367.440883
-1.311784 -0.783539 0.983152 42.000000 10 367.440885
-1.321828 -0.789535 0.799216 46.000000 8 367.440888
-1.310153 -0.782251 0.619929 46.000000 6 367.440890
-1.306518 -0.779772 0.457688 45.000000 4 367.440893
-0.036172 -0.014007 2.889163 95.000000 31 367.440909
-0.407849 -0.228948 2.973857 65.000000 28 367.440911
-0.532614 -0.298130 2.957978 47.000000 27 367.440914
-0.774372 -0.453535 2.914358 48.000000 25 367.440916
-1.014164 -0.601472 2.837374 41.000000 23 367.440919
-1.275700 -0.756871 2.784519 38.000000 21 367.440921
-1.343742 -0.797237 2.367392 32.000000 19 367.440924
-1.344381 -0.797612 1.947514 36.000000 17 367.440926
-0.156244 -0.078416 2.854629 96.000000 30 367.440934
-0.288836 -0.153431 3.002545 31.000000 29 367.440937
-0.651384 -0.375384 2.930044 52.000000 26 367.440939
-0.893761 -0.527964 2.877080 44.000000 24 367.440942
-1.146837 -0.677988 2.817275 44.000000 22 367.440944
-1.357330 -0.802738 2.649565 27.000000 20 367.440947
-1.346110 -0.796099 2.144872 36.000000 18 367.440950
-1.334552 -0.789261 1.759119 37.000000 16 367.440952
-1.327480 -0.789777 1.597720 38.000000 15 367.440910
-1.324111 -0.787769 1.324279 39.000000 13 367.440912
-1.320845 -0.785514 1.092164 40.000000 11 367.440915
-1.318716 -0.784245 0.889353 44.000000 9 367.440918
-1.311759 -0.779798 0.704879 42.000000 7 367.440920
-1.307636 -0.777038 0.536757 40.000000 5 367.440923
-1.300657 -0.772891 0.378719 38.000000 3 367.440925
-1.329719 -0.788283 1.457458 38.000000 14 367.440936
-1.320008 -0.782523 1.200898 39.000000 12 367.440938
-1.318220 -0.781153 0.985684 42.000000 10 367.440941
-1.328480 -0.787229 0.801314 46.000000 8 367.440943
-1.316939 -0.780080 0.621572 48.000000 6 367.440946
-1.313415 -0.777683 0.458861 47.000000 4 367.440948
-0.036221 -0.013881 2.889163 95.000000 31 367.440964
-0.408646 -0.227523 2.973857 66.000000 28 367.440967
-0.533652 -0.296269 2.957978 47.000000 27 367.440969
-0.775950 -0.450830 2.914358 50.000000 25 367.440972
-1.016257 -0.597929 2.837374 41.000000 23 367.440974
-1.276270 -0.751198 2.780131 38.000000 21 367.440977
-1.351367 -0.795396 2.375658 32.000000 19 367.440979
-1.349920 -0.794541 1.951351 36.000000 17 367.440982
-0.156517 -0.077870 2.854629 95.000000 30 367.440990
-0.289369 -0.152421 3.002545 31.000000 29 367.440992
-0.652690 -0.373108 2.930044 54.000000 26 367.440995
-0.895599 -0.524841 2.877080 44.000000 24 367.440997
-1.149196 -0.673981 2.817275 44.000000 22 367.441000
-1.364623 -0.800634 2.658096 27.000000 20 367.441003
-1.351480 -0.792921 2.148862 36.000000 18 367.441005
-1.343147 -0.788028 1.766470 37.000000 16 367.441008
-1.336371 -0.788763 1.604729 38.000000 15 367.440965
-1.333558 -0.787100 1.330554 39.000000 13 367.440968
-1.327180 -0.783023 1.094905 40.000000 11 367.440970
-1.325261 -0.781888 0.891671 42.000000 9 367.440973
-1.318466 -0.777569 0.706752 44.000000 7 367.440976
-1.314473 -0.774905 0.538167 42.000000 5 367.440978
-1.307579 -0.770841 0.379652 38.000000 3 367.440981
-1.335681 -0.785530 1.460783 38.000000 14 367.440991
-1.326216 -0.779960 1.203841 39.000000 12 367.440994
-1.324656 -0.778732 0.988217 42.000000 10 367.440996
-1.335132 -0.784887 0.803412 51.000000 8 367.440999
-1.323726 -0.777871 0.623215 48.000000 6 367.441001
-1.316121 -0.773093 0.458861 47.000000 4 367.441004
-0.036269 -0.013754 2.889163 95.000000 31 367.441020
-0.409438 -0.226095 2.973857 64.000000 28 367.441022
-0.534683 -0.294405 2.957978 48.000000 27 367.441025
-0.776225 -0.447373 2.909587 48.000000 25 367.441027
-1.018338 -0.594378 2.837374 41.000000 23 367.441030
-1.278884 -0.746739 2.780131 38.000000 21 367.441032
-1.358996 -0.793512 2.383924 32.000000 19 367.441035
-1.358222 -0.793057 1.959025 35.000000 17 367.441038
-0.156788 -0.077323 2.854629 96.000000 30 367.441045
-0.289900 -0.151410 3.002545 31.000000 29 367.441048
-0.653989 -0.370828 2.930044 54.000000 26 367.441050
-0.897425 -0.521712 2.877080 45.000000 24 367.441053
-1.151542 -0.669965 2.817275 43.000000 22 367.441056
-1.371918 -0.798490 2.666628 27.000000 20 367.441058
-1.359450 -0.791231 2.156841 35.000000 18 367.441061
-1.351749 -0.786746 1.773820 36.000000 16 367.441063
-1.345271 -0.787698 1.611739 38.000000 15 367.441021
-1.339657 -0.784407 1.333692 39.000000 13 367.441023
-1.337123 -0.782610 1.100388 40.000000 11 367.441026
-1.331805 -0.779495 0.893989 40.000000 9 367.441029
-1.325174 -0.775303 0.708625 44.000000 7 367.441031
-1.321311 -0.772734 0.539576 42.000000 5 367.441034
-1.314502 -0.768752 0.380584 39.000000 3 367.441036
-1.344866 -0.784626 1.467432 38.000000 14 367.441047
-1.332421 -0.777363 1.206785 39.000000 12 367.441049
-1.334814 -0.778447 0.993281 42.000000 10 367.441052
-1.337864 -0.780222 0.803412 50.000000 8 367.441054
-1.330513 -0.775624 0.624857 48.000000 6 367.441057
-1.323012 -0.770942 0.460033 45.000000 4 367.441059
-0.036317 -0.013627 2.889163 93.000000 31 367.441075
-0.410906 -0.225037 2.978796 64.000000 28 367.441078
-0.535707 -0.292537 2.957978 48.000000 27 367.441080
-0.777782 -0.444661 2.909587 48.000000 25 367.441083
-1.020407 -0.590819 2.837374 43.000000 23 367.441085
-1.281483 -0.742270 2.780131 38.000000 21 367.441088
-1.364192 -0.790173 2.388057 32.000000 19 367.441090
-1.363756 -0.789918 1.962862 35.000000 17 367.441093
-0.157044 -0.076803 2.854629 95.000000 30 367.441101
-0.290400 -0.150448 3.002545 31.000000 29 367.441103
-0.655215 -0.368657 2.930044 52.000000 26 367.441106
-0.899150 -0.518733 2.877080 42.000000 24 367.441108
-1.153874 -0.665942 2.817275 43.000000 22 367.441111
-1.381472 -0.797608 2.679426 26.000000 20 367.441114
-1.364814 -0.787987 2.160830 35.000000 18 367.441116
-1.357286 -0.783955 1.777495 36.000000 16 367.441119
-1.351096 -0.784788 1.615243 38.000000 15 367.441076
-1.345753 -0.781681 1.336830 39.000000 13 367.441079
-1.343463 -0.780038 1.103130 40.000000 11 367.441082
-1.338350 -0.777066 0.896307 40.000000 9 367.441084
-1.335756 -0.775560 0.712371 42.000000 7 367.441087
-1.328015 -0.770756 0.540985 42.000000 5 367.441089
-1.321426 -0.766623 0.381517 39.000000 3 367.441092
-1.350829 -0.781798 1.470757 38.000000 14 367.441102
-1.338625 -0.774732 1.209728 39.000000 12 367.441105
-1.341120 -0.776176 0.995814 43.000000 10 367.441107
-1.344372 -0.778055 0.805510 50.000000 8 367.441110
-1.337165 -0.773572 0.626500 48.000000 6 367.441112
-1.329769 -0.768983 0.461205 45.000000 4 367.441115
-0.036362 -0.013507 2.889163 93.000000 31 367.441131
-0.411650 -0.223673 2.978796 66.000000 28 367.441133
-0.536674 -0.290759 2.957978 48.000000 27 367.441136
-0.779252 -0.442079 2.909587 50.000000 25 367.441138
-1.022360 -0.587432 2.837374 43.000000 23 367.441141
-1.281861 -0.736823 2.775742 38.000000 21 367.441143
-1.371685 -0.788450 2.396322 32.000000 19 367.441146
-1.371927 -0.788586 1.970536 35.000000 17 367.441149
-0.157311 -0.076254 2.854629 96.000000 30 367.441156
-0.290924 -0.149434 3.002545 30.000000 29 367.441159
-0.655399 -0.365755 2.925205 52.000000 26 367.441161
-0.899458 -0.514734 2.872388 44.000000 24 367.441164
-1.154186 -0.661029 2.812774 46.000000 22 367.441167
-1.388636 -0.795616 2.687958 24.000000 20 367.441169
-1.372649 -0.786454 2.168809 35.000000 18 367.441172
-1.365898 -0.782583 1.784846 36.000000 16 367.441174
-1.359871 -0.783866 1.622252 37.000000 15 367.441132
-1.355083 -0.781103 1.343105 39.000000 13 367.441134
-1.353288 -0.779753 1.108612 40.000000 11 367.441137
-1.344758 -0.774835 0.898625 40.000000 9 367.441140
-1.342472 -0.773206 0.714244 44.000000 7 367.441142
-1.334855 -0.768509 0.542394 40.000000 5 367.441145
