# .PCD v.7 - Point Cloud Data file format
VERSION .7
FIELDS x y z intensity ring timestamp
SIZE 4 4 4 4 2 8
TYPE F F F F U D
COUNT 1 1 1 1 1 1
WIDTH 946
HEIGHT 1
VIEWPOINT 0 0 0 1 0 0 0
POINTS 946
DATA ascii
1.286635 0.699191 3.509343 76.000000 23 367.092370
1.705220 0.927033 3.622753 10.000000 21 367.092373
2.208346 1.200546 3.764328 12.000000 19 367.092375
1.801481 0.979358 2.530730 11.000000 17 367.092378
0.178103 0.081022 3.214025 96.000000 30 367.092386
0.319406 0.154527 3.261059 96.000000 29 367.092388
0.769606 0.405808 3.384929 91.000000 26 367.092391
1.104169 0.597546 3.468369 85.000000 24 367.092393
1.489340 0.806648 3.564413 84.000000 22 367.092396
1.948291 1.055650 3.694718 9.000000 20 367.092399
2.071970 1.122660 3.194110 13.000000 18 367.092401
1.825236 0.988970 2.328770 16.000000 16 367.092404
1.832103 0.998904 2.130411 18.000000 15 367.092361
2.528478 1.378577 2.403674 12.000000 13 367.092364
2.803328 1.527795 2.177784 11.000000 11 367.092366
2.868206 1.563150 1.795702 11.000000 9 367.092369
2.919652 1.590527 1.431615 12.000000 7 367.092372
2.962145 1.613005 1.080707 11.000000 5 367.092374
1.863686 1.014852 0.494364 21.000000 3 367.092377
2.243708 1.221281 0.321837 16.000000 1 367.092379
2.017937 1.096115 2.125752 18.000000 14 367.092387
2.776278 1.508029 2.384049 12.000000 12 367.092390
2.828017 1.535494 1.975863 11.000000 10 367.092392
2.888674 1.568425 1.606966 12.000000 8 367.092395
2.943246 1.597390 1.254006 12.000000 6 367.092397
1.807358 0.980502 0.586643 87.000000 4 367.092400
1.832628 0.993797 0.382613 84.000000 2 367.092402
2.187077 1.185512 0.194028 90.000000 0 367.092405
0.039224 0.013092 3.184152 96.000000 31 367.092416
0.461238 0.234539 3.289970 96.000000 28 367.092418
0.614341 0.311451 3.334910 82.000000 27 367.092421
0.933420 0.496428 3.424933 86.000000 25 367.092423
1.289068 0.694696 3.509343 77.000000 23 367.092426
1.708446 0.921075 3.622753 11.000000 21 367.092428
2.207569 1.190160 3.756063 11.000000 19 367.092431
1.810533 0.976106 2.538404 11.000000 17 367.092433
0.178385 0.080400 3.214025 97.000000 30 367.092441
0.319943 0.153411 3.261059 96.000000 29 367.092444
0.771017 0.403119 3.384929 93.000000 26 367.092446
1.106248 0.593688 3.468369 85.000000 24 367.092449
1.494065 0.802475 3.568914 83.000000 22 367.092451
1.951964 1.048842 3.694718 9.000000 20 367.092454
2.083841 1.119700 3.206079 14.000000 18 367.092457
1.834650 0.985802 2.336120 16.000000 16 367.092459
1.838716 0.994199 2.133916 18.000000 15 367.092417
2.533275 1.369742 2.403674 12.000000 13 367.092419
2.801287 1.514024 2.172301 11.000000 11 367.092422
2.861953 1.546809 1.788748 12.000000 9 367.092425
2.912949 1.573715 1.425996 12.000000 7 367.092427
2.955094 1.595817 1.076479 12.000000 5 367.092430
1.875862 1.013008 0.496229 21.000000 3 367.092432
2.252340 1.215807 0.322283 15.000000 1 367.092435
2.025039 1.090836 2.129077 18.000000 14 367.092443
2.774408 1.494495 2.378162 12.000000 12 367.092445
2.825768 1.521525 1.970798 11.000000 10 367.092448
2.882143 1.551877 1.600672 12.000000 8 367.092450
2.940487 1.582630 1.250720 12.000000 6 367.092453
1.815050 0.976490 0.587816 87.000000 4 367.092455
1.840448 0.989739 0.383303 83.000000 2 367.092458
2.200002 1.182602 0.194431 93.000000 0 367.092460
0.039270 0.012955 3.184152 96.000000 31 367.092471
0.462054 0.232927 3.289970 96.000000 28 367.092474
0.615424 0.309305 3.334910 82.000000 27 367.092476
0.935147 0.493166 3.424933 85.000000 25 367.092479
1.291485 0.690192 3.509343 85.000000 23 367.092481
1.713763 0.916236 3.627142 14.000000 21 367.092484
2.209229 1.181120 3.751930 11.000000 19 367.092486
1.819584 0.972804 2.546078 11.000000 17 367.092489
0.178664 0.079777 3.214025 97.000000 30 367.092497
0.320477 0.152293 3.261059 95.000000 29 367.092499
0.772420 0.400425 3.384929 93.000000 26 367.092502
1.109837 0.590634 3.473062 85.000000 24 367.092504
1.496857 0.797254 3.568914 82.000000 22 367.092507
1.957915 1.043249 3.698984 9.000000 20 367.092510
2.066457 1.101081 3.174163 13.000000 18 367.092512
1.841072 0.980986 2.339795 15.000000 16 367.092515
1.848461 0.991145 2.140925 18.000000 15 367.092472
2.544902 1.364570 2.409950 13.000000 13 367.092475
2.799184 1.500286 2.166818 11.000000 11 367.092477
2.855621 1.530532 1.781793 11.000000 9 367.092480
2.906165 1.556969 1.420377 12.000000 7 367.092483
2.952188 1.580963 1.073661 12.000000 5 367.092485
1.883716 1.008773 0.497162 21.000000 3 367.092488
2.260961 1.210288 0.322729 15.000000 1 367.092490
2.028834 1.083760 2.129077 18.000000 14 367.092498
2.768912 1.479088 2.369333 12.000000 12 367.092501
2.819652 1.505560 1.963201 11.000000 10 367.092503
2.879535 1.537531 1.596476 13.000000 8 367.092506
2.933495 1.565686 1.245792 12.000000 6 367.092508
1.827025 0.974724 0.590160 87.000000 4 367.092511
1.852631 0.987969 0.384682 83.000000 2 367.092513
2.208526 1.177265 0.194632 93.000000 0 367.092516
0.039315 0.012818 3.184152 96.000000 31 367.092527
0.462864 0.231313 3.289970 96.000000 28 367.092529
0.616500 0.307155 3.334910 82.000000 27 367.092532
0.938186 0.490591 3.429704 83.000000 25 367.092534
1.293887 0.685679 3.509343 84.000000 23 367.092537
1.716951 0.910248 3.627142 21.000000 21 367.092539
2.208366 1.170765 3.743664 9.000000 19 367.092542
1.828633 0.969449 2.553752 11.000000 17 367.092545
0.178942 0.079153 3.214025 96.000000 30 367.092552
0.321007 0.151174 3.261059 95.000000 29 367.092555
0.773813 0.397726 3.384929 91.000000 26 367.092557
1.111892 0.586756 3.473062 87.000000 24 367.092560
1.499631 0.792024 3.568914 85.000000 22 367.092563
1.961544 1.036408 3.698984 9.000000 20 367.092565
2.067623 1.092453 3.170173 13.000000 18 367.092568
1.850480 0.977721 2.347146 15.000000 16 367.092570
1.858207 0.988035 2.147934 18.000000 15 367.092528
2.553087 1.357507 2.413087 14.000000 13 367.092530
2.793327 1.484619 2.158594 11.000000 11 367.092533
2.853122 1.516396 1.777157 11.000000 9 367.092536
2.899300 1.540290 1.414758 12.000000 7 367.092538
2.944978 1.563898 1.069433 11.000000 5 367.092541
1.895903 1.006800 0.499027 20.000000 3 367.092543
2.273969 1.207058 0.323622 15.000000 1 367.092546
2.035905 1.078420 2.132402 18.000000 14 367.092554
2.766915 1.465630 2.363447 12.000000 12 367.092556
2.817270 1.491673 1.958136 11.000000 10 367.092559
2.876863 1.523223 1.592279 13.000000 8 367.092561
2.930594 1.551018 1.242507 13.000000 6 367.092564
1.834712 0.970613 0.591333 85.000000 4 367.092566
1.860445 0.983811 0.385372 83.000000 2 367.092569
2.221456 1.174218 0.195035 94.000000 0 367.092571
0.039317 0.012671 3.179152 96.000000 31 367.092582
0.463668 0.229696 3.289970 96.000000 28 367.092585
0.618482 0.305451 3.339805 82.000000 27 367.092587
0.939893 0.487313 3.429704 85.000000 25 367.092590
1.298002 0.682067 3.513946 84.000000 23 367.092592
1.720118 0.904249 3.627142 34.000000 21 367.092595
2.192512 1.152574 3.710600 7.000000 19 367.092597
1.840519 0.967535 2.565263 11.000000 17 367.092600
0.179217 0.078528 3.214025 97.000000 30 367.092608
0.321532 0.150052 3.261059 95.000000 29 367.092610
0.775197 0.395023 3.384929 91.000000 26 367.092613
1.113933 0.582872 3.473062 87.000000 24 367.092615
1.502386 0.786785 3.568914 84.000000 22 367.092618
1.965150 1.029555 3.698984 9.000000 20 367.092621
2.015359 1.055856 3.086394 12.000000 18 367.092623
1.856885 0.972829 2.350821 14.000000 16 367.092626
1.864799 0.983206 2.151439 18.000000 15 367.092583
2.564697 1.352217 2.419363 14.000000 13 367.092586
2.791093 1.470960 2.153111 11.000000 11 367.092589
2.850559 1.502296 1.772521 11.000000 9 367.092591
2.896456 1.525839 1.411012 12.000000 7 367.092594
2.941929 1.549138 1.066615 11.000000 5 367.092596
1.903753 1.002464 0.499960 20.000000 3 367.092599
2.282575 1.201433 0.324068 16.000000 1 367.092601
2.039657 1.071307 2.132402 18.000000 14 367.092609
2.761278 1.450324 2.354617 12.000000 12 367.092612
2.814825 1.477822 1.953071 11.000000 10 367.092614
2.870107 1.506843 1.585985 13.000000 8 367.092617
2.927627 1.536390 1.239221 13.000000 6 367.092619
1.842394 0.966461 0.592505 85.000000 4 367.092622
1.872640 0.981910 0.386752 83.000000 2 367.092624
2.234391 1.171095 0.195439 94.000000 0 367.092627
0.039361 0.012534 3.179152 96.000000 31 367.092638
0.464467 0.228076 3.289970 96.000000 28 367.092640
0.619544 0.303291 3.339805 83.000000 27 367.092643
0.941588 0.484029 3.429704 85.000000 25 367.092645
1.300375 0.677532 3.513946 84.000000 23 367.092648
1.723264 0.898239 3.627142 45.000000 21 367.092650
2.166578 1.129306 3.661005 6.000000 19 367.092653
1.849571 0.964069 2.572937 11.000000 17 367.092656
0.179224 0.077788 3.209033 96.000000 30 367.092663
0.322054 0.148929 3.261059 96.000000 29 367.092666
0.776571 0.392314 3.384929 91.000000 26 367.092668
1.117493 0.579774 3.477755 87.000000 24 367.092671
1.507056 0.782539 3.573415 84.000000 22 367.092674
1.968732 1.022689 3.698984 9.000000 20 367.092676
1.946818 1.011302 2.978677 12.000000 18 367.092679
1.866286 0.969467 2.358171 14.000000 16 367.092681
1.874541 0.979995 2.158448 18.000000 15 367.092639
2.576302 1.346864 2.425639 14.000000 13 367.092641
2.785093 1.455399 2.144887 10.000000 11 367.092644
2.844007 1.486181 1.765567 12.000000 9 367.092647
2.889437 1.509280 1.405393 12.000000 7 367.092649
2.934562 1.532199 1.062387 12.000000 5 367.092652
1.911595 0.998086 0.500892 20.000000 3 367.092654
2.295585 1.198066 0.324961 15.000000 1 367.092657
2.046696 1.065905 2.135727 18.000000 14 367.092665
2.759154 1.436943 2.348731 12.000000 12 367.092667
2.808494 1.462015 1.945474 11.000000 10 367.092670
2.867298 1.492624 1.581789 13.000000 8 367.092672
2.920405 1.519622 1.234293 13.000000 6 367.092675
1.854380 0.964510 0.594850 85.000000 4 367.092677
1.880450 0.977652 0.387442 83.000000 2 367.092680
2.247331 1.167896 0.195842 91.000000 0 367.092683
0.039404 0.012397 3.179152 96.000000 31 367.092693
0.465261 0.226453 3.289970 96.000000 28 367.092696
0.620599 0.301126 3.339805 83.000000 27 367.092698
0.943272 0.480740 3.429704 85.000000 25 367.092701
1.302732 0.672989 3.513946 84.000000 23 367.092703
1.726389 0.892218 3.627142 65.000000 21 367.092706
2.153007 1.112692 3.632074 6.000000 19 367.092709
1.861469 0.962022 2.584447 12.000000 17 367.092711
0.179494 0.077162 3.209033 96.000000 30 367.092719
0.322572 0.147804 3.261059 95.000000 29 367.092721
0.777935 0.389601 3.384929 91.000000 26 367.092724
1.119510 0.575870 3.477755 85.000000 24 367.092727
1.509914 0.777011 3.573415 84.000000 22 367.092729
1.972467 1.015466 3.698984 9.000000 20 367.092732
1.894238 0.975190 2.894898 13.000000 18 367.092734
1.875855 0.965723 2.365522 14.000000 16 367.092737
1.884282 0.976728 2.165457 18.000000 15 367.092694
2.587899 1.341446 2.431914 14.000000 13 367.092697
2.779019 1.439897 2.136662 10.000000 11 367.092700
2.841310 1.472169 1.760931 12.000000 9 367.092702
2.886455 1.494921 1.401647 13.000000 7 367.092705
2.931371 1.517535 1.059569 12.000000 5 367.092707
1.923966 0.995589 0.502758 20.000000 3 367.092710
2.304384 1.191932 0.325407 15.000000 1 367.092712
2.050589 1.058397 2.135727 18.000000 14 367.092720
2.753627 1.421259 2.339901 12.000000 12 367.092723
2.806171 1.447759 1.940409 11.000000 10 367.092725
2.864683 1.477943 1.577593 13.000000 8 367.092728
2.917561 1.504579 1.231008 13.000000 6 367.092730
1.862224 0.959934 0.596022 84.000000 4 367.092733
1.892825 0.975290 0.388821 81.000000 2 367.092735
2.255835 1.162333 0.196043 91.000000 0 367.092738
0.039449 0.012252 3.179152 96.000000 31 367.092749
0.466087 0.224746 3.289970 97.000000 28 367.092751
0.621698 0.298849 3.339805 82.000000 27 367.092754
0.945028 0.477279 3.429704 83.000000 25 367.092756
1.306929 0.669100 3.518548 84.000000 23 367.092759
1.729648 0.885885 3.627142 66.000000 21 367.092761
2.114492 1.082986 3.561814 7.000000 19 367.092764
1.873543 0.959577 2.595958 12.000000 17 367.092767
0.179776 0.076503 3.209033 97.000000 30 367.092774
0.323112 0.146620 3.261059 95.000000 29 367.092777
0.779358 0.386747 3.384929 91.000000 26 367.092779
1.121613 0.571763 3.477755 85.000000 24 367.092782
1.514557 0.772725 3.577915 85.000000 22 367.092785
1.978323 1.009760 3.703250 9.000000 20 367.092787
2.018433 1.030230 3.074425 13.000000 18 367.092790
1.885254 0.962252 2.372872 14.000000 16 367.092792
1.894194 0.973074 2.172466 18.000000 15 367.092750
2.599724 1.335509 2.438190 14.000000 13 367.092753
2.773118 1.423972 2.128438 11.000000 11 367.092755
2.838804 1.457698 1.756295 12.000000 9 367.092758
2.883666 1.480098 1.397901 13.000000 7 367.092760
2.924109 1.500211 1.055341 12.000000 5 367.092763
1.931800 0.991109 0.503690 20.000000 3 367.092765
2.317394 1.188426 0.326299 14.000000 1 367.092768
2.054271 1.051232 2.135727 18.000000 14 367.092776
2.747777 1.406114 2.331072 13.000000 12 367.092778
2.799693 1.432064 1.932811 12.000000 10 367.092781
2.861743 1.463801 1.573397 13.000000 8 367.092783
2.914385 1.490086 1.227723 13.000000 6 367.092786
1.874219 0.957851 0.598366 85.000000 4 367.092788
1.900628 0.970930 0.389511 82.000000 2 367.092791
2.268979 1.158601 0.196446 98.000000 0 367.092794
0.039535 0.012123 3.184152 89.000000 31 367.092804
0.466869 0.223118 3.289970 97.000000 28 367.092807
0.622738 0.296678 3.339805 82.000000 27 367.092809
0.946688 0.473977 3.429704 83.000000 25 367.092812
1.309256 0.664534 3.518548 84.000000 23 367.092814
1.732729 0.879842 3.627142 71.000000 21 367.092817
2.133314 1.083243 3.586612 10.000000 19 367.092820
1.882598 0.955935 2.603632 12.000000 17 367.092822
0.180309 0.075986 3.214025 95.000000 30 367.092830
0.323621 0.145492 3.261059 96.000000 29 367.092832
0.780703 0.384024 3.384929 90.000000 26 367.092835
1.123602 0.567844 3.477755 84.000000 24 367.092838
1.517245 0.767433 3.577915 85.000000 22 367.092840
1.981835 1.002849 3.703250 9.000000 20 367.092843
2.086559 1.055837 3.170173 12.000000 18 367.092845
1.897676 0.960257 2.383898 14.000000 16 367.092848
1.907113 0.971312 2.182980 18.000000 15 367.092805
2.611308 1.329960 2.444465 14.000000 13 367.092808
2.770619 1.410489 2.122955 11.000000 11 367.092811
2.835979 1.443760 1.751659 12.000000 9 367.092813
2.880552 1.465818 1.394155 13.000000 7 367.092816
2.920776 1.485645 1.052523 13.000000 5 367.092818
1.944004 0.988814 0.505556 21.000000 3 367.092821
2.325967 1.182587 0.326745 14.000000 1 367.092823
2.061258 1.045745 2.139052 18.000000 14 367.092831
2.741854 1.391028 2.322242 13.000000 12 367.092834
2.793139 1.416433 1.925214 12.000000 10 367.092836
2.854692 1.447644 1.567103 13.000000 8 367.092839
2.906932 1.473498 1.222795 13.000000 6 367.092841
1.881887 0.953500 0.599539 85.000000 4 367.092844
1.912841 0.968764 0.390891 82.000000 2 367.092847
2.277467 1.152930 0.196648 95.000000 0 367.092849
0.039577 0.011985 3.184152 89.000000 31 367.092860
0.467645 0.221487 3.289970 96.000000 28 367.092862
0.623770 0.294502 3.339805 83.000000 27 367.092865
0.948337 0.470670 3.429704 83.000000 25 367.092867
1.311568 0.659960 3.518548 84.000000 23 367.092870
1.735790 0.873788 3.627142 70.000000 21 367.092873
2.124514 1.069463 3.565947 12.000000 19 367.092875
1.891651 0.952240 2.611306 11.000000 17 367.092878
0.180573 0.075356 3.214025 96.000000 30 367.092885
0.324127 0.144361 3.261059 95.000000 29 367.092888
0.782039 0.381297 3.384929 91.000000 26 367.092891
1.127120 0.564692 3.482447 84.000000 24 367.092893
1.521862 0.763109 3.582416 85.000000 22 367.092896
1.985324 0.995925 3.703250 9.000000 20 367.092898
2.136029 1.071521 3.237994 15.000000 18 367.092901
1.907077 0.956667 2.391248 14.000000 16 367.092903
1.916859 0.967864 2.189989 17.000000 15 367.092861
2.619410 1.322591 2.447603 13.000000 13 367.092864
2.764327 1.395157 2.114731 11.000000 11 367.092866
2.829137 1.427863 1.744705 12.000000 9 367.092869
2.877373 1.451578 1.390409 13.000000 7 367.092871
2.917377 1.471120 1.049705 12.000000 5 367.092874
1.956216 0.986445 0.507421 21.000000 3 367.092876
2.330081 1.174460 0.326745 14.000000 1 367.092879
2.064896 1.038543 2.139052 18.000000 14 367.092887
2.739471 1.377816 2.316356 13.000000 12 367.092889
2.790363 1.402802 1.920149 12.000000 10 367.092892
2.851618 1.433594 1.562907 13.000000 8 367.092894
2.903619 1.459101 1.219509 14.000000 6 367.092897
1.893891 0.951289 0.601883 84.000000 4 367.092899
1.920637 0.964303 0.391581 82.000000 2 367.092902
2.290408 1.149455 0.197051 94.000000 0 367.092905
0.039618 0.011847 3.184152 96.000000 31 367.092916
0.468415 0.219853 3.289970 91.000000 28 367.092919
0.624794 0.292323 3.339805 83.000000 27 367.092921
0.949974 0.467357 3.429704 85.000000 25 367.092924
1.313864 0.655378 3.518548 84.000000 23 367.092926
1.740973 0.868793 3.631531 71.000000 21 367.092929
2.125716 1.060784 3.561814 11.000000 19 367.092931
1.897832 0.947063 2.615143 11.000000 17 367.092934
0.180835 0.074726 3.214025 96.000000 30 367.092942
0.324629 0.143229 3.261059 95.000000 29 367.092944
0.783365 0.378565 3.384929 91.000000 26 367.092947
1.129084 0.560754 3.482447 85.000000 24 367.092949
1.524516 0.757792 3.582416 85.000000 22 367.092952
1.991124 0.990150 3.707516 9.000000 20 367.092954
2.145154 1.066742 3.245974 15.000000 18 367.092957
1.919511 0.954533 2.402273 14.000000 16 367.092960
1.929793 0.965955 2.200502 17.000000 15 367.092917
2.627491 1.315182 2.450741 12.000000 13 367.092920
2.765441 1.383628 2.111989 11.000000 11 367.092922
2.822217 1.412032 1.737751 12.000000 9 367.092925
2.869983 1.435304 1.384790 13.000000 7 367.092928
2.913912 1.456638 1.046886 12.000000 5 367.092930
1.968436 0.984004 0.509286 20.000000 3 367.092933
2.347531 1.172998 0.328084 13.000000 1 367.092935
2.071851 1.032995 2.142377 18.000000 14 367.092943
2.708090 1.350210 2.286925 12.000000 12 367.092946
2.783667 1.387284 1.912552 12.000000 10 367.092948
2.844419 1.417558 1.556612 13.000000 8 367.092951
2.896013 1.442640 1.214581 13.000000 6 367.092953
1.905902 0.949005 0.604228 84.000000 4 367.092956
1.932858 0.962006 0.392960 82.000000 2 367.092958
2.298879 1.143678 0.197252 97.000000 0 367.092961
0.039659 0.011708 3.184152 96.000000 31 367.092972
0.469180 0.218217 3.289970 91.000000 28 367.092974
0.625810 0.290140 3.339805 82.000000 27 367.092977
0.951600 0.464038 3.429704 86.000000 25 367.092979
1.317895 0.651653 3.523150 84.000000 23 367.092982
1.743995 0.862711 3.631531 72.000000 21 367.092984
2.136974 1.057101 3.574213 11.000000 19 367.092987
1.904000 0.941854 2.618980 12.000000 17 367.092989
0.181095 0.074094 3.214025 96.000000 30 367.092997
0.325127 0.142095 3.261059 95.000000 29 367.093000
0.784682 0.375828 3.384929 90.000000 26 367.093002
1.131035 0.556809 3.482447 85.000000 24 367.093005
1.527152 0.752466 3.582416 86.000000 22 367.093007
1.994568 0.983194 3.707516 9.000000 20 367.093010
2.170491 1.069908 3.277890 15.000000 18 367.093013
1.931954 0.952324 2.413299 14.000000 16 367.093015
1.939542 0.962384 2.207511 17.000000 15 367.092973
2.632066 1.306002 2.450741 7.000000 13 367.092975
2.762762 1.370251 2.106506 11.000000 11 367.092978
2.819192 1.398235 1.733115 12.000000 9 367.092980
2.866669 1.421159 1.381044 13.000000 7 367.092983
2.910382 1.442197 1.044068 12.000000 5 367.092986
1.980661 0.981489 0.511151 20.000000 3 367.092988
2.078792 1.027411 2.145701 18.000000 14 367.092998
2.691045 1.330003 2.269266 9.000000 12 367.093001
2.773031 1.369921 1.902422 12.000000 10 367.093004
2.841211 1.403600 1.552416 13.000000 8 367.093006
2.892563 1.428340 1.211296 13.000000 6 367.093009
1.917920 0.946649 0.606573 86.000000 4 367.093011
1.945087 0.959636 0.394340 83.000000 2 367.093014
2.311819 1.140066 0.197655 96.000000 0 367.093016
0.039700 0.011570 3.184152 96.000000 31 367.093027
0.469939 0.216578 3.289970 96.000000 28 367.093030
0.626819 0.287954 3.339805 79.000000 27 367.093032
0.954559 0.461363 3.434476 85.000000 25 367.093035
1.320161 0.647049 3.523150 84.000000 23 367.093037
1.746996 0.856618 3.631531 71.000000 21 367.093040
2.143177 1.050874 3.578346 10.000000 19 367.093042
1.913033 0.938025 2.626654 12.000000 17 367.093045
0.181352 0.073461 3.214025 96.000000 30 367.093053
0.325621 0.140959 3.261059 95.000000 29 367.093055
0.785989 0.373087 3.384929 90.000000 26 367.093058
1.132972 0.552858 3.482447 85.000000 24 367.093060
1.531726 0.748086 3.586917 86.000000 22 367.093063
2.000331 0.977370 3.711782 9.000000 20 367.093066
2.171505 1.061002 3.273900 14.000000 18 367.093068
1.941359 0.948551 2.420649 14.000000 16 367.093071
1.952490 0.960329 2.218025 17.000000 15 367.093028
2.636609 1.296807 2.450741 7.000000 13 367.093031
2.726251 1.340306 2.076350 9.000000 11 367.093033
2.804176 1.378613 1.721525 12.000000 9 367.093036
2.863290 1.407055 1.377298 13.000000 7 367.093039
2.906787 1.427799 1.041250 13.000000 5 367.093041
1.992893 0.978900 0.513016 19.000000 3 367.093044
3.003858 1.474829 0.392784 14.000000 1 367.093046
2.082366 1.020149 2.145701 18.000000 14 367.093054
2.659374 1.302819 2.239834 8.000000 12 367.093057
2.754565 1.348857 1.887228 12.000000 10 367.093059
2.837941 1.389682 1.548220 13.000000 8 367.093062
2.889047 1.414082 1.208010 14.000000 6 367.093064
1.925579 0.942085 0.607745 86.000000 4 367.093067
1.957322 0.957191 0.395719 83.000000 2 367.093069
2.320273 1.134183 0.197857 94.000000 0 367.093072
0.039740 0.011431 3.184152 96.000000 31 367.093083
0.470692 0.214936 3.289970 96.000000 28 367.093085
0.627821 0.285764 3.339805 79.000000 27 367.093088
0.956163 0.458028 3.434476 85.000000 25 367.093090
1.322412 0.642437 3.523150 84.000000 23 367.093093
1.752130 0.851562 3.635919 71.000000 21 367.093095
2.151894 1.045846 3.586612 10.000000 19 367.093098
1.919179 0.932743 2.630491 12.000000 17 367.093100
0.181608 0.072828 3.214025 96.000000 30 367.093108
0.326111 0.139822 3.261059 95.000000 29 367.093111
0.787287 0.370341 3.384929 90.000000 26 367.093113
1.134895 0.548900 3.482447 87.000000 24 367.093116
1.534458 0.742467 3.586917 88.000000 22 367.093118
2.003899 0.970032 3.711782 9.000000 20 367.093121
2.180805 1.055663 3.281879 14.000000 18 367.093124
1.950925 0.944383 2.427999 14.000000 16 367.093126
1.962241 0.956634 2.225034 15.000000 15 367.093084
2.634121 1.284183 2.444465 7.000000 13 367.093086
2.682047 1.306969 2.040711 7.000000 11 367.093089
2.789059 1.359113 1.709935 12.000000 9 367.093092
2.859849 1.392991 1.373551 13.000000 7 367.093094
2.903126 1.413444 1.038431 13.000000 5 367.093097
2.000885 0.973739 0.513949 20.000000 3 367.093099
3.000286 1.459453 0.391892 14.000000 1 367.093102
2.086090 1.012510 2.145701 18.000000 14 367.093110
2.660494 1.291299 2.236891 8.000000 12 367.093112
2.740096 1.329343 1.874566 8.000000 10 367.093115
2.843015 1.379271 1.548220 13.000000 8 367.093117
2.881463 1.397302 1.203082 14.000000 6 367.093120
1.937767 0.939261 0.610090 86.000000 4 367.093122
1.969731 0.954329 0.397099 82.000000 2 367.093125
2.333210 1.130433 0.198260 93.000000 0 367.093127
0.039782 0.011286 3.184152 96.000000 31 367.093138
0.471477 0.213209 3.289970 96.000000 28 367.093141
0.628864 0.283461 3.339805 81.000000 27 367.093143
0.957835 0.454521 3.434476 83.000000 25 367.093146
1.324758 0.637586 3.523150 84.000000 23 367.093148
1.755240 0.845134 3.635919 69.000000 21 367.093151
2.158248 1.039173 3.590745 10.000000 19 367.093153
1.928362 0.928484 2.638164 12.000000 17 367.093156
0.181873 0.072162 3.214025 96.000000 30 367.093164
0.327114 0.138833 3.266030 96.000000 29 367.093166
0.789779 0.367984 3.389769 90.000000 26 367.093169
1.136899 0.544736 3.482447 85.000000 24 367.093171
1.539004 0.738048 3.591418 87.000000 22 367.093174
2.007273 0.963031 3.711782 9.000000 20 367.093177
2.187194 1.049348 3.285869 14.000000 18 367.093179
1.960323 0.940500 2.435350 14.000000 16 367.093182
1.972157 0.952537 2.232043 15.000000 15 367.093139
2.635305 1.272827 2.441328 7.000000 13 367.093142
2.690585 1.298948 2.043453 7.000000 11 367.093144
2.774074 1.339251 1.698344 9.000000 9 367.093147
2.856585 1.378471 1.369805 14.000000 7 367.093150
2.899646 1.398626 1.035613 13.000000 5 367.093152
2.013121 0.971017 0.515814 20.000000 3 367.093155
2.996390 1.444645 0.391000 14.000000 1 367.093157
2.089612 1.005222 2.145701 18.000000 14 367.093165
2.661343 1.280252 2.233948 8.000000 12 367.093168
2.721406 1.308560 1.859371 7.000000 10 367.093170
2.798730 1.345738 1.523044 11.000000 8 367.093173
2.886323 1.387236 1.203082 14.000000 6 367.093175
1.949797 0.936701 0.612434 87.000000 4 367.093178
1.981978 0.951735 0.398479 82.000000 2 367.093180
2.350849 1.128360 0.198865 94.000000 0 367.093183
0.039821 0.011147 3.184152 96.000000 31 367.093194
0.472218 0.211562 3.289970 95.000000 28 367.093196
0.629849 0.281264 3.339805 81.000000 27 367.093199
0.960768 0.451810 3.439248 83.000000 25 367.093201
1.326975 0.632957 3.523150 84.000000 23 367.093204
1.758179 0.839002 3.635919 71.000000 21 367.093206
2.169482 1.035269 3.603143 9.000000 19 367.093209
1.940271 0.925889 2.649675 12.000000 17 367.093212
0.182124 0.071527 3.214025 97.000000 30 367.093219
0.327596 0.137690 3.266030 96.000000 29 367.093222
0.791059 0.365225 3.389769 90.000000 26 367.093224
1.138793 0.540765 3.482447 85.000000 24 367.093227
1.541571 0.732671 3.591418 88.000000 22 367.093230
2.010623 0.956019 3.711782 9.000000 20 367.093232
2.196287 1.044295 3.293848 13.000000 18 367.093235
1.966655 0.935107 2.439025 15.000000 16 367.093237
1.981903 0.948727 2.239052 15.000000 15 367.093195
2.632709 1.260259 2.435052 7.000000 13 367.093197
2.683787 1.284134 2.035228 7.000000 11 367.093200
2.754754 1.318087 1.684436 8.000000 9 367.093203
2.823739 1.350489 1.352948 14.000000 7 367.093205
2.887197 1.380219 1.029976 13.000000 5 367.093208
2.020930 0.966103 0.516747 20.000000 3 367.093210
2.992428 1.429883 0.390107 15.000000 1 367.093213
2.089737 0.996314 2.142377 18.000000 14 367.093221
2.658499 1.267475 2.228061 8.000000 12 367.093223
2.710390 1.291634 1.849241 7.000000 10 367.093226
2.758343 1.314483 1.499965 8.000000 8 367.093228
2.848513 1.356844 1.186655 14.000000 6 367.093231
1.957443 0.931978 0.613607 89.000000 4 367.093233
1.989760 0.946939 0.399169 85.000000 2 367.093236
0.039860 0.011008 3.184152 96.000000 31 367.093249
0.473664 0.210227 3.294909 95.000000 28 367.093252
0.630827 0.279064 3.339805 81.000000 27 367.093254
0.962339 0.448453 3.439248 85.000000 25 367.093257
1.329176 0.628322 3.523150 74.000000 23 367.093259
1.761097 0.832860 3.635919 72.000000 21 367.093262
2.178170 1.030096 3.611409 8.000000 19 367.093264
1.949287 0.921852 2.657349 11.000000 17 367.093267
0.182373 0.070890 3.214025 96.000000 30 367.093275
0.328075 0.136546 3.266030 96.000000 29 367.093277
0.792329 0.362461 3.389769 91.000000 26 367.093280
1.140674 0.536786 3.482447 85.000000 24 367.093282
1.544119 0.727286 3.591418 87.000000 22 367.093285
2.016307 0.950106 3.716048 9.000000 20 367.093288
2.205372 1.039192 3.301827 13.000000 18 367.093290
1.976041 0.931127 2.446375 15.000000 16 367.093293
1.991647 0.944860 2.246061 15.000000 15 367.093250
2.630058 1.247724 2.428777 7.000000 13 367.093253
2.680697 1.271175 2.029745 7.000000 11 367.093256
2.743326 1.300870 1.675164 8.000000 9 367.093258
2.803301 1.328711 1.341710 8.000000 7 367.093261
2.861650 1.355755 1.020112 13.000000 5 367.093263
2.033168 0.963249 0.518612 20.000000 3 367.093266
2.983898 1.413035 0.388768 15.000000 1 367.093268
2.089826 0.987419 2.139052 18.000000 14 367.093276
2.655597 1.254734 2.222175 8.000000 12 367.093279
2.703187 1.276642 1.841644 8.000000 10 367.093281
2.758810 1.302909 1.497867 8.000000 8 367.093284
2.831879 1.336812 1.178442 12.000000 6 367.093286
1.969476 0.929288 0.615951 87.000000 4 367.093289
2.002011 0.944213 0.400548 83.000000 2 367.093291
3.013920 1.420817 0.228087 15.000000 0 367.093294
0.039898 0.010868 3.184152 96.000000 31 367.093305
0.474395 0.208573 3.294909 96.000000 28 367.093307
0.631798 0.276860 3.339805 81.000000 27 367.093310
0.963899 0.445092 3.439248 85.000000 25 367.093312
1.331362 0.623678 3.523150 73.000000 23 367.093315
1.766163 0.827724 3.640308 72.000000 21 367.093317
2.186848 1.024874 3.619675 8.000000 19 367.093320
1.958299 0.917763 2.665023 11.000000 17 367.093323
0.182619 0.070253 3.214025 97.000000 30 367.093330
0.328549 0.135400 3.266030 95.000000 29 367.093333
0.794735 0.360212 3.394608 91.000000 26 367.093335
1.142541 0.532801 3.482447 84.000000 24 367.093338
1.546648 0.721891 3.591418 87.000000 22 367.093341
2.019611 0.943062 3.716048 9.000000 20 367.093343
2.217179 1.035313 3.313795 12.000000 18 367.093346
1.982351 0.925658 2.450050 15.000000 16 367.093348
2.001388 0.940937 2.253070 14.000000 15 367.093306
2.623828 1.233567 2.419363 7.000000 13 367.093308
2.677549 1.258253 2.024262 7.000000 11 367.093311
2.739831 1.287518 1.670528 8.000000 9 367.093314
2.778549 1.305120 1.328599 8.000000 7 367.093316
2.844652 1.335564 1.013066 15.000000 5 367.093319
2.040965 0.958233 0.519545 20.000000 3 367.093321
2.979796 1.398379 0.387876 15.000000 1 367.093324
2.086496 0.976951 2.132402 18.000000 14 367.093332
2.652640 1.242028 2.216289 8.000000 12 367.093334
2.699817 1.263543 1.836579 8.000000 10 367.093337
2.751010 1.287499 1.491573 8.000000 8 367.093339
2.793753 1.306909 1.162015 8.000000 6 367.093342
1.981514 0.926525 0.618296 87.000000 4 367.093344
2.014268 0.941412 0.401928 85.000000 2 367.093347
3.018862 1.410288 0.228087 15.000000 0 367.093350
0.039935 0.010729 3.184152 96.000000 31 367.093360
0.475120 0.206916 3.294909 96.000000 28 367.093363
0.632760 0.274653 3.339805 81.000000 27 367.093365
0.965446 0.441724 3.439248 85.000000 25 367.093368
1.333530 0.619027 3.523150 82.000000 23 367.093370
1.769041 0.821554 3.640308 64.000000 21 367.093373
2.198069 1.020790 3.632074 7.000000 19 367.093376
1.970214 0.914972 2.676534 11.000000 17 367.093378
0.182863 0.069615 3.214025 96.000000 30 367.093386
0.329020 0.134252 3.266030 96.000000 29 367.093388
0.795987 0.357436 3.394608 91.000000 26 367.093391
1.145960 0.529534 3.487140 84.000000 24 367.093394
1.549158 0.716488 3.591418 88.000000 22 367.093396
2.022891 0.936007 3.716048 9.000000 20 367.093399
2.220779 1.027567 3.313795 12.000000 18 367.093401
1.991724 0.921580 2.457401 15.000000 16 367.093404
2.011126 0.936957 2.260080 14.000000 15 367.093361
2.621061 1.221113 2.413087 7.000000 13 367.093364
2.674344 1.245368 2.018779 7.000000 11 367.093367
2.736277 1.274206 1.665892 8.000000 9 367.093369
2.766276 1.287588 1.321106 8.000000 7 367.093372
2.797102 1.301342 0.996155 8.000000 5 367.093374
2.053205 0.955248 0.521410 20.000000 3 367.093377
2.966596 1.379569 0.386091 15.000000 1 367.093379
2.083118 0.966518 2.125752 19.000000 14 367.093387
2.649626 1.229359 2.210402 8.000000 12 367.093390
2.696389 1.250484 1.831514 8.000000 10 367.093392
2.747252 1.274070 1.487377 8.000000 8 367.093395
2.798298 1.297149 1.162015 8.000000 6 367.093397
1.989146 0.921646 0.619468 87.000000 4 367.093400
2.022035 0.936456 0.402618 84.000000 2 367.093402
3.014699 1.395544 0.227683 15.000000 0 367.093405
0.039973 0.010590 3.184152 96.000000 31 367.093416
0.475840 0.205256 3.294909 96.000000 28 367.093418
0.634651 0.272844 3.344701 81.000000 27 367.093421
0.966982 0.438352 3.439248 83.000000 25 367.093423
1.335683 0.614368 3.523150 82.000000 23 367.093426
1.771898 0.815374 3.640308 66.000000 21 367.093428
2.206732 1.015464 3.640340 7.000000 19 367.093431
1.979220 0.910770 2.684208 11.000000 17 367.093434
0.183105 0.068977 3.214025 96.000000 30 367.093441
0.329487 0.133103 3.266030 95.000000 29 367.093444
0.797230 0.354655 3.394608 91.000000 26 367.093446
1.147802 0.525530 3.487140 82.000000 24 367.093449
1.551774 0.710805 3.591418 88.000000 22 367.093452
2.026308 0.928586 3.716048 9.000000 20 367.093454
2.249190 1.030721 3.349700 11.000000 18 367.093457
2.001252 0.917098 2.464751 14.000000 16 367.093459
2.017622 0.931426 2.263584 16.000000 15 367.093417
2.614704 1.207061 2.403674 8.000000 13 367.093420
2.667284 1.230770 2.010555 7.000000 11 367.093422
2.732662 1.260934 1.661256 8.000000 9 367.093425
2.766544 1.275983 1.319234 8.000000 7 367.093427
2.805984 1.293579 0.997564 8.000000 5 367.093430
2.065615 0.951827 0.523275 20.000000 3 367.093432
2.944493 1.356187 0.383414 15.000000 1 367.093435
2.076467 0.954199 2.115778 19.000000 14 367.093443
2.646769 1.216264 2.204516 8.000000 12 367.093445
2.689201 1.235195 1.823917 8.000000 10 367.093448
2.743655 1.260203 1.483181 8.000000 8 367.093450
2.790158 1.280973 1.157087 9.000000 6 367.093453
2.001346 0.918404 0.621813 87.000000 4 367.093455
2.034456 0.933168 0.403997 82.000000 2 367.093458
3.001387 1.376681 0.226877 15.000000 0 367.093461
0.040011 0.010443 3.184152 96.000000 31 367.093471
0.476589 0.203510 3.294909 96.000000 28 367.093474
0.635647 0.270516 3.344701 81.000000 27 367.093476
0.968583 0.434804 3.439248 83.000000 25 367.093479
1.339704 0.610278 3.527753 82.000000 23 367.093481
1.777055 0.809868 3.644697 72.000000 21 367.093484
2.218121 1.010870 3.652739 7.000000 19 367.093487
1.988380 0.906168 2.691882 11.000000 17 367.093489
0.183345 0.068337 3.214025 97.000000 30 367.093497
0.329949 0.131952 3.266030 95.000000 29 367.093499
0.798463 0.351870 3.394608 91.000000 26 367.093502
1.149629 0.521520 3.487140 84.000000 24 367.093505
1.554246 0.705384 3.591418 86.000000 22 367.093507
2.029537 0.921507 3.716048 9.000000 20 367.093510
2.263752 1.027848 3.365659 10.000000 18 367.093512
2.010455 0.913261 2.472101 14.000000 16 367.093515
2.027509 0.926991 2.270593 16.000000 15 367.093472
2.612030 1.194232 2.397398 8.000000 13 367.093475
2.664171 1.217509 2.005072 7.000000 11 367.093478
2.729207 1.247227 1.656620 8.000000 9 367.093480
2.762549 1.262464 1.315487 8.000000 7 367.093483
2.806118 1.281783 0.996155 8.000000 5 367.093485
2.073394 0.946651 0.524208 20.000000 3 367.093488
2.926556 1.335562 0.381183 9.000000 1 367.093490
2.066191 0.940755 2.102479 19.000000 14 367.093498
2.639962 1.201993 2.195687 8.000000 12 367.093501
2.685435 1.222697 1.818852 8.000000 10 367.093503
2.739558 1.247337 1.478985 8.000000 8 367.093506
2.785794 1.267801 1.153802 9.000000 6 367.093508
2.008805 0.913775 0.622985 87.000000 4 367.093511
2.046556 0.930516 0.405377 81.000000 2 367.093514
2.965240 1.347592 0.225064 15.000000 0 367.093516
0.040046 0.010310 3.184152 96.000000 31 367.093527
0.477261 0.201929 3.294909 96.000000 28 367.093529
0.636540 0.268407 3.344701 81.000000 27 367.093532
0.970019 0.431590 3.439248 82.000000 25 367.093534
1.341720 0.605833 3.527753 84.000000 23 367.093537
1.779731 0.803970 3.644697 72.000000 21 367.093540
2.226590 1.005826 3.661005 7.000000 19 367.093542
1.997217 0.902209 2.699556 12.000000 17 367.093545
0.183582 0.067697 3.214025 96.000000 30 367.093552
0.330408 0.130799 3.266030 95.000000 29 367.093555
0.799687 0.349081 3.394608 91.000000 26 367.093558
1.151443 0.517504 3.487140 82.000000 24 367.093560
1.558563 0.701120 3.595919 86.000000 22 367.093563
2.032581 0.914772 3.716048 9.000000 20 367.093565
2.302877 1.036415 3.417522 9.000000 18 367.093568
2.019814 0.909020 2.479452 14.000000 16 367.093570
2.037068 0.923206 2.277602 16.000000 15 367.093528
2.608885 1.182350 2.391123 8.000000 13 367.093531
2.660576 1.205217 1.999589 8.000000 11 367.093533
2.725257 1.234514 1.651984 8.000000 9 367.093536
2.758492 1.248989 1.311741 8.000000 7 367.093538
2.801835 1.268024 0.993337 8.000000 5 367.093541
2.085472 0.943821 0.526073 19.000000 3 367.093543
2.885595 1.305325 0.376721 8.000000 1 367.093546
2.069299 0.933898 2.102479 19.000000 14 367.093554
2.636565 1.189906 2.189800 8.000000 12 367.093556
2.681827 1.209770 1.813787 8.000000 10 367.093559
2.735621 1.234034 1.474789 8.000000 8 367.093561
2.781592 1.254187 1.150516 9.000000 6 367.093564
2.020845 0.910752 0.625330 87.000000 4 367.093566
2.054307 0.925401 0.406067 81.000000 2 367.093569
2.919816 1.314671 0.222847 7.000000 0 367.093572
0.040083 0.010163 3.184152 96.000000 31 367.093582
0.477998 0.200178 3.294909 95.000000 28 367.093585
0.637520 0.266072 3.344701 81.000000 27 367.093587
0.971595 0.428032 3.439248 83.000000 25 367.093590
1.343932 0.600911 3.527753 82.000000 23 367.093592
1.784853 0.798420 3.649085 74.000000 21 367.093595
2.237968 1.001106 3.673404 7.000000 19 367.093597
2.009290 0.898810 2.711066 12.000000 17 367.093600
0.183829 0.067023 3.214025 97.000000 30 367.093608
0.330885 0.129588 3.266030 95.000000 29 367.093610
0.800961 0.346147 3.394608 91.000000 26 367.093613
1.153332 0.513280 3.487140 82.000000 24 367.093615
1.561122 0.695402 3.595919 86.000000 22 367.093618
2.038303 0.908378 3.720314 9.000000 20 367.093620
2.331437 1.039009 3.453428 7.000000 18 367.093623
2.029325 0.904371 2.486802 14.000000 16 367.093626
2.046945 0.918654 2.284611 15.000000 15 367.093583
2.606097 1.169592 2.384847 8.000000 13 367.093586
2.657346 1.192035 1.994106 8.000000 11 367.093588
2.721679 1.220891 1.647348 8.000000 9 367.093591
2.754591 1.235077 1.307995 9.000000 7 367.093594
2.797708 1.253823 0.990518 8.000000 5 367.093596
2.097883 0.940189 0.527938 19.000000 3 367.093599
2.885815 1.292704 0.376275 8.000000 1 367.093601
2.079527 0.929355 2.109128 19.000000 14 367.093609
2.633528 1.176937 2.183914 8.000000 12 367.093612
2.682307 1.198174 1.811255 8.000000 10 367.093614
2.731838 1.220297 1.470592 9.000000 8 367.093617
2.777546 1.240133 1.147231 9.000000 6 367.093619
2.033047 0.907300 0.627674 87.000000 4 367.093622
2.066730 0.921900 0.407446 81.000000 2 367.093624
2.924615 1.303960 0.222847 7.000000 0 367.093627
0.040118 0.010023 3.184152 96.000000 31 367.093638
0.478694 0.198509 3.294909 95.000000 28 367.093640
0.638444 0.263845 3.344701 81.000000 27 367.093643
0.973083 0.424638 3.439248 83.000000 25 367.093645
1.346021 0.596216 3.527753 82.000000 23 367.093648
1.787629 0.792185 3.649085 72.000000 21 367.093650
2.249167 0.996708 3.685802 7.000000 19 367.093653
2.018277 0.894389 2.718740 12.000000 17 367.093655
0.184062 0.066381 3.214025 96.000000 30 367.093663
0.331335 0.128432 3.266030 95.000000 29 367.093666
0.802164 0.343349 3.394608 91.000000 26 367.093668
1.155116 0.509251 3.487140 82.000000 24 367.093671
1.563540 0.689949 3.595919 87.000000 22 367.093673
2.041461 0.901257 3.720314 9.000000 20 367.093676
2.368136 1.045471 3.501302 7.000000 18 367.093679
2.038672 0.900020 2.494152 14.000000 16 367.093681
2.056657 0.914401 2.291620 15.000000 15 367.093639
2.599493 1.155744 2.375434 9.000000 13 367.093641
2.653848 1.179356 1.988623 8.000000 11 367.093644
2.713779 1.205986 1.640394 8.000000 9 367.093646
2.750412 1.221690 1.304249 9.000000 7 367.093649
2.793298 1.240156 0.987700 8.000000 5 367.093652
2.110131 0.936847 0.529804 20.000000 3 367.093654
2.881206 1.278583 0.375382 7.000000 1 367.093657
2.103246 0.931161 2.129077 18.000000 14 367.093664
2.626532 1.162828 2.175084 8.000000 12 367.093667
2.678588 1.185315 1.806190 8.000000 10 367.093670
2.727780 1.207080 1.466396 9.000000 8 367.093672
2.773221 1.226609 1.143946 9.000000 6 367.093675
2.045093 0.904129 0.630019 86.000000 4 367.093677
2.078995 0.918683 0.408826 81.000000 2 367.093680
2.920009 1.289707 0.222444 7.000000 0 367.093682
0.040153 0.009883 3.184152 91.000000 31 367.093693
0.479384 0.196836 3.294909 95.000000 28 367.093696
0.639362 0.261615 3.344701 81.000000 27 367.093698
0.975930 0.421831 3.444020 83.000000 25 367.093701
1.348094 0.591514 3.527753 84.000000 23 367.093703
1.792577 0.786903 3.653474 71.000000 21 367.093706
2.260362 0.992244 3.698201 6.000000 19 367.093708
2.027258 0.889915 2.726414 12.000000 17 367.093711
0.184293 0.065738 3.214025 97.000000 30 367.093719
0.331782 0.127274 3.266030 95.000000 29 367.093721
0.803358 0.340547 3.394608 90.000000 26 367.093724
1.156887 0.505216 3.487140 82.000000 24 367.093726
1.565938 0.684487 3.595919 87.000000 22 367.093729
2.046984 0.895171 3.724580 10.000000 20 367.093732
2.393863 1.046859 3.533217 6.000000 18 367.093734
2.048014 0.895615 2.501503 14.000000 16 367.093737
2.066364 0.910091 2.298630 15.000000 15 367.093694
2.582135 1.137248 2.356607 9.000000 13 367.093697
2.650295 1.166715 1.983140 8.000000 11 367.093699
2.713917 1.194720 1.638076 8.000000 9 367.093702
2.746173 1.208348 1.300503 9.000000 7 367.093705
2.788827 1.226535 0.984882 8.000000 5 367.093707
2.122381 0.933431 0.531669 21.000000 3 367.093710
2.876533 1.264509 0.374490 7.000000 1 367.093712
2.120163 0.929813 2.142377 18.000000 14 367.093720
2.623172 1.150406 2.169198 9.000000 12 367.093723
2.674812 1.172496 1.801125 9.000000 10 367.093725
2.723664 1.193907 1.462200 9.000000 8 367.093728
2.773160 1.215026 1.142303 9.000000 6 367.093730
2.057141 0.900884 0.632364 86.000000 4 367.093733
2.086725 0.913406 0.409516 82.000000 2 367.093735
2.915339 1.275501 0.222041 7.000000 0 367.093738
0.040187 0.009743 3.184152 91.000000 31 367.093749
0.480068 0.195162 3.294909 95.000000 28 367.093751
0.640271 0.259382 3.344701 81.000000 27 367.093754
0.977397 0.418422 3.444020 85.000000 25 367.093756
1.350151 0.586805 3.527753 82.000000 23 367.093759
1.795313 0.780641 3.653474 71.000000 21 367.093761
2.268973 0.986592 3.706467 6.000000 19 367.093764
2.039172 0.886668 2.737925 12.000000 17 367.093766
0.184521 0.065095 3.214025 96.000000 30 367.093774
0.332224 0.126116 3.266030 95.000000 29 367.093777
0.804542 0.337741 3.394608 90.000000 26 367.093779
1.160227 0.501860 3.491833 82.000000 24 367.093782
1.568318 0.679016 3.595919 87.000000 22 367.093784
2.050097 0.888020 3.724580 10.000000 20 367.093787
2.400268 1.039695 3.537207 6.000000 18 367.093790
2.057350 0.891156 2.508853 14.000000 16 367.093792
2.076065 0.905725 2.305639 14.000000 15 367.093750
2.564681 1.118888 2.337781 10.000000 13 367.093752
2.642852 1.152443 1.974916 9.000000 11 367.093755
2.709949 1.181698 1.633440 9.000000 9 367.093758
2.741875 1.195050 1.296757 9.000000 7 367.093760
2.784296 1.212961 0.982063 8.000000 5 367.093763
2.134634 0.929941 0.533534 20.000000 3 367.093765
2.867232 1.248496 0.373151 8.000000 1 367.093768
2.147372 0.932821 2.165651 17.000000 14 367.093776
2.616050 1.136411 2.160369 9.000000 12 367.093778
2.670979 1.159718 1.796060 9.000000 10 367.093781
2.719489 1.180777 1.458004 9.000000 8 367.093783
2.768720 1.201579 1.139018 9.000000 6 367.093786
2.069192 0.897567 0.634708 86.000000 4 367.093788
2.103532 0.912026 0.411585 81.000000 2 367.093791
2.906021 1.259357 0.221436 7.000000 0 367.093793
0.040221 0.009603 3.184152 96.000000 31 367.093804
0.480746 0.193485 3.294909 89.000000 28 367.093807
0.641172 0.257145 3.344701 82.000000 27 367.093809
0.978851 0.415007 3.444020 85.000000 25 367.093812
1.353985 0.582860 3.532356 82.000000 23 367.093814
1.798027 0.774369 3.653474 71.000000 21 367.093817
2.277573 0.980892 3.714733 7.000000 19 367.093819
2.048143 0.882081 2.745599 12.000000 17 367.093822
0.184747 0.064450 3.214025 97.000000 30 367.093830
0.332662 0.124955 3.266030 95.000000 29 367.093832
0.805716 0.334931 3.394608 90.000000 26 367.093835
1.161972 0.497807 3.491833 84.000000 24 367.093837
1.570679 0.673538 3.595919 86.000000 22 367.093840
2.053184 0.880858 3.724580 10.000000 20 367.093843
2.403883 1.031310 3.537207 6.000000 18 367.093845
2.066679 0.886642 2.516203 14.000000 16 367.093848
2.085762 0.901302 2.312648 14.000000 15 367.093805
2.547130 1.100664 2.318954 10.000000 13 367.093808
2.639181 1.139895 1.969433 9.000000 11 367.093810
2.705924 1.168718 1.628804 9.000000 9 367.093813
2.737517 1.181797 1.293011 9.000000 7 367.093816
2.779703 1.199433 0.979245 8.000000 5 367.093818
2.146887 0.926376 0.535399 20.000000 3 367.093821
2.862427 1.234536 0.372259 9.000000 1 367.093823
2.150615 0.925320 2.165651 17.000000 14 367.093831
2.612575 1.124077 2.154482 9.000000 12 367.093834
2.667090 1.146981 1.790996 9.000000 10 367.093836
2.715255 1.167691 1.453808 9.000000 8 367.093839
2.764220 1.188177 1.135732 9.000000 6 367.093841
2.081244 0.894176 0.637053 86.000000 4 367.093844
2.129455 0.914448 0.415034 80.000000 2 367.093846
2.896626 1.243294 0.220831 8.000000 0 367.093849
0.040254 0.009462 3.184152 96.000000 31 367.093860
0.482141 0.192093 3.299848 89.000000 28 367.093862
0.642066 0.254905 3.344701 82.000000 27 367.093865
0.980294 0.411588 3.444020 83.000000 25 367.093867
1.356012 0.578131 3.532356 84.000000 23 367.093870
1.802922 0.769028 3.657863 71.000000 21 367.093872
2.283571 0.974040 3.718866 9.000000 19 367.093875
2.060057 0.878700 2.757110 12.000000 17 367.093878
0.184971 0.063805 3.214025 96.000000 30 367.093885
0.333096 0.123793 3.266030 95.000000 29 367.093888
0.806880 0.332116 3.394608 90.000000 26 367.093890
1.163703 0.493748 3.491833 84.000000 24 367.093893
1.573020 0.668051 3.595919 85.000000 22 367.093896
2.058646 0.874706 3.728846 10.000000 20 367.093898
2.413016 1.025270 3.545186 6.000000 18 367.093901
2.079122 0.883400 2.527229 14.000000 16 367.093903
2.095452 0.896822 2.319657 15.000000 15 367.093861
2.522326 1.079513 2.293852 12.000000 13 367.093863
2.635456 1.127386 1.963950 9.000000 11 367.093866
2.697767 1.154039 1.621850 9.000000 9 367.093869
2.733100 1.168589 1.289265 9.000000 7 367.093871
2.775050 1.185953 0.976426 9.000000 5 367.093874
2.159142 0.922737 0.537265 21.000000 3 367.093876
2.857559 1.220624 0.371366 9.000000 1 367.093879
2.153832 0.917807 2.165651 17.000000 14 367.093887
2.609046 1.111782 2.148596 9.000000 12 367.093889
2.659178 1.132596 1.783398 9.000000 10 367.093892
2.710963 1.154649 1.449612 9.000000 8 367.093894
2.759660 1.174821 1.132447 9.000000 6 367.093897
2.093298 0.890712 0.639398 87.000000 4 367.093899
2.164534 0.920577 0.419863 72.000000 2 367.093902
2.891753 1.229267 0.220428 9.000000 0 367.093904
0.040287 0.009322 3.184152 96.000000 31 367.093915
0.482808 0.190408 3.299848 96.000000 28 367.093918
0.642952 0.252663 3.344701 79.000000 27 367.093920
0.983104 0.408737 3.448791 83.000000 25 367.093923
1.358021 0.573394 3.532356 84.000000 23 367.093925
1.805596 0.762730 3.657863 72.000000 21 367.093928
2.289550 0.967157 3.722999 9.000000 19 367.093930
2.069018 0.873998 2.764784 11.000000 17 367.093933
0.185467 0.063251 3.219017 97.000000 30 367.093941
0.333526 0.122630 3.266030 96.000000 29 367.093943
0.808034 0.329297 3.394608 90.000000 26 367.093946
1.167010 0.490351 3.496526 84.000000 24 367.093948
1.577350 0.663400 3.600420 85.000000 22 367.093951
2.061687 0.867514 3.728846 10.000000 20 367.093954
2.405468 1.012165 3.529228 7.000000 18 367.093956
2.088443 0.878767 2.534579 14.000000 16 367.093959
2.105137 0.892285 2.326666 15.000000 15 367.093916
2.508157 1.063106 2.278163 12.000000 13 367.093919
2.631675 1.114918 1.958467 9.000000 11 367.093922
2.697700 1.142886 1.619532 9.000000 9 367.093924
2.728625 1.155426 1.285519 9.000000 7 367.093927
2.770337 1.172519 0.973608 9.000000 5 367.093929
2.171397 0.919024 0.539130 20.000000 3 367.093932
2.852630 1.206761 0.370474 10.000000 1 367.093934
2.157023 0.910283 2.165651 17.000000 14 367.093942
2.605463 1.099525 2.142710 9.000000 12 367.093945
2.655171 1.119956 1.778333 9.000000 10 367.093947
2.706614 1.141652 1.445416 9.000000 8 367.093950
2.755041 1.161512 1.129161 10.000000 6 367.093952
2.100874 0.885287 0.640570 86.000000 4 367.093955
2.204245 0.928393 0.425382 50.000000 2 367.093957
2.886818 1.215288 0.220025 10.000000 0 367.093960
0.040319 0.009181 3.184152 96.000000 31 367.093971
0.483470 0.188722 3.299848 96.000000 28 367.093973
0.643830 0.250417 3.344701 79.000000 27 367.093976
0.984524 0.405303 3.448791 83.000000 25 367.093978
1.360015 0.568650 3.532356 84.000000 23 367.093981
1.808247 0.756423 3.657863 72.000000 21 367.093983
2.311084 0.966761 3.751930 10.000000 19 367.093986
2.077971 0.869245 2.772458 11.000000 17 367.093989
0.185687 0.062603 3.219017 96.000000 30 367.093996
0.333952 0.121465 3.266030 95.000000 29 367.093999
0.809179 0.326475 3.394608 90.000000 26 367.094001
1.168714 0.486275 3.496526 81.000000 24 367.094004
1.579656 0.657890 3.600420 85.000000 22 367.094007
2.064703 0.860312 3.728846 10.000000 20 367.094009
2.406204 1.002603 3.525238 7.000000 18 367.094012
2.097756 0.874079 2.541929 14.000000 16 367.094014
2.114815 0.887692 2.333675 15.000000 15 367.093972
2.504674 1.051331 2.271888 13.000000 13 367.093974
2.627838 1.102489 1.952984 9.000000 11 367.093977
2.693502 1.130035 1.614895 9.000000 9 367.093980
2.724091 1.142309 1.281773 9.000000 7 367.093982
2.761140 1.157279 0.969380 9.000000 5 367.093985
2.183653 0.915236 0.540995 20.000000 3 367.093987
2.847638 1.192948 0.369581 10.000000 1 367.093990
