# .PCD v.7 - Point Cloud Data file format
VERSION .7
FIELDS x y z intensity ring timestamp
SIZE 4 4 4 4 2 8
TYPE F F F F U D
COUNT 1 1 1 1 1 1
WIDTH 906
HEIGHT 1
VIEWPOINT 0 0 0 1 0 0 0
POINTS 906
DATA ascii
-1.110026 -0.905319 0.836038 45.000000 9 368.039867
-1.103715 -0.899850 0.663672 44.000000 7 368.039869
-1.100997 -0.897315 0.507164 7.000000 5 368.039872
-1.096641 -0.893765 0.360067 35.000000 3 368.039874
-1.084751 -0.883759 0.218316 26.000000 1 368.039877
-1.121054 -0.911716 1.367687 39.000000 14 368.039885
-1.108987 -0.901899 1.124376 40.000000 12 368.039887
-1.108668 -0.901318 0.924906 45.000000 10 368.039890
-1.110168 -0.902534 0.748862 52.000000 8 368.039892
-1.107218 -0.899815 0.585433 39.000000 6 368.039895
-1.097942 -0.891958 0.431897 39.000000 4 368.039897
-1.095502 -0.889659 0.288798 27.000000 2 368.039900
-1.089721 -0.884648 0.150296 35.000000 0 368.039902
-0.029868 -0.017344 2.399182 91.000000 31 368.039913
-0.291844 -0.224594 2.341632 95.000000 28 368.039916
-0.381613 -0.292907 2.336284 86.000000 27 368.039918
-0.590310 -0.471542 2.461045 61.000000 25 368.039921
-0.786532 -0.635358 2.441557 46.000000 23 368.039923
-0.989749 -0.799788 2.398317 38.000000 21 368.039926
-1.143039 -0.923651 2.231004 33.000000 19 368.039928
-1.138545 -0.920016 1.828569 36.000000 17 368.039931
-0.120698 -0.084453 2.380427 95.000000 30 368.039939
-0.208153 -0.152743 2.361233 93.000000 29 368.039941
-0.460220 -0.362396 2.291269 38.000000 26 368.039944
-0.687651 -0.553508 2.454731 44.000000 24 368.039946
-0.889985 -0.716869 2.425702 43.000000 22 368.039949
-1.095921 -0.883051 2.372279 38.000000 20 368.039952
-1.140326 -0.918827 2.013219 37.000000 18 368.039954
-1.130762 -0.911117 1.652540 38.000000 16 368.039957
-1.128197 -0.913932 1.506602 39.000000 15 368.039914
-1.121578 -0.908567 1.245834 39.000000 13 368.039917
-1.116302 -0.903970 1.026368 40.000000 11 368.039919
-1.116623 -0.904227 0.838357 44.000000 9 368.039922
-1.110452 -0.898909 0.665545 42.000000 7 368.039925
-1.104123 -0.893466 0.507164 6.000000 5 368.039927
-1.099754 -0.889931 0.360067 34.000000 3 368.039930
-1.091701 -0.883099 0.218763 26.000000 1 368.039932
-1.127135 -0.910143 1.371012 39.000000 14 368.039940
-1.115274 -0.900562 1.127319 40.000000 12 368.039943
-1.115162 -0.900151 0.927438 44.000000 10 368.039945
-1.116843 -0.901504 0.750960 50.000000 8 368.039948
-1.114027 -0.898910 0.587075 39.000000 6 368.039950
-1.104831 -0.891172 0.433070 39.000000 4 368.039953
-1.102456 -0.888938 0.289488 27.000000 2 368.039955
-1.096692 -0.883974 0.150497 34.000000 0 368.039958
-0.029928 -0.017239 2.399182 91.000000 31 368.039969
-0.292626 -0.223574 2.341632 95.000000 28 368.039971
-0.382633 -0.291573 2.336284 86.000000 27 368.039974
-0.593123 -0.470406 2.465816 44.000000 25 368.039976
-0.788745 -0.632608 2.441557 45.000000 23 368.039979
-0.990666 -0.794829 2.393928 38.000000 21 368.039981
-1.148451 -0.921416 2.235137 32.000000 19 368.039984
-1.144250 -0.918042 1.832406 38.000000 17 368.039987
-0.120992 -0.084031 2.380427 95.000000 30 368.039994
-0.208684 -0.152016 2.361233 93.000000 29 368.039997
-0.462473 -0.361562 2.296108 47.000000 26 368.039999
-0.689579 -0.551105 2.454731 44.000000 24 368.040002
-0.890781 -0.712398 2.421201 43.000000 22 368.040005
-1.098997 -0.879220 2.372279 38.000000 20 368.040007
-1.145880 -0.916723 2.017208 37.000000 18 368.040010
-1.136583 -0.909283 1.656215 38.000000 16 368.040012
-1.134159 -0.912223 1.510107 39.000000 15 368.039970
-1.127776 -0.907086 1.248972 38.000000 13 368.039972
-1.122709 -0.902688 1.029110 40.000000 11 368.039975
-1.119772 -0.900323 0.838357 45.000000 9 368.039978
-1.113583 -0.895027 0.665545 42.000000 7 368.039980
-1.107235 -0.889607 0.507164 6.000000 5 368.039983
-1.106683 -0.889164 0.360999 33.000000 3 368.039985
-1.094777 -0.879283 0.218763 26.000000 1 368.039988
-1.133219 -0.908539 1.374337 39.000000 14 368.039996
-1.124718 -0.901720 1.133206 39.000000 12 368.039998
-1.118298 -0.896253 0.927438 45.000000 10 368.040001
-1.123525 -0.900438 0.753058 50.000000 8 368.040003
-1.120844 -0.897969 0.588718 39.000000 6 368.040006
-1.107936 -0.887310 0.433070 39.000000 4 368.040008
-1.109418 -0.888179 0.290178 28.000000 2 368.040011
-1.099771 -0.880141 0.150497 34.000000 0 368.040013
-0.029988 -0.017135 2.399182 91.000000 31 368.040024
-0.293405 -0.222551 2.341632 97.000000 28 368.040027
-0.383648 -0.290236 2.336284 86.000000 27 368.040029
-0.594761 -0.468333 2.465816 37.000000 25 368.040032
-0.790948 -0.629851 2.441557 43.000000 23 368.040034
-0.993434 -0.791366 2.393928 38.000000 21 368.040037
-1.153861 -0.919155 2.239270 32.000000 19 368.040039
-1.149955 -0.916040 1.836243 38.000000 17 368.040042
-0.121285 -0.083608 2.380427 95.000000 30 368.040050
-0.209214 -0.151286 2.361233 93.000000 29 368.040052
-0.465720 -0.361487 2.305787 66.000000 26 368.040055
-0.691498 -0.548694 2.454731 40.000000 24 368.040057
-0.893263 -0.709284 2.421201 46.000000 22 368.040060
-1.102059 -0.875378 2.372279 38.000000 20 368.040063
-1.151433 -0.914593 2.021198 37.000000 18 368.040065
-1.142405 -0.907418 1.659890 38.000000 16 368.040068
-1.140123 -0.910484 1.513611 39.000000 15 368.040025
-1.133977 -0.905573 1.252110 38.000000 13 368.040028
-1.129121 -0.901372 1.031851 40.000000 11 368.040031
-1.126371 -0.899173 0.840675 45.000000 9 368.040033
-1.120324 -0.894026 0.667418 42.000000 7 368.040036
-1.114084 -0.888728 0.508574 6.000000 5 368.040038
-1.109781 -0.885295 0.360999 31.000000 3 368.040041
-1.101733 -0.878561 0.219209 27.000000 1 368.040043
-1.139305 -0.906903 1.377661 39.000000 14 368.040051
-1.131021 -0.900306 1.136149 39.000000 12 368.040054
-1.124793 -0.895028 0.929971 45.000000 10 368.040056
-1.130213 -0.899337 0.755157 50.000000 8 368.040059
-1.123972 -0.894051 0.588718 39.000000 6 368.040061
-1.114831 -0.886462 0.434242 40.000000 4 368.040064
-1.112512 -0.884301 0.290178 28.000000 2 368.040066
-1.106748 -0.879404 0.150699 34.000000 0 368.040069
-0.030048 -0.017030 2.399182 91.000000 31 368.040080
-0.294801 -0.221993 2.346572 98.000000 28 368.040082
-0.384659 -0.288895 2.336284 86.000000 27 368.040085
-0.596392 -0.466254 2.465816 35.000000 25 368.040087
-0.791609 -0.625875 2.436955 45.000000 23 368.040090
-0.996191 -0.787893 2.393928 38.000000 21 368.040092
-1.159270 -0.916867 2.243403 32.000000 19 368.040095
-1.158174 -0.915998 1.843917 38.000000 17 368.040098
-0.121576 -0.083184 2.380427 93.000000 30 368.040105
-0.209741 -0.150555 2.361233 95.000000 29 368.040108
-0.467976 -0.360627 2.310626 69.000000 26 368.040110
-0.693409 -0.546277 2.454731 42.000000 24 368.040113
-0.895733 -0.706162 2.421201 45.000000 22 368.040116
-1.105108 -0.871526 2.372279 38.000000 20 368.040118
-1.159352 -0.914300 2.029177 37.000000 18 368.040121
-1.150889 -0.907623 1.667240 38.000000 16 368.040123
-1.146089 -0.908714 1.517116 39.000000 15 368.040081
-1.140182 -0.904028 1.255248 39.000000 13 368.040083
-1.132261 -0.897425 1.031851 40.000000 11 368.040086
-1.132974 -0.897988 0.842993 45.000000 9 368.040089
-1.127072 -0.892989 0.669291 42.000000 7 368.040091
-1.120940 -0.887812 0.509983 8.000000 5 368.040094
-1.116715 -0.884466 0.361932 26.000000 3 368.040096
-1.104793 -0.874710 0.219209 27.000000 1 368.040099
-1.145393 -0.905236 1.380986 39.000000 14 368.040107
-1.137328 -0.898859 1.139092 40.000000 12 368.040109
-1.131293 -0.893769 0.932503 45.000000 10 368.040112
-1.136906 -0.898200 0.757255 53.000000 8 368.040114
-1.130792 -0.893049 0.590361 39.000000 6 368.040117
-1.121733 -0.885577 0.435414 39.000000 4 368.040119
-1.119479 -0.883480 0.290868 28.000000 2 368.040122
-1.113733 -0.878630 0.150900 34.000000 0 368.040125
-0.030107 -0.016925 2.399182 90.000000 31 368.040135
-0.295574 -0.220962 2.346572 98.000000 28 368.040138
-0.385665 -0.287550 2.336284 88.000000 27 368.040140
-0.598016 -0.464169 2.465816 33.000000 25 368.040143
-0.793789 -0.623108 2.436955 46.000000 23 368.040145
-0.998935 -0.784411 2.393928 38.000000 21 368.040148
-1.164676 -0.914553 2.247536 31.000000 19 368.040151
-1.163886 -0.913929 1.847754 38.000000 17 368.040153
-0.121866 -0.082759 2.380427 95.000000 30 368.040161
-0.210265 -0.149822 2.361233 93.000000 29 368.040163
-0.470231 -0.359755 2.315465 83.000000 26 368.040166
-0.695312 -0.543853 2.454731 42.000000 24 368.040169
-0.898192 -0.703031 2.421201 45.000000 22 368.040171
-1.108143 -0.867663 2.372279 38.000000 20 368.040174
-1.164909 -0.912106 2.033166 37.000000 18 368.040176
-1.156720 -0.905691 1.670916 38.000000 16 368.040179
-1.152056 -0.906914 1.520620 39.000000 15 368.040136
-1.146389 -0.902450 1.258385 39.000000 13 368.040139
-1.138673 -0.896053 1.034593 40.000000 11 368.040142
-1.139583 -0.896767 0.845311 45.000000 9 368.040144
-1.133826 -0.891916 0.671164 42.000000 7 368.040147
-1.127803 -0.886859 0.511392 10.000000 5 368.040149
-1.135241 -0.892708 0.365662 17.000000 3 368.040152
-1.111755 -0.873926 0.219655 27.000000 1 368.040154
-1.151484 -0.903538 1.384311 39.000000 14 368.040162
-1.143638 -0.897378 1.142035 40.000000 12 368.040165
-1.137798 -0.892475 0.935036 44.000000 10 368.040167
-1.143606 -0.897027 0.759353 52.000000 8 368.040170
-1.137619 -0.892010 0.592004 39.000000 6 368.040172
-1.128643 -0.884654 0.436587 40.000000 4 368.040175
-1.126454 -0.882621 0.291557 28.000000 2 368.040177
-1.120726 -0.877818 0.151102 34.000000 0 368.040180
-0.030166 -0.016820 2.399182 90.000000 31 368.040191
-0.296344 -0.219929 2.346572 98.000000 28 368.040193
-0.386667 -0.286202 2.336284 86.000000 27 368.040196
-0.599633 -0.462079 2.465816 32.000000 25 368.040198
-0.795959 -0.620333 2.436955 45.000000 23 368.040201
-1.001667 -0.780919 2.393928 38.000000 21 368.040203
-1.172300 -0.913942 2.255802 32.000000 19 368.040206
-1.169598 -0.911832 1.851591 38.000000 17 368.040209
-0.122154 -0.082333 2.380427 95.000000 30 368.040216
-0.211223 -0.149394 2.366205 93.000000 29 368.040219
-0.471484 -0.358111 2.315465 86.000000 26 368.040221
-0.697206 -0.541423 2.454731 42.000000 24 368.040224
-0.900641 -0.699891 2.421201 45.000000 22 368.040227
-1.111165 -0.863790 2.372279 38.000000 20 368.040229
-1.170466 -0.909884 2.037156 36.000000 18 368.040232
-1.162551 -0.903728 1.674591 38.000000 16 368.040234
-1.158025 -0.905083 1.524125 39.000000 15 368.040192
-1.152600 -0.900840 1.261523 39.000000 13 368.040195
-1.145088 -0.894648 1.037334 40.000000 11 368.040197
-1.146198 -0.895511 0.847629 45.000000 9 368.040200
-1.140586 -0.890806 0.673037 42.000000 7 368.040202
-1.138455 -0.888822 0.514210 13.000000 5 368.040205
-1.130606 -0.882694 0.363797 10.000000 3 368.040207
-1.114799 -0.870040 0.219655 28.000000 1 368.040210
-1.160523 -0.904103 1.390961 39.000000 14 368.040218
-1.149953 -0.895865 1.144978 40.000000 12 368.040220
-1.144308 -0.891147 0.937568 44.000000 10 368.040223
-1.150311 -0.895818 0.761451 50.000000 8 368.040225
-1.144451 -0.890934 0.593646 39.000000 6 368.040228
-1.135560 -0.883695 0.437759 39.000000 4 368.040230
-1.129528 -0.878684 0.291557 28.000000 2 368.040233
-1.123784 -0.873900 0.151102 35.000000 0 368.040236
-0.030224 -0.016714 2.399182 88.000000 31 368.040246
-0.297110 -0.218893 2.346572 98.000000 28 368.040249
-0.387663 -0.284851 2.336284 88.000000 27 368.040251
-0.601242 -0.459983 2.465816 32.000000 25 368.040254
-0.798120 -0.617551 2.436955 39.000000 23 368.040256
-1.004387 -0.777418 2.393928 39.000000 21 368.040259
-1.177708 -0.911567 2.259935 31.000000 19 368.040262
-1.177844 -0.911669 1.859265 38.000000 17 368.040264
-0.122440 -0.081907 2.380427 95.000000 30 368.040272
-0.211744 -0.148656 2.366205 95.000000 29 368.040274
-0.473736 -0.357220 2.320304 90.000000 26 368.040277
-0.699092 -0.538986 2.454731 44.000000 24 368.040280
-0.903079 -0.696743 2.421201 45.000000 22 368.040282
-1.112109 -0.858312 2.368013 39.000000 20 368.040285
-1.176021 -0.907634 2.041145 36.000000 18 368.040287
-1.168382 -0.901736 1.678266 38.000000 16 368.040290
-1.163994 -0.903222 1.527629 39.000000 15 368.040247
-1.158813 -0.899198 1.264661 39.000000 13 368.040250
-1.151508 -0.893208 1.040076 40.000000 11 368.040253
-1.152817 -0.894220 0.849947 45.000000 9 368.040255
-1.147352 -0.889660 0.674910 42.000000 7 368.040258
-1.141550 -0.884842 0.514210 15.000000 5 368.040260
-1.121766 -0.869194 0.220101 28.000000 1 368.040265
-1.166625 -0.902331 1.394286 39.000000 14 368.040273
-1.156270 -0.894318 1.147921 40.000000 12 368.040276
-1.147412 -0.887147 0.937568 44.000000 10 368.040278
-1.157021 -0.894573 0.763549 52.000000 8 368.040281
-1.147555 -0.886934 0.593646 39.000000 6 368.040283
-1.142484 -0.882697 0.438931 39.000000 4 368.040286
-1.136508 -0.877763 0.292247 28.000000 2 368.040289
-1.130782 -0.873025 0.151303 35.000000 0 368.040291
-0.030242 -0.016592 2.394182 90.000000 31 368.040302
-0.297872 -0.217855 2.346572 97.000000 28 368.040304
-0.388655 -0.283496 2.336284 88.000000 27 368.040307
-0.602844 -0.457882 2.465816 32.000000 25 368.040309
-0.798721 -0.613571 2.432352 39.000000 23 368.040312
-1.005195 -0.772448 2.389540 39.000000 21 368.040315
-1.185346 -0.910880 2.268201 31.000000 19 368.040317
-1.183561 -0.909505 1.863102 38.000000 17 368.040320
-0.122726 -0.081479 2.380427 96.000000 30 368.040327
-0.212261 -0.147916 2.366205 95.000000 29 368.040330
-0.474980 -0.355565 2.320304 92.000000 26 368.040333
-0.700969 -0.536542 2.454731 44.000000 24 368.040335
-0.905505 -0.693587 2.421201 45.000000 22 368.040338
-1.115098 -0.854425 2.368013 39.000000 20 368.040340
-1.183966 -0.907190 2.049124 37.000000 18 368.040343
-1.174214 -0.899714 1.681941 38.000000 16 368.040345
-1.169965 -0.901330 1.531134 39.000000 15 368.040303
-1.165028 -0.897523 1.267799 39.000000 13 368.040306
-1.157932 -0.891734 1.042817 40.000000 11 368.040308
-1.159442 -0.892894 0.852265 45.000000 9 368.040311
-1.150451 -0.885650 0.674910 42.000000 7 368.040313
-1.148434 -0.883778 0.515620 15.000000 5 368.040316
-1.128740 -0.868309 0.220547 28.000000 1 368.040321
-1.172730 -0.900528 1.397611 39.000000 14 368.040329
-1.162591 -0.892738 1.150865 40.000000 12 368.040331
-1.153922 -0.885762 0.940100 45.000000 10 368.040334
-1.163737 -0.893293 0.765647 53.000000 8 368.040336
-1.154390 -0.885798 0.595289 39.000000 6 368.040339
-1.149415 -0.881662 0.440104 39.000000 4 368.040341
-1.143495 -0.876804 0.292937 28.000000 2 368.040344
-1.137787 -0.872112 0.151505 35.000000 0 368.040347
-0.030303 -0.016481 2.394182 91.000000 31 368.040357
-0.298039 -0.216306 2.341632 97.000000 28 368.040360
-0.389692 -0.282070 2.336284 88.000000 27 368.040362
-0.604518 -0.455669 2.465816 32.000000 25 368.040365
-0.800965 -0.610640 2.432352 46.000000 23 368.040367
-1.008019 -0.768758 2.389540 38.000000 21 368.040370
-1.190914 -0.908235 2.272334 30.000000 19 368.040372
-1.189436 -0.907105 1.866939 37.000000 17 368.040375
-0.123023 -0.081028 2.380427 95.000000 30 368.040383
-0.212802 -0.147137 2.366205 95.000000 29 368.040385
-0.476280 -0.353821 2.320304 92.000000 26 368.040388
-0.702931 -0.533969 2.454731 44.000000 24 368.040390
-0.908041 -0.690263 2.421201 45.000000 22 368.040393
-1.118222 -0.850332 2.368013 39.000000 20 368.040395
-1.189683 -0.904669 2.053114 37.000000 18 368.040398
-1.180202 -0.897456 1.685616 38.000000 16 368.040401
-1.176094 -0.899202 1.534639 39.000000 15 368.040358
-1.171403 -0.895611 1.270936 39.000000 13 368.040361
-1.164515 -0.890023 1.045559 40.000000 11 368.040363
-1.166226 -0.891328 0.854583 47.000000 9 368.040366
-1.157373 -0.884242 0.676783 46.000000 7 368.040369
-1.147853 -0.876651 0.514210 12.000000 5 368.040371
-1.135873 -0.867188 0.220994 28.000000 1 368.040376
-1.176023 -0.896223 1.397611 39.000000 14 368.040384
-1.169070 -0.890921 1.153808 40.000000 12 368.040387
-1.160590 -0.884139 0.942633 44.000000 10 368.040389
-1.167003 -0.889021 0.765647 53.000000 8 368.040392
-1.161386 -0.884422 0.596932 39.000000 6 368.040394
-1.156507 -0.880387 0.441276 38.000000 4 368.040397
-1.154583 -0.878604 0.294317 28.000000 2 368.040399
-1.144953 -0.870961 0.151706 35.000000 0 368.040402
-0.030360 -0.016375 2.394182 91.000000 31 368.040413
-0.298792 -0.215264 2.341632 98.000000 28 368.040415
-0.390674 -0.280708 2.336284 88.000000 27 368.040418
-0.606105 -0.453556 2.465816 32.000000 25 368.040420
-0.803092 -0.607840 2.432352 46.000000 23 368.040423
-1.010696 -0.765235 2.389540 38.000000 21 368.040425
-1.198564 -0.907470 2.280600 30.000000 19 368.040428
-1.195151 -0.904883 1.870776 37.000000 17 368.040430
-0.123306 -0.080598 2.380427 95.000000 30 368.040438
-0.213314 -0.146393 2.366205 95.000000 29 368.040441
-0.477512 -0.352157 2.320304 92.000000 26 368.040443
-0.704790 -0.531512 2.454731 46.000000 24 368.040446
-0.908707 -0.685777 2.416700 45.000000 22 368.040448
-1.121184 -0.846424 2.368013 39.000000 20 368.040451
-1.195239 -0.902326 2.057103 38.000000 18 368.040454
-1.186033 -0.895374 1.689291 38.000000 16 368.040456
-1.179226 -0.895091 1.534639 38.000000 15 368.040414
-1.177623 -0.893871 1.274074 39.000000 13 368.040416
-1.170946 -0.888480 1.048300 40.000000 11 368.040419
-1.169331 -0.887252 0.854583 45.000000 9 368.040421
-1.164146 -0.882998 0.678656 46.000000 7 368.040424
-1.154729 -0.875537 0.515620 9.000000 5 368.040427
-1.138894 -0.863218 0.220994 28.000000 1 368.040432
-1.182122 -0.894366 1.400935 39.000000 14 368.040439
-1.175396 -0.889274 1.156751 40.000000 12 368.040442
-1.167108 -0.882683 0.945165 45.000000 10 368.040445
-1.173719 -0.887680 0.767745 52.000000 8 368.040447
-1.168233 -0.883211 0.598574 39.000000 6 368.040450
-1.159573 -0.876345 0.441276 35.000000 4 368.040452
-1.161594 -0.877554 0.295006 30.000000 2 368.040455
-1.147986 -0.866959 0.151706 35.000000 0 368.040457
-0.030417 -0.016269 2.394182 90.000000 31 368.040468
-0.299542 -0.214220 2.341632 98.000000 28 368.040471
-0.391651 -0.279342 2.336284 88.000000 27 368.040473
-0.607685 -0.451438 2.465816 30.000000 25 368.040476
-0.805208 -0.605033 2.432352 45.000000 23 368.040478
-1.013361 -0.761702 2.389540 39.000000 21 368.040481
-1.203974 -0.904972 2.284733 30.000000 19 368.040483
-1.200865 -0.902631 1.874612 38.000000 17 368.040486
-0.123586 -0.080167 2.380427 95.000000 30 368.040494
-0.213824 -0.145648 2.366205 95.000000 29 368.040496
-0.477723 -0.349745 2.315465 90.000000 26 368.040499
-0.706641 -0.529049 2.454731 46.000000 24 368.040501
-0.911095 -0.682601 2.416700 45.000000 22 368.040504
-1.122045 -0.840941 2.363747 39.000000 20 368.040507
-1.203205 -0.901764 2.065082 37.000000 18 368.040509
-1.191864 -0.893261 1.692967 38.000000 16 368.040512
-1.185191 -0.893115 1.538143 38.000000 15 368.040469
-1.183845 -0.892097 1.277212 39.000000 13 368.040472
-1.177380 -0.886904 1.051042 40.000000 11 368.040474
-1.175959 -0.885830 0.856901 47.000000 9 368.040477
-1.170924 -0.881717 0.680529 44.000000 7 368.040480
-1.161611 -0.874386 0.517029 7.000000 5 368.040482
-1.145879 -0.862232 0.221440 29.000000 1 368.040487
-1.188223 -0.892477 1.404260 39.000000 14 368.040495
-1.181725 -0.887593 1.159694 40.000000 12 368.040498
-1.173629 -0.881192 0.947698 47.000000 10 368.040500
-1.180440 -0.886303 0.769843 54.000000 8 368.040503
-1.175086 -0.881962 0.600217 39.000000 6 368.040505
-1.166513 -0.875209 0.442448 33.000000 4 368.040508
-1.180497 -0.885379 0.297766 30.000000 2 368.040510
-1.155002 -0.865943 0.151908 35.000000 0 368.040513
-0.030474 -0.016163 2.394182 90.000000 31 368.040524
-0.300288 -0.213173 2.341632 98.000000 28 368.040526
-0.392624 -0.277973 2.336284 88.000000 27 368.040529
-0.610459 -0.450200 2.470588 28.000000 25 368.040531
-0.805750 -0.601051 2.427750 45.000000 23 368.040534
-1.016014 -0.758161 2.389540 38.000000 21 368.040536
-1.209381 -0.902446 2.288866 29.000000 19 368.040539
-1.206578 -0.900352 1.878449 37.000000 17 368.040541
-0.123621 -0.079581 2.375435 95.000000 30 368.040549
-0.213888 -0.144603 2.361233 93.000000 29 368.040552
-0.478941 -0.348075 2.315465 90.000000 26 368.040554
-0.708484 -0.526579 2.454731 42.000000 24 368.040557
-0.911725 -0.678117 2.412199 45.000000 22 368.040559
-1.124973 -0.837019 2.363747 39.000000 20 368.040562
-1.208763 -0.899357 2.069072 37.000000 18 368.040565
-1.197695 -0.891119 1.696642 38.000000 16 368.040567
-1.191157 -0.891109 1.541648 38.000000 15 368.040525
-1.190068 -0.890291 1.280350 39.000000 13 368.040527
-1.183817 -0.885293 1.053783 40.000000 11 368.040530
-1.182592 -0.884373 0.859219 45.000000 9 368.040533
-1.173995 -0.877625 0.680529 44.000000 7 368.040535
-1.168499 -0.873198 0.518438 5.000000 5 368.040538
-1.152872 -0.861207 0.221886 29.000000 1 368.040543
-1.194324 -0.890556 1.407585 39.000000 14 368.040551
-1.184816 -0.883463 1.159694 40.000000 12 368.040553
-1.180155 -0.879667 0.950230 47.000000 10 368.040556
-1.187165 -0.884889 0.771941 54.000000 8 368.040558
-1.178158 -0.877855 0.600217 39.000000 6 368.040561
-1.165662 -0.868228 0.441276 27.000000 4 368.040563
-1.179608 -0.878296 0.297076 26.000000 2 368.040566
-1.158018 -0.861906 0.151908 35.000000 0 368.040568
-0.030570 -0.016072 2.399182 90.000000 31 368.040579
-0.301030 -0.212124 2.341632 98.000000 28 368.040582
-0.393592 -0.276601 2.336284 88.000000 27 368.040584
-0.612027 -0.448066 2.470588 28.000000 25 368.040587
-0.807843 -0.598234 2.427750 46.000000 23 368.040589
-1.018654 -0.754609 2.389540 39.000000 21 368.040592
-1.217046 -0.901569 2.297132 29.000000 19 368.040594
-1.214866 -0.899951 1.886123 37.000000 17 368.040597
-0.123884 -0.079170 2.375435 95.000000 30 368.040605
-0.214366 -0.143893 2.361233 93.000000 29 368.040607
-0.480093 -0.346485 2.315465 90.000000 26 368.040610
-0.710226 -0.524227 2.454731 42.000000 24 368.040612
-0.914086 -0.674931 2.412199 46.000000 22 368.040615
-1.127888 -0.833087 2.363747 39.000000 20 368.040618
-1.216744 -0.898714 2.077051 37.000000 18 368.040620
-1.203370 -0.889157 1.700317 37.000000 16 368.040623
-1.197123 -0.889072 1.545152 38.000000 15 368.040580
-1.196294 -0.888453 1.283488 39.000000 13 368.040583
-1.186900 -0.881155 1.053783 40.000000 11 368.040585
-1.189229 -0.882881 0.861537 47.000000 9 368.040588
-1.180621 -0.876490 0.682402 44.000000 7 368.040591
-1.159871 -0.860144 0.222332 29.000000 1 368.040598
-1.200427 -0.888603 1.410910 39.000000 14 368.040606
-1.191141 -0.881726 1.162637 40.000000 12 368.040609
-1.186530 -0.878313 0.952762 47.000000 10 368.040611
-1.193741 -0.883648 0.774039 54.000000 8 368.040614
-1.184858 -0.876752 0.601860 39.000000 6 368.040616
-1.184166 -0.875920 0.445965 17.000000 4 368.040619
-1.210387 -0.894989 0.301905 17.000000 2 368.040621
-1.164888 -0.861031 0.152109 35.000000 0 368.040624
-0.030624 -0.015971 2.399182 90.000000 31 368.040635
-0.301732 -0.211124 2.341632 98.000000 28 368.040637
-0.393672 -0.274712 2.331389 86.000000 27 368.040640
-0.614717 -0.446912 2.475360 28.000000 25 368.040642
-0.809822 -0.595552 2.427750 46.000000 23 368.040645
-1.021151 -0.751227 2.389540 39.000000 21 368.040647
-1.222296 -0.899196 2.301265 30.000000 19 368.040650
-1.220426 -0.897817 1.889960 37.000000 17 368.040653
-0.124159 -0.078737 2.375435 95.000000 30 368.040660
-0.214867 -0.143144 2.361233 93.000000 29 368.040663
-0.481299 -0.344807 2.315465 90.000000 26 368.040665
-0.712052 -0.521745 2.454731 46.000000 24 368.040668
-0.916437 -0.671736 2.412199 46.000000 22 368.040671
-1.128686 -0.827603 2.359481 39.000000 20 368.040673
-1.222304 -0.896243 2.081040 37.000000 18 368.040676
-1.209355 -0.886745 1.703992 38.000000 16 368.040678
-1.202935 -0.887214 1.548657 39.000000 15 368.040636
-1.202367 -0.886792 1.286625 39.000000 13 368.040638
-1.193181 -0.879695 1.056525 40.000000 11 368.040641
-1.192150 -0.878932 0.861537 45.000000 9 368.040644
-1.187405 -0.875114 0.684275 44.000000 7 368.040646
-1.162866 -0.856090 0.222332 26.000000 1 368.040654
-1.206531 -0.886619 1.414235 39.000000 14 368.040662
-1.197469 -0.879957 1.165580 40.000000 12 368.040664
-1.193216 -0.876511 0.955295 45.000000 10 368.040667
-1.196972 -0.879267 0.774039 52.000000 8 368.040669
-1.191870 -0.875199 0.603502 39.000000 6 368.040672
-1.187369 -0.871574 0.445965 9.000000 4 368.040674
-1.193696 -0.875899 0.298455 8.000000 2 368.040677
-1.171914 -0.859915 0.152311 35.000000 0 368.040679
-0.030682 -0.015859 2.399182 88.000000 31 368.040690
-0.302504 -0.210017 2.341632 98.000000 28 368.040693
-0.394676 -0.273268 2.331389 86.000000 27 368.040695
-0.616351 -0.444656 2.475360 29.000000 25 368.040698
-0.811999 -0.592580 2.427750 45.000000 23 368.040700
-1.021962 -0.746067 2.385151 39.000000 21 368.040703
-1.230129 -0.898028 2.309530 31.000000 19 368.040705
-1.226298 -0.895228 1.893797 37.000000 17 368.040708
-0.124447 -0.078282 2.375435 93.000000 30 368.040716
-0.215390 -0.142355 2.361233 95.000000 29 368.040718
-0.482560 -0.343041 2.315465 90.000000 26 368.040721
-0.713959 -0.519131 2.454731 46.000000 24 368.040723
-0.918776 -0.668533 2.412199 46.000000 22 368.040726
-1.131568 -0.823658 2.359481 39.000000 20 368.040729
-1.227862 -0.893745 2.085030 37.000000 18 368.040731
-1.215184 -0.884513 1.707667 38.000000 16 368.040734
-1.209057 -0.884905 1.552161 39.000000 15 368.040691
-1.208750 -0.884678 1.289763 39.000000 13 368.040694
-1.199772 -0.877785 1.059266 40.000000 11 368.040697
-1.198939 -0.877173 0.863855 45.000000 9 368.040699
-1.194347 -0.873493 0.686148 42.000000 7 368.040702
-1.169868 -0.854964 0.222778 26.000000 1 368.040709
-1.212636 -0.884603 1.417560 39.000000 14 368.040717
-1.203799 -0.878153 1.168524 40.000000 12 368.040720
-1.199752 -0.874881 0.957827 45.000000 10 368.040722
-1.203701 -0.877757 0.776137 54.000000 8 368.040725
-1.198734 -0.873815 0.605145 39.000000 6 368.040727
-1.175058 -0.855614 0.152311 35.000000 0 368.040735
-0.030696 -0.015736 2.394182 85.000000 31 368.040746
-0.303235 -0.208960 2.341632 98.000000 28 368.040748
-0.395627 -0.271888 2.331389 88.000000 27 368.040751
-0.619114 -0.443372 2.480132 32.000000 25 368.040753
-0.814063 -0.589742 2.427750 45.000000 23 368.040756
-1.024560 -0.742495 2.385151 39.000000 21 368.040758
-1.237814 -0.897032 2.317796 32.000000 19 368.040761
-1.232011 -0.892823 1.897634 37.000000 17 368.040764
-0.124720 -0.077847 2.375435 93.000000 30 368.040771
-0.215886 -0.141602 2.361233 92.000000 29 368.040774
-0.483754 -0.341354 2.315465 90.000000 26 368.040776
-0.715767 -0.516636 2.454731 46.000000 24 368.040779
-0.921104 -0.665321 2.412199 46.000000 22 368.040782
-1.134436 -0.819703 2.359481 39.000000 20 368.040784
-1.235860 -0.892984 2.093009 37.000000 18 368.040787
-1.223760 -0.884237 1.715018 37.000000 16 368.040789
-1.217909 -0.884872 1.559170 38.000000 15 368.040747
-1.214980 -0.882741 1.292901 39.000000 13 368.040749
-1.206212 -0.876049 1.062008 40.000000 11 368.040752
-1.205578 -0.875586 0.866173 45.000000 9 368.040755
-1.197389 -0.869319 0.686148 44.000000 7 368.040757
-1.184459 -0.859616 0.519847 5.000000 5 368.040760
-1.172846 -0.850875 0.222778 29.000000 1 368.040765
-1.218741 -0.882555 1.420884 39.000000 14 368.040773
-1.210130 -0.876316 1.171467 40.000000 12 368.040775
-1.206291 -0.873215 0.960360 45.000000 10 368.040778
-1.210434 -0.876211 0.778235 55.000000 8 368.040780
-1.205603 -0.872394 0.606788 39.000000 6 368.040783
-1.182086 -0.854434 0.152512 35.000000 0 368.040791
-0.030751 -0.015629 2.394182 91.000000 31 368.040801
-0.303962 -0.207900 2.341632 92.000000 28 368.040804
-0.396574 -0.270506 2.331389 88.000000 27 368.040806
-0.621875 -0.442073 2.484903 32.000000 25 368.040809
-0.816117 -0.586897 2.427750 46.000000 23 368.040811
-1.027146 -0.738914 2.385151 39.000000 21 368.040814
-1.245506 -0.895992 2.326062 32.000000 19 368.040817
-1.237722 -0.890390 1.901471 37.000000 17 368.040819
-0.124991 -0.077411 2.375435 95.000000 30 368.040827
-0.216379 -0.140848 2.361233 90.000000 29 368.040829
-0.484943 -0.339664 2.315465 90.000000 26 368.040832
-0.716163 -0.513129 2.450039 44.000000 24 368.040835
-0.923421 -0.662102 2.412199 46.000000 22 368.040837
-1.137291 -0.815738 2.359481 39.000000 20 368.040840
-1.241419 -0.890421 2.096998 37.000000 18 368.040842
-1.229594 -0.881936 1.718693 37.000000 16 368.040845
-1.223883 -0.882701 1.562675 38.000000 15 368.040802
-1.221212 -0.880772 1.296039 39.000000 13 368.040805
-1.212655 -0.874279 1.064749 40.000000 11 368.040808
-1.212221 -0.873963 0.868491 44.000000 9 368.040810
-1.204177 -0.867844 0.688021 44.000000 7 368.040813
-1.195237 -0.861084 0.522666 10.000000 5 368.040815
-1.179850 -0.849686 0.223225 29.000000 1 368.040820
-1.224846 -0.880475 1.424209 39.000000 14 368.040828
-1.216464 -0.874446 1.174410 40.000000 12 368.040831
-1.212833 -0.871515 0.962892 45.000000 10 368.040833
-1.217171 -0.874629 0.780333 57.000000 8 368.040836
-1.212476 -0.870935 0.608430 39.000000 6 368.040838
-1.189121 -0.853215 0.152714 35.000000 0 368.040846
-0.030805 -0.015521 2.394182 91.000000 31 368.040857
-0.304686 -0.206838 2.341632 93.000000 28 368.040859
-0.397516 -0.269120 2.331389 88.000000 27 368.040862
-0.624635 -0.440761 2.489675 28.000000 25 368.040864
-0.818160 -0.584044 2.427750 46.000000 23 368.040867
-1.029719 -0.735324 2.385151 39.000000 21 368.040869
-1.250916 -0.893274 2.330195 32.000000 19 368.040872
-1.246041 -0.889790 1.909145 37.000000 17 368.040875
-0.125247 -0.076996 2.375435 95.000000 30 368.040882
-0.216845 -0.140130 2.361233 92.000000 29 368.040885
-0.486067 -0.338054 2.315465 92.000000 26 368.040887
-0.717861 -0.510752 2.450039 45.000000 24 368.040890
-0.925726 -0.658875 2.412199 46.000000 22 368.040893
-1.140131 -0.811763 2.359481 39.000000 20 368.040895
-1.249430 -0.889578 2.104977 37.000000 18 368.040898
-1.235273 -0.879821 1.722368 38.000000 16 368.040900
-1.229856 -0.880500 1.566179 38.000000 15 368.040858
-1.227444 -0.878770 1.299176 39.000000 13 368.040861
-1.219100 -0.872474 1.067490 40.000000 11 368.040863
-1.218867 -0.872304 0.870809 44.000000 9 368.040866
-1.210818 -0.866544 0.689894 44.000000 7 368.040868
-1.213693 -0.868281 0.528302 13.000000 5 368.040871
-1.182809 -0.845563 0.223225 29.000000 1 368.040876
-1.230952 -0.878363 1.427534 39.000000 14 368.040884
-1.222799 -0.872543 1.177353 40.000000 12 368.040886
-1.219225 -0.869992 0.965425 47.000000 10 368.040889
-1.223759 -0.873224 0.782431 55.000000 8 368.040891
-1.219202 -0.869652 0.610073 40.000000 6 368.040894
-1.196012 -0.852166 0.152915 35.000000 0 368.040902
-0.030816 -0.015404 2.389182 90.000000 31 368.040912
-0.305371 -0.205826 2.341632 97.000000 28 368.040915
-0.398406 -0.267800 2.331389 88.000000 27 368.040917
-0.626093 -0.438687 2.489675 25.000000 25 368.040920
-0.820093 -0.581328 2.427750 48.000000 23 368.040922
-1.032152 -0.731906 2.385151 39.000000 21 368.040925
-1.258462 -0.892376 2.338461 32.000000 19 368.040928
-1.251600 -0.887507 1.912982 37.000000 17 368.040930
-0.125515 -0.076559 2.375435 95.000000 30 368.040938
-0.217333 -0.139372 2.361233 93.000000 29 368.040940
-0.487244 -0.336355 2.315465 90.000000 26 368.040943
-0.718230 -0.507247 2.445346 45.000000 24 368.040946
-0.927906 -0.655801 2.412199 46.000000 22 368.040948
-1.140687 -0.806472 2.355215 39.000000 20 368.040951
-1.254834 -0.887170 2.108967 37.000000 18 368.040953
-1.241105 -0.877460 1.726043 38.000000 16 368.040956
-1.235676 -0.878483 1.569684 38.000000 15 368.040913
-1.233524 -0.876950 1.302314 39.000000 13 368.040916
-1.225394 -0.870849 1.070232 40.000000 11 368.040919
-1.225364 -0.870824 0.873127 45.000000 9 368.040921
-1.217615 -0.864997 0.691767 44.000000 7 368.040924
-1.228450 -0.872372 0.532530 14.000000 5 368.040926
-1.189667 -0.844518 0.223671 30.000000 1 368.040931
-1.236905 -0.876435 1.430859 39.000000 14 368.040939
-1.228984 -0.870820 1.180296 40.000000 12 368.040942
-1.225773 -0.868223 0.967957 47.000000 10 368.040944
-1.230503 -0.871570 0.784529 55.000000 8 368.040947
-1.226085 -0.868120 0.611716 40.000000 6 368.040949
-1.203058 -0.850871 0.153117 35.000000 0 368.040957
-0.030869 -0.015296 2.389182 90.000000 31 368.040968
-0.306087 -0.204759 2.341632 97.000000 28 368.040970
-0.399338 -0.266408 2.331389 89.000000 27 368.040973
-0.628847 -0.437351 2.494447 22.000000 25 368.040975
-0.822117 -0.578462 2.427750 48.000000 23 368.040978
-1.032741 -0.726919 2.380762 39.000000 21 368.040981
-1.261570 -0.887978 2.338461 33.000000 19 368.040983
-1.257312 -0.884978 1.916819 37.000000 17 368.040986
-0.125781 -0.076120 2.375435 95.000000 30 368.040993
-0.217818 -0.138612 2.361233 93.000000 29 368.040996
-0.487377 -0.333941 2.310626 90.000000 26 368.040999
-0.719996 -0.504737 2.445346 42.000000 24 368.041001
-0.930190 -0.652558 2.412199 46.000000 22 368.041004
-1.143495 -0.802486 2.355215 39.000000 20 368.041006
-1.262857 -0.886247 2.116946 37.000000 18 368.041009
-1.249710 -0.877018 1.733393 38.000000 16 368.041011
-1.244562 -0.878277 1.576693 38.000000 15 368.040969
-1.239758 -0.874884 1.305452 39.000000 13 368.040972
-1.231843 -0.868976 1.072973 40.000000 11 368.040974
-1.232016 -0.869095 0.875445 45.000000 9 368.040977
-1.224415 -0.863413 0.693640 44.000000 7 368.040979
-1.207962 -0.851495 0.524075 11.000000 5 368.040982
-1.196679 -0.843229 0.224117 29.000000 1 368.040987
-1.243011 -0.874261 1.434184 39.000000 14 368.040995
-1.235322 -0.868850 1.183239 40.000000 12 368.040997
-1.232323 -0.866419 0.970490 47.000000 10 368.041000
-1.237251 -0.869880 0.786627 53.000000 8 368.041002
-1.232971 -0.866550 0.613358 40.000000 6 368.041005
-1.206021 -0.846666 0.153117 35.000000 0 368.041013
-0.030922 -0.015189 2.389182 90.000000 31 368.041023
-0.306152 -0.203260 2.336693 97.000000 28 368.041026
-0.400266 -0.265012 2.331389 88.000000 27 368.041028
-0.629141 -0.434305 2.489675 22.000000 25 368.041031
-0.824131 -0.575589 2.427750 48.000000 23 368.041033
-1.035272 -0.723310 2.380762 39.000000 21 368.041036
-1.266968 -0.885181 2.342594 32.000000 19 368.041038
-1.265650 -0.884256 1.924493 36.000000 17 368.041041
-0.126295 -0.075828 2.380427 95.000000 30 368.041049
-0.218300 -0.137851 2.361233 93.000000 29 368.041051
-0.488540 -0.332238 2.310626 88.000000 26 368.041054
-0.721754 -0.502221 2.445346 45.000000 24 368.041056
-0.930788 -0.647900 2.407699 45.000000 22 368.041059
-1.144289 -0.796799 2.350949 39.000000 20 368.041061
-1.268570 -0.883335 2.120935 36.000000 18 368.041064
-1.255698 -0.874368 1.737069 38.000000 16 368.041067
-1.250541 -0.875973 1.580198 38.000000 15 368.041024
-1.249182 -0.875018 1.311728 39.000000 13 368.041027
-1.241720 -0.869468 1.078456 40.000000 11 368.041029
-1.238672 -0.867330 0.877763 45.000000 9 368.041032
-1.231220 -0.861792 0.695514 44.000000 7 368.041035
-1.218788 -0.852774 0.526893 8.000000 5 368.041037
-1.207924 -0.844544 0.225009 29.000000 1 368.041042
-1.249269 -0.871836 1.437509 39.000000 14 368.041050
-1.241813 -0.866629 1.186182 40.000000 12 368.041053
-1.235490 -0.861896 0.970490 45.000000 10 368.041055
-1.244153 -0.867936 0.788725 53.000000 8 368.041058
-1.240013 -0.864726 0.615001 40.000000 6 368.041060
-1.213068 -0.845307 0.153319 35.000000 0 368.041068
-0.031019 -0.015090 2.394182 91.000000 31 368.041079
-0.306895 -0.202137 2.336693 97.000000 28 368.041081
-0.401234 -0.263543 2.331389 88.000000 27 368.041084
-0.630728 -0.431996 2.489675 25.000000 25 368.041086
-0.824629 -0.571451 2.423147 48.000000 23 368.041089
-1.037917 -0.719510 2.380762 39.000000 21 368.041091
-1.270204 -0.880531 2.342594 30.000000 19 368.041094
-1.271517 -0.881438 1.928330 36.000000 17 368.041096
-0.126572 -0.075364 2.380427 95.000000 30 368.041104
-0.218804 -0.137050 2.361233 93.000000 29 368.041107
-0.489754 -0.330445 2.310626 88.000000 26 368.041109
-0.723589 -0.499572 2.445346 45.000000 24 368.041112
-0.933044 -0.644647 2.407699 45.000000 22 368.041114
-1.147063 -0.792800 2.350949 39.000000 20 368.041117
-1.276605 -0.882328 2.128914 36.000000 18 368.041120
-1.264320 -0.873835 1.744419 38.000000 16 368.041122
-1.256672 -0.873419 1.583702 38.000000 15 368.041080
-1.255577 -0.872655 1.314865 39.000000 13 368.041082
-1.248332 -0.867297 1.081198 40.000000 11 368.041085
-1.245481 -0.865312 0.880081 45.000000 9 368.041087
-1.238178 -0.859918 0.697387 46.000000 7 368.041090
-1.229787 -0.853773 0.529711 4.000000 5 368.041093
-1.214956 -0.843162 0.225456 29.000000 1 368.041098
-1.255375 -0.869596 1.440833 38.000000 14 368.041105
-1.248154 -0.864591 1.189126 40.000000 12 368.041108
-1.242036 -0.860033 0.973022 45.000000 10 368.041111
-1.250906 -0.866172 0.790823 53.000000 8 368.041113
-1.243024 -0.860393 0.615001 39.000000 6 368.041116
-1.220268 -0.843697 0.153520 35.000000 0 368.041123
-0.031072 -0.014981 2.394182 90.000000 31 368.041134
-0.307599 -0.201064 2.336693 97.000000 28 368.041137
-0.402152 -0.262141 2.331389 89.000000 27 368.041139
-0.630997 -0.428953 2.484903 31.000000 25 368.041142
-0.826619 -0.568569 2.423147 40.000000 23 368.041144
-1.040422 -0.715883 2.380762 39.000000 21 368.041147
-1.273270 -0.876092 2.342594 30.000000 19 368.041149
-1.277227 -0.878811 1.932167 36.000000 17 368.041152
-0.126835 -0.074922 2.380427 95.000000 30 368.041160
-0.219281 -0.136286 2.361233 92.000000 29 368.041162
-0.490905 -0.328734 2.310626 90.000000 26 368.041165
-0.725329 -0.497043 2.445346 42.000000 24 368.041167
-0.935288 -0.641387 2.407699 45.000000 22 368.041170
-1.149823 -0.788791 2.350949 39.000000 20 368.041173
-1.282162 -0.879572 2.132904 36.000000 18 368.041175
-1.270159 -0.871334 1.748094 38.000000 16 368.041178
-1.265584 -0.873077 1.590711 38.000000 15 368.041135
-1.261820 -0.870477 1.318003 39.000000 13 368.041138
-1.254794 -0.865308 1.083939 40.000000 11 368.041140
-1.252141 -0.863474 0.882399 44.000000 9 368.041143
-1.244989 -0.858222 0.699260 46.000000 7 368.041146
-1.226094 -0.844566 0.226348 28.000000 1 368.041153
-1.261480 -0.867325 1.444158 38.000000 14 368.041161
-1.254495 -0.862519 1.192069 40.000000 12 368.041164
-1.248583 -0.858134 0.975554 45.000000 10 368.041166
-1.257662 -0.864371 0.792921 52.000000 8 368.041169
-1.249912 -0.858722 0.616644 39.000000 6 368.041171
-1.227324 -0.842259 0.153722 35.000000 0 368.041179
-0.031124 -0.014873 2.394182 90.000000 31 368.041190
-0.308299 -0.199989 2.336693 97.000000 28 368.041192
-0.403064 -0.260736 2.331389 88.000000 27 368.041195
-0.631252 -0.425912 2.480132 36.000000 25 368.041197
-0.828599 -0.565681 2.423147 40.000000 23 368.041200
-1.042914 -0.712247 2.380762 39.000000 21 368.041202
-1.273997 -0.870055 2.338461 32.000000 19 368.041205
-1.282934 -0.876155 1.936003 36.000000 17 368.041207
-0.127096 -0.074479 2.380427 95.000000 30 368.041215
-0.219756 -0.135519 2.361233 92.000000 29 368.041218
-0.492049 -0.327018 2.310626 90.000000 26 368.041220
-0.727059 -0.494508 2.445346 45.000000 24 368.041223
-0.935721 -0.636893 2.403198 46.000000 22 368.041225
-1.152570 -0.784772 2.350949 39.000000 20 368.041228
-1.290208 -0.878483 2.140883 36.000000 18 368.041231
-1.278797 -0.870711 1.755444 38.000000 16 368.041233
-1.271566 -0.870669 1.594216 38.000000 15 368.041191
-1.268063 -0.868267 1.321141 39.000000 13 368.041193
-1.261258 -0.863284 1.086681 40.000000 11 368.041196
-1.255147 -0.859098 0.882399 44.000000 9 368.041199
-1.251803 -0.856489 0.701133 48.000000 7 368.041201
-1.237257 -0.845903 0.227241 25.000000 1 368.041209
-1.270669 -0.867126 1.450808 39.000000 14 368.041217
-1.260836 -0.860413 1.195012 40.000000 12 368.041219
-1.258694 -0.858629 0.980619 45.000000 10 368.041222
-1.264421 -0.862533 0.795020 52.000000 8 368.041224
-1.252901 -0.854354 0.616644 39.000000 6 368.041227
-1.234386 -0.840782 0.153923 34.000000 0 368.041234
-0.031175 -0.014764 2.394182 91.000000 31 368.041245
-0.308995 -0.198912 2.336693 97.000000 28 368.041248
-0.403972 -0.259327 2.331389 88.000000 27 368.041250
-0.631494 -0.422875 2.475360 38.000000 25 368.041253
-0.830568 -0.562785 2.423147 46.000000 23 368.041255
-1.045394 -0.708602 2.380762 38.000000 21 368.041258
-1.277026 -0.865603 2.338461 34.000000 19 368.041260
-1.291292 -0.875269 1.943677 36.000000 17 368.041263
-0.127103 -0.073891 2.375435 95.000000 30 368.041271
-0.220227 -0.134751 2.361233 93.000000 29 368.041273
-0.493188 -0.325299 2.310626 90.000000 26 368.041276
-0.728781 -0.491967 2.445346 45.000000 24 368.041278
-0.937939 -0.633623 2.403198 46.000000 22 368.041281
-1.155302 -0.780744 2.350949 39.000000 20 368.041284
-1.295763 -0.875662 2.144872 36.000000 18 368.041286
-1.284637 -0.868140 1.759119 38.000000 16 368.041289
-1.277547 -0.868230 1.597720 38.000000 15 368.041246
-1.274305 -0.866023 1.324279 39.000000 13 368.041249
-1.267722 -0.861226 1.089422 40.000000 11 368.041251
-1.261803 -0.857201 0.884717 44.000000 9 368.041254
-1.258621 -0.854719 0.703006 48.000000 7 368.041257
-1.252565 -0.849968 0.228579 18.000000 1 368.041264
-1.276780 -0.864779 1.454133 38.000000 14 368.041272
-1.267179 -0.858273 1.197955 40.000000 12 368.041275
-1.265254 -0.856647 0.983152 45.000000 10 368.041277
-1.271183 -0.860659 0.797118 55.000000 8 368.041280
-1.259787 -0.852623 0.618286 38.000000 6 368.041282
-1.245591 -0.842064 0.154326 32.000000 0 368.041290
-0.031227 -0.014655 2.394182 91.000000 31 368.041301
-0.309688 -0.197832 2.336693 98.000000 28 368.041303
-0.404875 -0.257916 2.331389 88.000000 27 368.041306
-0.631722 -0.419842 2.470588 39.000000 25 368.041308
-0.832528 -0.559882 2.423147 46.000000 23 368.041311
-1.047861 -0.704949 2.380762 38.000000 21 368.041313
-1.277705 -0.859569 2.334328 37.000000 19 368.041316
-1.297000 -0.872546 1.947514 36.000000 17 368.041319
-0.127360 -0.073447 2.375435 95.000000 30 368.041326
-0.220696 -0.133982 2.361233 93.000000 29 368.041329
-0.494320 -0.323575 2.310626 90.000000 26 368.041331
-0.730494 -0.489420 2.445346 42.000000 24 368.041334
-0.940145 -0.630345 2.403198 46.000000 22 368.041337
-1.158020 -0.776707 2.350949 39.000000 20 368.041339
-1.303818 -0.874491 2.152851 36.000000 18 368.041342
-1.293291 -0.867427 1.766470 38.000000 16 368.041344
-1.286483 -0.867753 1.604729 38.000000 15 368.041302
-1.280548 -0.863747 1.327416 39.000000 13 368.041304
-1.274188 -0.859133 1.092164 40.000000 11 368.041307
-1.268461 -0.855268 0.887035 44.000000 9 368.041310
-1.265441 -0.852911 0.704879 48.000000 7 368.041312
-1.251394 -0.842808 0.228133 11.000000 1 368.041320
-1.282890 -0.862401 1.457458 38.000000 14 368.041328
-1.273522 -0.856100 1.200898 39.000000 12 368.041330
-1.271815 -0.854630 0.985684 43.000000 10 368.041333
-1.277946 -0.858747 0.799216 53.000000 8 368.041335
-1.266676 -0.850853 0.619929 37.000000 6 368.041338
-1.273415 -0.854412 0.155535 26.000000 0 368.041345
-0.031278 -0.014546 2.394182 91.000000 31 368.041356
-0.310376 -0.196750 2.336693 98.000000 28 368.041359
-0.405773 -0.256501 2.331389 88.000000 27 368.041361
-0.633184 -0.417634 2.470588 40.000000 25 368.041364
-0.834477 -0.556973 2.423147 48.000000 23 368.041366
-1.050316 -0.701287 2.380762 39.000000 21 368.041369
-1.278357 -0.853541 2.330195 37.000000 19 368.041371
-1.305370 -0.871574 1.955188 36.000000 17 368.041374
-0.127616 -0.073002 2.375435 93.000000 30 368.041382
-0.221163 -0.133211 2.361233 93.000000 29 368.041384
-0.495447 -0.321848 2.310626 88.000000 26 368.041387
-0.732198 -0.486867 2.445346 45.000000 24 368.041389
-0.942339 -0.627059 2.403198 46.000000 22 368.041392
-1.160725 -0.772660 2.350949 39.000000 20 368.041395
-1.309372 -0.871605 2.156841 35.000000 18 368.041397
-1.299133 -0.864786 1.770145 38.000000 16 368.041400
-1.292468 -0.865241 1.608234 38.000000 15 368.041357
-1.286790 -0.861437 1.330554 39.000000 13 368.041360
-1.280654 -0.857006 1.094905 40.000000 11 368.041363
-1.278802 -0.855763 0.891671 44.000000 9 368.041365
-1.276117 -0.853644 0.708625 48.000000 7 368.041368
-1.254328 -0.838435 0.228133 4.000000 1 368.041375
-1.292105 -0.862062 1.464108 38.000000 14 368.041383
-1.279864 -0.853892 1.203841 39.000000 12 368.041386
-1.278377 -0.852578 0.988217 43.000000 10 368.041388
-1.284712 -0.856799 0.801314 51.000000 8 368.041391
-1.273568 -0.849046 0.621572 36.000000 6 368.041393
-1.255598 -0.836117 0.154528 13.000000 0 368.041401
-0.031328 -0.014437 2.394182 91.000000 31 368.041412
-0.311061 -0.195665 2.336693 98.000000 28 368.041414
-0.406666 -0.255083 2.331389 88.000000 27 368.041417
-0.633388 -0.414604 2.465816 44.000000 25 368.041419
-0.836416 -0.554056 2.423147 48.000000 23 368.041422
-1.052757 -0.697616 2.380762 39.000000 21 368.041424
-1.281329 -0.849074 2.330195 38.000000 19 368.041427
-1.311077 -0.868783 1.959025 36.000000 17 368.041430
-0.127870 -0.072556 2.375435 95.000000 30 368.041437
-0.221626 -0.132438 2.361233 93.000000 29 368.041440
-0.496567 -0.320116 2.310626 88.000000 26 368.041442
-0.733893 -0.484309 2.445346 45.000000 24 368.041445
-0.944522 -0.623766 2.403198 48.000000 22 368.041448
-1.163415 -0.768604 2.350949 39.000000 20 368.041450
-1.317436 -0.870352 2.164820 35.000000 18 368.041453
-1.307801 -0.863984 1.777495 38.000000 16 368.041455
-1.298451 -0.862698 1.611739 38.000000 15 368.041413
-1.293032 -0.859095 1.333692 39.000000 13 368.041415
-1.287121 -0.854843 1.097647 40.000000 11 368.041418
-1.285472 -0.853745 0.893989 44.000000 9 368.041421
-1.282951 -0.851748 0.710498 48.000000 7 368.041423
-1.298220 -0.859609 1.467432 38.000000 14 368.041439
-1.286207 -0.851651 1.206785 39.000000 12 368.041441
-1.284940 -0.850489 0.990749 43.000000 10 368.041444
-1.291479 -0.854815 0.803412 53.000000 8 368.041446
-1.280462 -0.847201 0.623215 32.000000 6 368.041449
-0.031378 -0.014327 2.394182 91.000000 31 368.041467
-0.311742 -0.194578 2.336693 98.000000 28 368.041470
-0.407554 -0.253662 2.331389 86.000000 27 368.041472
-0.634831 -0.412390 2.465816 44.000000 25 368.041475
-0.838345 -0.551133 2.423147 49.000000 23 368.041477
-1.055186 -0.693937 2.380762 39.000000 21 368.041480
-1.284285 -0.844596 2.330195 38.000000 19 368.041483
-1.319459 -0.867724 1.966699 35.000000 17 368.041485
-0.128123 -0.072109 2.375435 96.000000 30 368.041493
-0.222087 -0.131663 2.361233 92.000000 29 368.041495
-0.497681 -0.318381 2.310626 88.000000 26 368.041498
-0.735579 -0.481744 2.445346 47.000000 24 368.041501
-0.946694 -0.620465 2.403198 48.000000 22 368.041503
-1.166090 -0.764538 2.350949 39.000000 20 368.041506
-1.322986 -0.867400 2.168809 35.000000 18 368.041508
-1.313644 -0.861272 1.781170 38.000000 16 368.041511
-1.304432 -0.860123 1.615243 38.000000 15 368.041468
-1.299273 -0.856719 1.336830 39.000000 13 368.041471
-1.293588 -0.852647 1.100388 40.000000 11 368.041474
-1.292143 -0.851691 0.896307 45.000000 9 368.041476
-1.289787 -0.849815 0.712371 48.000000 7 368.041479
-1.307455 -0.859173 1.474082 39.000000 14 368.041494
-1.292550 -0.849376 1.209728 39.000000 12 368.041497
-1.291505 -0.848366 0.993281 42.000000 10 368.041499
-1.298249 -0.852793 0.805510 53.000000 8 368.041502
-1.287359 -0.845318 0.624857 27.000000 6 368.041504
-0.031428 -0.014218 2.394182 90.000000 31 368.041523
-0.311758 -0.193080 2.331754 97.000000 28 368.041525
-0.407570 -0.251703 2.326494 89.000000 27 368.041528
-0.636267 -0.410172 2.465816 47.000000 25 368.041530
-0.840264 -0.548204 2.423147 51.000000 23 368.041533
-1.055596 -0.688940 2.376374 39.000000 21 368.041535
-1.287225 -0.840108 2.330195 38.000000 19 368.041538
-1.325164 -0.864865 1.970536 35.000000 17 368.041541
-0.128374 -0.071661 2.375435 95.000000 30 368.041548
-0.222546 -0.130887 2.361233 93.000000 29 368.041551
-0.498790 -0.316642 2.310626 88.000000 26 368.041553
-0.735809 -0.478233 2.440653 45.000000 24 368.041556
-0.948962 -0.616991 2.403198 48.000000 22 368.041559
-1.168885 -0.760259 2.350949 39.000000 20 368.041561
-1.331210 -0.865832 2.176788 34.000000 18 368.041564
-1.319634 -0.858300 1.784846 37.000000 16 368.041566
-1.313395 -0.859470 1.622252 38.000000 15 368.041524
-1.308770 -0.856441 1.343105 39.000000 13 368.041527
-1.300056 -0.850415 1.103130 40.000000 11 368.041529
-1.298816 -0.849600 0.898625 45.000000 9 368.041532
-1.296626 -0.847845 0.714244 48.000000 7 368.041534
-1.313723 -0.856415 1.477407 39.000000 14 368.041550
-1.299041 -0.846840 1.212671 39.000000 12 368.041552
-1.294605 -0.843627 0.993281 42.000000 10 368.041555
-1.305168 -0.850507 0.807608 53.000000 8 368.041557
-1.310233 -0.853482 0.633071 17.000000 6 368.041560
-0.031480 -0.014102 2.394182 88.000000 31 368.041578
-0.312464 -0.191936 2.331754 97.000000 28 368.041581
-0.408490 -0.250208 2.326494 86.000000 27 368.041583
-0.637766 -0.407837 2.465816 47.000000 25 368.041586
-0.840627 -0.544059 2.418545 49.000000 23 368.041588
-1.058113 -0.685067 2.376374 39.000000 21 368.041591
