# .PCD v.7 - Point Cloud Data file format
VERSION .7
FIELDS x y z intensity ring timestamp
SIZE 4 4 4 4 2 8
TYPE F F F F U D
COUNT 1 1 1 1 1 1
WIDTH 945
HEIGHT 1
VIEWPOINT 0 0 0 1 0 0 0
POINTS 945
DATA ascii
0.331163 0.211844 2.499689 95.000000 28 367.991525
0.439049 0.280076 2.527198 83.000000 27 367.991528
0.658784 0.438485 2.575566 81.000000 25 367.991530
0.896953 0.604117 2.607248 78.000000 23 367.991533
1.174529 0.791354 2.661637 69.000000 21 367.991535
1.496477 1.008263 2.722825 77.000000 19 367.991538
1.812189 1.220969 2.691882 8.000000 17 367.991541
0.132346 0.076394 2.475267 95.000000 30 367.991548
0.232027 0.141039 2.485519 56.000000 29 367.991551
0.546701 0.358384 2.552586 86.000000 26 367.991553
0.776008 0.520698 2.595515 82.000000 24 367.991556
1.033719 0.694128 2.637241 82.000000 22 367.991559
1.332839 0.895308 2.696490 77.000000 20 367.991561
1.691004 1.135891 2.771223 14.000000 18 367.991564
2.094733 1.407081 2.813892 7.000000 16 367.991566
1.888731 1.275894 2.319657 16.000000 15 367.991524
1.608977 1.086910 1.647470 21.000000 13 367.991526
1.613191 1.089347 1.360827 20.000000 11 367.991529
1.814918 1.225564 1.232421 18.000000 9 367.991532
2.356100 1.590409 1.236820 15.000000 7 367.991534
2.366404 1.596764 0.928514 13.000000 5 367.991537
2.369875 1.599106 0.634257 15.000000 3 367.991539
2.386183 1.609504 0.350841 14.000000 1 367.991542
1.604452 1.080190 1.803242 22.000000 14 367.991550
1.618277 1.089494 1.504044 26.000000 12 367.991552
1.628888 1.096225 1.238927 22.000000 10 367.991555
2.350446 1.581820 1.397161 14.000000 8 367.991557
2.359292 1.587175 1.078238 14.000000 6 367.991560
2.367746 1.592262 0.778903 16.000000 4 367.991562
2.383632 1.602341 0.492294 14.000000 2 367.991565
2.404864 1.616005 0.210553 13.000000 0 367.991568
0.031847 0.014761 2.464180 94.000000 31 367.991578
0.331900 0.210687 2.499689 95.000000 28 367.991581
0.440024 0.278541 2.527198 83.000000 27 367.991583
0.661557 0.437006 2.580338 81.000000 25 367.991586
0.899056 0.600982 2.607248 86.000000 23 367.991588
1.177284 0.787249 2.661637 66.000000 21 367.991591
1.499988 1.003033 2.722825 77.000000 19 367.991594
1.821770 1.218200 2.699556 7.000000 17 367.991596
0.132612 0.075931 2.475267 95.000000 30 367.991604
0.232518 0.140228 2.485519 56.000000 29 367.991606
0.547948 0.356474 2.552586 86.000000 26 367.991609
0.777821 0.517986 2.595515 86.000000 24 367.991612
1.036135 0.690515 2.637241 82.000000 22 367.991614
1.335956 0.890650 2.696490 75.000000 20 367.991617
1.694958 1.129982 2.771223 14.000000 18 367.991619
2.085527 1.390357 2.795516 5.000000 16 367.991622
1.893173 1.269293 2.319657 16.000000 15 367.991579
1.615995 1.083455 1.650608 21.000000 13 367.991582
1.623930 1.088365 1.366310 22.000000 11 367.991585
1.822866 1.221688 1.234739 18.000000 9 367.991587
2.311568 1.548631 1.212471 14.000000 7 367.991590
2.336089 1.564469 0.915831 13.000000 5 367.991592
2.355035 1.577157 0.629594 15.000000 3 367.991595
2.387648 1.598394 0.350394 14.000000 1 367.991597
1.611318 1.076658 1.806567 22.000000 14 367.991605
1.625431 1.086084 1.506987 25.000000 12 367.991608
1.632705 1.090533 1.238927 20.000000 10 367.991610
2.303115 1.538314 1.367788 11.000000 8 367.991613
2.321615 1.550085 1.060169 13.000000 6 367.991615
2.328818 1.554306 0.766008 15.000000 4 367.991618
2.352135 1.569275 0.486085 14.000000 2 367.991620
2.385552 1.590969 0.209344 12.000000 0 367.991623
0.031857 0.014636 2.459180 92.000000 31 367.991634
0.332634 0.209527 2.499689 95.000000 28 367.991636
0.441856 0.277544 2.532093 83.000000 27 367.991639
0.663079 0.434694 2.580338 85.000000 25 367.991641
0.902777 0.598920 2.611851 85.000000 23 367.991644
1.180025 0.783135 2.661637 67.000000 21 367.991646
1.503480 0.997791 2.722825 77.000000 19 367.991649
1.831354 1.215379 2.707230 6.000000 17 367.991652
0.132876 0.075468 2.475267 96.000000 30 367.991659
0.233006 0.139415 2.485519 56.000000 29 367.991662
0.549189 0.354559 2.552586 86.000000 26 367.991664
0.779624 0.515268 2.595515 86.000000 24 367.991667
1.038539 0.686894 2.637241 82.000000 22 367.991670
1.339057 0.885982 2.696490 75.000000 20 367.991672
1.701406 1.125721 2.775213 14.000000 18 367.991675
2.064922 1.366233 2.762439 4.000000 16 367.991677
1.900561 1.264652 2.323161 17.000000 15 367.991635
1.626249 1.082121 1.656883 23.000000 13 367.991638
1.631201 1.085005 1.369052 21.000000 11 367.991640
1.830807 1.217771 1.237057 18.000000 9 367.991643
2.266773 1.507184 1.188121 9.000000 7 367.991645
2.321559 1.543027 0.908785 9.000000 5 367.991648
2.327797 1.547174 0.622133 14.000000 3 367.991650
2.343437 1.556979 0.345040 14.000000 1 367.991653
1.621291 1.075154 1.813217 23.000000 14 367.991661
1.632581 1.082638 1.509930 25.000000 12 367.991663
1.640095 1.087209 1.241459 20.000000 10 367.991666
2.263077 1.500174 1.342611 9.000000 8 367.991668
2.279772 1.510669 1.040457 9.000000 6 367.991671
2.277497 1.508589 0.749595 9.000000 4 367.991673
2.332824 1.544651 0.481946 9.000000 2 367.991676
2.357763 1.560572 0.207732 12.000000 0 367.991679
0.031908 0.014525 2.459180 95.000000 31 367.991689
0.333363 0.208364 2.499689 95.000000 28 367.991692
0.442822 0.276000 2.532093 83.000000 27 367.991694
0.664592 0.432377 2.580338 85.000000 25 367.991697
0.904862 0.595765 2.611851 83.000000 23 367.991699
1.182751 0.779011 2.661637 67.000000 21 367.991702
1.506954 0.992536 2.722825 77.000000 19 367.991705
1.840940 1.212506 2.714903 5.000000 17 367.991707
0.133139 0.075004 2.475267 96.000000 30 367.991715
0.233492 0.138601 2.485519 56.000000 29 367.991717
0.550424 0.352640 2.552586 86.000000 26 367.991720
0.781418 0.512543 2.595515 86.000000 24 367.991723
1.040931 0.683265 2.637241 82.000000 22 367.991725
1.342141 0.881302 2.696490 77.000000 20 367.991728
1.705325 1.119775 2.775213 14.000000 18 367.991730
2.066845 1.357156 2.758764 4.000000 16 367.991733
1.910916 1.261941 2.330170 17.000000 15 367.991690
1.633265 1.078582 1.660021 23.000000 13 367.991693
1.641958 1.083912 1.374535 20.000000 11 367.991696
1.838745 1.213814 1.239375 19.000000 9 367.991698
2.260412 1.491603 1.182502 9.000000 7 367.991701
2.302904 1.519065 0.900330 8.000000 5 367.991703
2.288078 1.509286 0.611874 9.000000 3 367.991706
2.294809 1.513151 0.339239 8.000000 1 367.991708
1.631273 1.073594 1.819866 23.000000 14 367.991716
1.639726 1.079154 1.512873 25.000000 12 367.991719
1.647482 1.083847 1.243992 24.000000 10 367.991721
2.249342 1.479794 1.332121 9.000000 8 367.991724
2.281086 1.500107 1.038814 9.000000 6 367.991726
2.282749 1.500630 0.749595 9.000000 4 367.991729
2.300954 1.512022 0.475738 8.000000 2 367.991732
2.313088 1.519418 0.205314 8.000000 0 367.991734
0.031958 0.014414 2.459180 95.000000 31 367.991745
0.334088 0.207200 2.499689 95.000000 28 367.991747
0.443783 0.274453 2.532093 83.000000 27 367.991750
0.666097 0.430054 2.580338 81.000000 25 367.991752
0.906936 0.592603 2.611851 85.000000 23 367.991755
1.185463 0.774878 2.661637 67.000000 21 367.991758
1.512765 0.988810 2.726958 77.000000 19 367.991760
1.847844 1.207826 2.718740 5.000000 17 367.991763
0.133400 0.074538 2.475267 96.000000 30 367.991770
0.233974 0.137785 2.485519 56.000000 29 367.991773
0.551651 0.350716 2.552586 86.000000 26 367.991776
0.783203 0.509812 2.595515 86.000000 24 367.991778
1.043309 0.679627 2.637241 82.000000 22 367.991781
1.345209 0.876612 2.696490 77.000000 20 367.991783
1.709223 1.113816 2.775213 14.000000 18 367.991786
2.091452 1.362889 2.784490 7.000000 16 367.991788
1.918292 1.257218 2.333675 18.000000 15 367.991746
1.643531 1.077142 1.666296 22.000000 13 367.991749
1.649229 1.080465 1.377276 20.000000 11 367.991751
1.846676 1.209815 1.241693 18.000000 9 367.991754
2.265605 1.483703 1.182502 9.000000 7 367.991756
2.276082 1.489997 0.889056 8.000000 5 367.991759
2.289222 1.498599 0.610942 9.000000 3 367.991761
2.291743 1.499678 0.338347 8.000000 1 367.991764
1.638137 1.069936 1.823191 23.000000 14 367.991772
1.646867 1.075634 1.515816 25.000000 12 367.991774
1.654865 1.080446 1.246524 25.000000 10 367.991777
2.246893 1.466970 1.327925 9.000000 8 367.991779
2.274444 1.484392 1.033886 9.000000 6 367.991782
2.275761 1.484685 0.746078 9.000000 4 367.991784
2.302070 1.501276 0.475048 8.000000 2 367.991787
2.318378 1.511335 0.205314 7.000000 0 367.991790
0.032008 0.014302 2.459180 92.000000 31 367.991801
0.334809 0.206032 2.499689 95.000000 28 367.991804
0.444738 0.272902 2.532093 83.000000 27 367.991806
0.667594 0.427726 2.580338 81.000000 25 367.991809
0.908999 0.589433 2.611851 85.000000 23 367.991811
1.188161 0.770735 2.661637 69.000000 21 367.991814
1.516207 0.983523 2.726958 77.000000 19 367.991816
1.857428 1.204858 2.726414 6.000000 17 367.991819
0.133659 0.074072 2.475267 95.000000 30 367.991827
0.234454 0.136968 2.485519 56.000000 29 367.991829
0.552872 0.348788 2.552586 84.000000 26 367.991832
0.784977 0.507075 2.595515 86.000000 24 367.991834
1.045675 0.675981 2.637241 82.000000 22 367.991837
1.350451 0.873327 2.700756 77.000000 20 367.991839
1.713101 1.107843 2.775213 14.000000 18 367.991842
2.101890 1.359262 2.791841 7.000000 16 367.991845
1.925658 1.252459 2.337179 18.000000 15 367.991802
1.650545 1.073521 1.669434 22.000000 13 367.991805
1.660002 1.079260 1.382759 20.000000 11 367.991807
1.854602 1.205777 1.244011 18.000000 9 367.991810
2.259109 1.468207 1.176883 9.000000 7 367.991813
2.273224 1.476816 0.886238 8.000000 5 367.991815
2.282082 1.482571 0.608144 9.000000 3 367.991818
2.296964 1.491669 0.338347 8.000000 1 367.991820
1.648129 1.068273 1.829841 23.000000 14 367.991828
1.657396 1.074276 1.521703 26.000000 12 367.991831
1.662244 1.077007 1.249056 25.000000 10 367.991833
2.244382 1.454183 1.323729 9.000000 8 367.991836
2.267721 1.468742 1.028958 9.000000 6 367.991838
2.276850 1.474091 0.744906 9.000000 4 367.991841
2.298982 1.487850 0.473669 8.000000 2 367.991843
2.315250 1.497805 0.204910 6.000000 0 367.991846
0.032058 0.014190 2.459180 92.000000 31 367.991857
0.336190 0.205266 2.504628 95.000000 28 367.991859
0.445688 0.271348 2.532093 83.000000 27 367.991862
0.669083 0.425394 2.580338 83.000000 25 367.991864
0.911051 0.586257 2.611851 85.000000 23 367.991867
1.190844 0.766583 2.661637 69.000000 21 367.991869
1.519631 0.978225 2.726958 77.000000 19 367.991872
1.867014 1.201838 2.734088 7.000000 17 367.991874
0.133917 0.073605 2.475267 95.000000 30 367.991882
0.234930 0.136148 2.485519 56.000000 29 367.991885
0.554086 0.346856 2.552586 86.000000 26 367.991887
0.786743 0.504332 2.595515 86.000000 24 367.991890
1.048028 0.672327 2.637241 82.000000 22 367.991892
1.353491 0.868608 2.700756 77.000000 20 367.991895
1.716957 1.101856 2.775213 14.000000 18 367.991898
2.112328 1.355579 2.799191 7.000000 16 367.991900
1.933015 1.247663 2.340684 18.000000 15 367.991858
1.657552 1.069864 1.672572 22.000000 13 367.991860
1.667273 1.075726 1.385501 20.000000 11 367.991863
1.862522 1.201697 1.246329 17.000000 9 367.991865
2.256428 1.455287 1.173137 9.000000 7 367.991868
2.266268 1.461073 0.882010 8.000000 5 367.991871
2.278986 1.469272 0.606278 9.000000 3 367.991873
2.285412 1.472851 0.336562 8.000000 1 367.991876
1.658130 1.066554 1.836491 23.000000 14 367.991883
1.664535 1.070671 1.524646 26.000000 12 367.991886
1.673247 1.075862 1.254121 25.000000 10 367.991889
2.245627 1.443885 1.321631 9.000000 8 367.991891
2.264889 1.455711 1.025672 9.000000 6 367.991894
2.273802 1.460879 0.742562 10.000000 4 367.991896
2.295828 1.474464 0.472289 8.000000 2 367.991899
2.307852 1.481618 0.204306 7.000000 0 367.991901
0.032107 0.014078 2.459180 83.000000 31 367.991912
0.336905 0.204092 2.504628 95.000000 28 367.991915
0.446632 0.269791 2.532093 83.000000 27 367.991917
0.670564 0.423055 2.580338 83.000000 25 367.991920
0.913092 0.583073 2.611851 85.000000 23 367.991922
1.195532 0.763711 2.666025 67.000000 21 367.991925
1.525408 0.974429 2.731091 77.000000 19 367.991927
1.876601 1.198765 2.741762 9.000000 17 367.991930
0.134173 0.073137 2.475267 96.000000 30 367.991938
0.235404 0.135328 2.485519 58.000000 29 367.991940
0.555294 0.344920 2.552586 87.000000 26 367.991943
0.788498 0.501583 2.595515 86.000000 24 367.991945
1.050369 0.668665 2.637241 82.000000 22 367.991948
1.356515 0.863878 2.700756 77.000000 20 367.991951
1.720793 1.095856 2.775213 14.000000 18 367.991953
2.122766 1.351840 2.806541 7.000000 16 367.991956
1.937358 1.240908 2.340684 18.000000 15 367.991913
1.667833 1.068271 1.678848 23.000000 13 367.991916
1.678061 1.074409 1.390983 20.000000 11 367.991918
1.866706 1.195189 1.246329 17.000000 9 367.991921
2.249781 1.439905 1.167518 9.000000 7 367.991924
2.259232 1.445398 0.877783 8.000000 5 367.991926
2.275825 1.456014 0.604413 9.000000 3 367.991929
2.282149 1.459498 0.335670 7.000000 1 367.991931
1.664990 1.062769 1.839815 23.000000 14 367.991939
1.671669 1.067029 1.527589 26.000000 12 367.991942
1.680626 1.072333 1.256654 25.000000 10 367.991944
2.243001 1.431155 1.317435 9.000000 8 367.991947
2.258011 1.440178 1.020744 9.000000 6 367.991949
2.270691 1.447707 0.740217 10.000000 4 367.991952
2.288432 1.458456 0.470220 8.000000 2 367.991954
2.304582 1.468184 0.203903 8.000000 0 367.991957
0.032156 0.013966 2.459180 84.000000 31 367.991968
0.337615 0.202914 2.504628 95.000000 28 367.991970
0.447571 0.268230 2.532093 83.000000 27 367.991973
0.672037 0.420712 2.580338 85.000000 25 367.991975
0.915122 0.579882 2.611851 86.000000 23 367.991978
1.198190 0.759533 2.666025 67.000000 21 367.991980
1.528800 0.969099 2.731091 77.000000 19 367.991983
1.888898 1.197356 2.753273 11.000000 17 367.991985
0.134683 0.072804 2.480259 96.000000 30 367.991993
0.236340 0.134768 2.490490 56.000000 29 367.991996
0.556494 0.342980 2.552586 86.000000 26 367.991998
0.790244 0.498827 2.595515 84.000000 24 367.992001
1.052697 0.664994 2.637241 82.000000 22 367.992003
1.361727 0.860531 2.705022 77.000000 20 367.992006
1.724608 1.089843 2.775213 14.000000 18 367.992009
2.113143 1.335366 2.788166 8.000000 16 367.992011
1.944688 1.236051 2.344189 17.000000 15 367.991969
1.674837 1.064531 1.681985 23.000000 13 367.991971
1.685330 1.070787 1.393725 21.000000 11 367.991974
1.874606 1.191041 1.248647 17.000000 9 367.991977
2.246966 1.427072 1.163772 10.000000 7 367.991979
2.256164 1.432360 0.874964 8.000000 5 367.991982
2.272599 1.442795 0.602548 9.000000 3 367.991984
2.274616 1.443518 0.334331 9.000000 1 367.991987
1.675000 1.060947 1.846465 24.000000 14 367.991995
1.682213 1.065513 1.533475 27.000000 12 367.991997
1.691644 1.071073 1.261719 24.000000 10 367.992000
2.240314 1.418461 1.313239 9.000000 8 367.992002
2.255044 1.427236 1.017459 9.000000 6 367.992005
2.267515 1.434575 0.737872 10.000000 4 367.992007
2.285138 1.445166 0.468840 8.000000 2 367.992010
2.297024 1.452122 0.203298 8.000000 0 367.992012
0.032205 0.013854 2.459180 92.000000 31 367.992023
0.338321 0.201735 2.504628 91.000000 28 367.992026
0.448505 0.266666 2.532093 83.000000 27 367.992028
0.673501 0.418364 2.580338 85.000000 25 367.992031
0.918794 0.577724 2.616453 85.000000 23 367.992033
1.200834 0.755346 2.666025 67.000000 21 367.992036
1.532173 0.963756 2.731091 77.000000 19 367.992038
1.901207 1.195876 2.764784 11.000000 17 367.992041
0.134937 0.072334 2.480259 96.000000 30 367.992049
0.236809 0.133942 2.490490 58.000000 29 367.992051
0.557688 0.341035 2.552586 86.000000 26 367.992054
0.791981 0.496066 2.595515 84.000000 24 367.992056
1.055012 0.661316 2.637241 82.000000 22 367.992059
1.364722 0.855772 2.705022 77.000000 20 367.992062
1.730955 1.085417 2.779202 14.000000 18 367.992064
2.112047 1.324380 2.780815 8.000000 16 367.992067
1.952007 1.231157 2.347693 17.000000 15 367.992024
1.685128 1.062832 1.688261 23.000000 13 367.992027
1.696132 1.069358 1.399208 21.000000 11 367.992029
1.878752 1.184491 1.248647 17.000000 9 367.992032
2.244090 1.414276 1.160026 9.000000 7 367.992035
2.248972 1.416805 0.870737 9.000000 5 367.992037
2.265153 1.426998 0.599750 9.000000 3 367.992040
2.275426 1.432915 0.333885 9.000000 1 367.992042
1.681854 1.057081 1.849790 24.000000 14 367.992050
1.689344 1.061785 1.536419 26.000000 12 367.992053
1.699023 1.067455 1.264251 24.000000 10 367.992055
2.237566 1.405803 1.309042 9.000000 8 367.992058
2.252014 1.414333 1.014174 9.000000 6 367.992060
2.260159 1.418898 0.734355 10.000000 4 367.992063
2.277585 1.429283 0.466771 9.000000 2 367.992065
2.293615 1.438785 0.202895 8.000000 0 367.992068
0.032253 0.013741 2.459180 92.000000 31 367.992079
0.339023 0.200552 2.504628 91.000000 28 367.992081
0.449433 0.265099 2.532093 83.000000 27 367.992084
0.674957 0.416010 2.580338 85.000000 25 367.992086
0.920805 0.574514 2.616453 85.000000 23 367.992089
1.203463 0.751150 2.666025 67.000000 21 367.992091
1.535528 0.958402 2.731091 77.000000 19 367.992094
1.913529 1.194325 2.776294 10.000000 17 367.992097
0.135188 0.071862 2.480259 96.000000 30 367.992104
0.237275 0.133115 2.490490 58.000000 29 367.992107
0.558875 0.339086 2.552586 86.000000 26 367.992109
0.793708 0.493298 2.595515 84.000000 24 367.992112
1.057313 0.657629 2.637241 82.000000 22 367.992115
1.367701 0.851003 2.705022 77.000000 20 367.992117
1.734734 1.079369 2.779202 14.000000 18 367.992120
2.108021 1.311627 2.769790 8.000000 16 367.992122
1.959316 1.226228 2.351198 19.000000 15 367.992080
1.692128 1.059008 1.691399 20.000000 13 367.992082
1.703399 1.065648 1.401949 21.000000 11 367.992085
1.886631 1.180275 1.250965 18.000000 9 367.992088
2.237221 1.399060 1.154407 9.000000 7 367.992090
2.245769 1.403860 0.867918 9.000000 5 367.992093
2.261790 1.413875 0.597885 9.000000 3 367.992095
2.271967 1.419686 0.332992 9.000000 1 367.992098
1.691871 1.055156 1.856440 22.000000 14 367.992106
1.696470 1.058021 1.539362 25.000000 12 367.992108
1.706397 1.063799 1.266783 23.000000 10 367.992111
2.234757 1.393182 1.304846 9.000000 8 367.992113
2.248921 1.401468 1.010888 9.000000 6 367.992116
2.256847 1.405860 0.732011 10.000000 4 367.992118
2.274152 1.416089 0.465391 9.000000 2 367.992121
2.285899 1.422850 0.202291 9.000000 0 367.992123
0.032301 0.013629 2.459180 95.000000 31 367.992134
0.339721 0.199368 2.504628 95.000000 28 367.992137
0.450356 0.263529 2.532093 80.000000 27 367.992139
0.676405 0.413652 2.580338 85.000000 25 367.992142
0.922805 0.571296 2.616453 85.000000 23 367.992144
1.208115 0.748206 2.670414 67.000000 21 367.992147
1.541257 0.954518 2.735224 77.000000 19 367.992149
1.925863 1.192702 2.787805 10.000000 17 367.992152
0.135438 0.071390 2.480259 95.000000 30 367.992160
0.237738 0.132286 2.490490 56.000000 29 367.992162
0.560055 0.337133 2.552586 84.000000 26 367.992165
0.796893 0.491430 2.600207 82.000000 24 367.992167
1.061456 0.655078 2.641742 82.000000 22 367.992170
1.370664 0.846224 2.705022 75.000000 20 367.992173
1.738491 1.073307 2.779202 14.000000 18 367.992175
2.103933 1.298917 2.758764 8.000000 16 367.992178
1.966614 1.221263 2.354702 19.000000 15 367.992135
1.702428 1.057203 1.697674 20.000000 13 367.992138
1.710661 1.061901 1.404691 21.000000 11 367.992141
1.890739 1.173682 1.250965 17.000000 9 367.992143
2.234213 1.386354 1.150661 10.000000 7 367.992146
2.238425 1.388426 0.863691 8.000000 5 367.992148
2.258363 1.400793 0.596020 10.000000 3 367.992151
2.268444 1.406498 0.332100 9.000000 1 367.992153
1.701895 1.053174 1.863089 20.000000 14 367.992161
1.707027 1.056347 1.545248 25.000000 12 367.992164
1.713767 1.060104 1.269316 23.000000 10 367.992166
2.231887 1.380598 1.300650 10.000000 8 367.992169
2.241750 1.386158 1.005960 10.000000 6 367.992171
2.249337 1.390307 0.728494 10.000000 4 367.992174
2.266443 1.400333 0.463321 9.000000 2 367.992176
2.282351 1.409611 0.201888 9.000000 0 367.992179
0.032348 0.013516 2.459180 95.000000 31 367.992190
0.340415 0.198181 2.504628 95.000000 28 367.992192
0.451273 0.261955 2.532093 80.000000 27 367.992195
0.677845 0.411288 2.580338 83.000000 25 367.992197
0.924794 0.568071 2.616453 83.000000 23 367.992200
1.210719 0.743984 2.670414 69.000000 21 367.992202
1.544579 0.949132 2.735224 75.000000 19 367.992205
1.938209 1.191007 2.799316 11.000000 17 367.992208
0.135687 0.070917 2.480259 95.000000 30 367.992215
0.237730 0.131199 2.485519 58.000000 29 367.992218
0.561229 0.335176 2.552586 84.000000 26 367.992220
0.798604 0.488646 2.600207 82.000000 24 367.992223
1.063736 0.651369 2.641742 82.000000 22 367.992226
1.373609 0.841434 2.705022 75.000000 20 367.992228
1.742227 1.067232 2.779202 14.000000 18 367.992231
2.105563 1.289794 2.755089 8.000000 16 367.992233
1.973901 1.216261 2.358207 19.000000 15 367.992191
1.709423 1.053296 1.700812 22.000000 13 367.992193
1.717918 1.058117 1.407432 21.000000 11 367.992196
1.898597 1.169398 1.253283 17.000000 9 367.992199
2.231143 1.373685 1.146914 10.000000 7 367.992201
2.235087 1.375575 0.860872 9.000000 5 367.992204
2.250688 1.385177 0.593222 10.000000 3 367.992206
2.260615 1.390743 0.330761 9.000000 1 367.992209
1.711926 1.051134 1.869739 19.000000 14 367.992217
1.714149 1.052496 1.548191 25.000000 12 367.992219
1.721131 1.056370 1.271848 22.000000 10 367.992222
2.228956 1.368050 1.296454 10.000000 8 367.992224
2.238524 1.373385 1.002675 10.000000 6 367.992227
2.245889 1.377364 0.726149 10.000000 4 367.992229
2.262873 1.387237 0.461942 9.000000 2 367.992232
2.278738 1.396415 0.201484 9.000000 0 367.992235
0.032395 0.013403 2.459180 94.000000 31 367.992245
0.341105 0.196991 2.504628 95.000000 28 367.992248
0.452184 0.260378 2.532093 81.000000 27 367.992250
0.679277 0.408919 2.580338 80.000000 25 367.992253
0.926771 0.564840 2.616453 85.000000 23 367.992255
1.213309 0.739753 2.670414 67.000000 21 367.992258
1.547883 0.943735 2.735224 75.000000 19 367.992261
1.947829 1.187572 2.806990 11.000000 17 367.992263
0.135675 0.070311 2.475267 96.000000 30 367.992271
0.238187 0.130368 2.485519 58.000000 29 367.992273
0.562395 0.333215 2.552586 82.000000 26 367.992276
0.800305 0.485855 2.600207 84.000000 24 367.992279
1.066003 0.647652 2.641742 82.000000 22 367.992281
1.376538 0.836634 2.705022 75.000000 20 367.992284
1.748517 1.062709 2.783192 15.000000 18 367.992286
2.104258 1.278915 2.747739 8.000000 16 367.992289
1.981177 1.211224 2.361711 19.000000 15 367.992246
1.719732 1.051383 1.707088 22.000000 13 367.992249
1.725169 1.054294 1.410174 21.000000 11 367.992252
1.902667 1.162764 1.253283 17.000000 9 367.992254
2.228012 1.361055 1.143168 10.000000 7 367.992257
2.231686 1.362765 0.858054 9.000000 5 367.992259
2.247125 1.372192 0.591357 10.000000 3 367.992262
2.256954 1.377654 0.329869 10.000000 1 367.992264
1.725152 1.050981 1.879714 19.000000 14 367.992272
1.724716 1.050712 1.554078 25.000000 12 367.992275
1.728490 1.052598 1.274381 21.000000 10 367.992277
2.225965 1.355541 1.292258 10.000000 8 367.992280
2.231203 1.358196 0.997747 10.000000 6 367.992282
2.242379 1.364463 0.723804 10.000000 4 367.992285
2.255008 1.371609 0.459872 9.000000 2 367.992287
2.275060 1.383261 0.201081 9.000000 0 367.992290
0.032442 0.013290 2.459180 92.000000 31 367.992301
0.341790 0.195799 2.504628 95.000000 28 367.992303
0.453091 0.258798 2.532093 81.000000 27 367.992306
0.680700 0.406546 2.580338 80.000000 25 367.992308
0.928737 0.561601 2.616453 85.000000 23 367.992311
1.215884 0.735514 2.670414 67.000000 21 367.992313
1.551168 0.938326 2.735224 75.000000 19 367.992316
1.957448 1.184085 2.814664 10.000000 17 367.992319
0.135920 0.069837 2.475267 96.000000 30 367.992326
0.238640 0.129536 2.485519 59.000000 29 367.992329
0.563555 0.331250 2.552586 82.000000 26 367.992331
0.801996 0.483059 2.600207 84.000000 24 367.992334
1.070123 0.645051 2.646243 82.000000 22 367.992337
1.379450 0.831824 2.705022 75.000000 20 367.992339
1.752216 1.056599 2.783192 15.000000 18 367.992342
2.102904 1.268061 2.740388 8.000000 16 367.992344
1.991491 1.208000 2.368721 18.000000 15 367.992302
1.730048 1.049412 1.713363 22.000000 13 367.992305
1.735989 1.052601 1.415657 21.000000 11 367.992307
1.910503 1.158412 1.255601 18.000000 9 367.992310
2.220856 1.346061 1.137549 10.000000 7 367.992312
2.228224 1.349995 0.855236 9.000000 5 367.992315
2.243498 1.359249 0.589491 10.000000 3 367.992317
2.253230 1.364608 0.328976 9.000000 1 367.992320
1.735202 1.048816 1.886363 18.000000 14 367.992328
1.735292 1.048867 1.559964 25.000000 12 367.992330
1.735844 1.048788 1.276913 21.000000 10 367.992333
2.219030 1.340721 1.285964 10.000000 8 367.992335
2.227846 1.345517 0.994461 10.000000 6 367.992338
2.234645 1.349091 0.720288 11.000000 4 367.992340
2.251303 1.358612 0.458493 9.000000 2 367.992343
2.271319 1.370150 0.200678 9.000000 0 367.992346
0.032488 0.013176 2.459180 94.000000 31 367.992356
0.342472 0.194605 2.504628 95.000000 28 367.992359
0.453991 0.257215 2.532093 81.000000 27 367.992361
0.682115 0.404167 2.580338 83.000000 25 367.992364
0.930692 0.558356 2.616453 73.000000 23 367.992366
1.218444 0.731265 2.670414 69.000000 21 367.992369
1.556846 0.934354 2.739357 77.000000 19 367.992372
1.967067 1.180544 2.822338 10.000000 17 367.992374
0.136163 0.069363 2.475267 95.000000 30 367.992382
0.239091 0.128702 2.485519 61.000000 29 367.992384
0.564708 0.329281 2.552586 84.000000 26 367.992387
0.805159 0.481141 2.604900 84.000000 24 367.992390
1.072368 0.641312 2.646243 82.000000 22 367.992392
1.382345 0.827004 2.705022 75.000000 20 367.992395
1.758480 1.052024 2.787181 15.000000 18 367.992397
2.104408 1.258972 2.736713 8.000000 16 367.992400
1.998751 1.202880 2.372225 18.000000 15 367.992357
1.737036 1.045374 1.716501 22.000000 13 367.992360
1.743236 1.048691 1.418398 21.000000 11 367.992363
1.914535 1.151736 1.255601 18.000000 9 367.992365
2.217595 1.333522 1.133803 10.000000 7 367.992368
2.224699 1.337265 0.852417 9.000000 5 367.992370
2.239809 1.346348 0.587626 10.000000 3 367.992373
2.249442 1.351604 0.328084 9.000000 1 367.992375
1.748460 1.048514 1.896338 18.000000 14 367.992383
1.742409 1.044882 1.562907 25.000000 12 367.992386
1.746890 1.047155 1.281978 21.000000 10 367.992388
2.215911 1.328300 1.281768 10.000000 8 367.992391
2.224427 1.332877 0.991176 10.000000 6 367.992393
2.231001 1.336287 0.717943 11.000000 4 367.992396
2.247534 1.345657 0.457113 9.000000 2 367.992399
2.267515 1.357083 0.200275 9.000000 0 367.992401
0.032534 0.013063 2.459180 94.000000 31 367.992412
0.343149 0.193409 2.504628 95.000000 28 367.992414
0.454886 0.255629 2.532093 83.000000 27 367.992417
0.684809 0.402540 2.585109 81.000000 25 367.992419
0.932635 0.555104 2.616453 73.000000 23 367.992422
1.220989 0.727007 2.670414 69.000000 21 367.992425
1.560098 0.928913 2.739357 77.000000 19 367.992427
1.971176 1.173671 2.822338 11.000000 17 367.992430
0.136404 0.068887 2.475267 95.000000 30 367.992437
0.239539 0.127867 2.485519 59.000000 29 367.992440
0.566943 0.327937 2.557425 86.000000 26 367.992443
0.806833 0.478328 2.604900 84.000000 24 367.992445
1.074600 0.637564 2.646243 82.000000 22 367.992448
1.387466 0.823505 2.709287 75.000000 20 367.992450
1.762141 1.045879 2.787181 15.000000 18 367.992453
2.102959 1.248158 2.729363 8.000000 16 367.992455
2.006000 1.197724 2.375730 17.000000 15 367.992413
1.747359 1.043295 1.722777 21.000000 13 367.992416
1.754067 1.046885 1.423881 21.000000 11 367.992418
1.918543 1.145046 1.255601 18.000000 9 367.992421
2.210293 1.318648 1.128184 10.000000 7 367.992423
2.221113 1.324577 0.849599 9.000000 5 367.992426
2.236057 1.333489 0.585761 10.000000 3 367.992428
2.245591 1.338644 0.327192 10.000000 1 367.992431
1.758528 1.046223 1.902988 17.000000 14 367.992439
1.752993 1.042927 1.568793 25.000000 12 367.992441
1.754240 1.043255 1.284510 21.000000 10 367.992444
2.212732 1.315917 1.277572 10.000000 8 367.992446
2.220947 1.320278 0.987891 10.000000 6 367.992449
2.227294 1.323525 0.715598 11.000000 4 367.992451
2.247959 1.335274 0.456423 9.000000 2 367.992454
2.263646 1.344058 0.199872 9.000000 0 367.992457
0.032579 0.012949 2.459180 92.000000 31 367.992467
0.343822 0.192209 2.504628 95.000000 28 367.992470
0.455776 0.254039 2.532093 83.000000 27 367.992472
0.686210 0.400147 2.585109 81.000000 25 367.992475
0.934567 0.551845 2.616453 85.000000 23 367.992477
1.223519 0.722741 2.670414 66.000000 21 367.992480
1.563331 0.923462 2.739357 77.000000 19 367.992482
1.978022 1.168413 2.826175 11.000000 17 367.992485
0.136644 0.068410 2.475267 96.000000 30 367.992493
0.240456 0.127278 2.490490 63.000000 29 367.992495
0.568084 0.325956 2.557425 86.000000 26 367.992498
0.808498 0.475509 2.604900 84.000000 24 367.992500
1.076929 0.633622 2.646243 82.000000 22 367.992503
1.390475 0.818414 2.709287 75.000000 20 367.992505
1.765963 1.039413 2.787181 15.000000 18 367.992508
2.101676 1.237003 2.722013 8.000000 16 367.992511
2.013237 1.192532 2.379234 17.000000 15 367.992468
1.757689 1.041157 1.729052 21.000000 13 367.992471
1.761309 1.042886 1.426623 21.000000 11 367.992473
1.922528 1.138342 1.255601 18.000000 9 367.992476
2.206903 1.306202 1.124438 10.000000 7 367.992479
2.213336 1.309488 0.845371 9.000000 5 367.992481
2.232473 1.320284 0.583896 10.000000 3 367.992484
2.241908 1.325336 0.326299 9.000000 1 367.992486
1.768784 1.043566 1.909637 17.000000 14 367.992494
1.760285 1.038549 1.571737 25.000000 12 367.992497
1.765479 1.041198 1.289575 22.000000 10 367.992499
2.209722 1.303188 1.273376 9.000000 8 367.992502
2.217635 1.307333 0.984605 10.000000 6 367.992504
2.223755 1.310418 0.713254 11.000000 4 367.992507
2.244305 1.321999 0.455044 9.000000 2 367.992509
2.259715 1.331077 0.199469 9.000000 0 367.992512
0.032626 0.012830 2.459180 94.000000 31 367.992523
0.344524 0.190948 2.504628 95.000000 28 367.992525
0.457595 0.252859 2.536988 81.000000 27 367.992528
0.687672 0.397630 2.585109 83.000000 25 367.992530
0.938269 0.549403 2.621056 85.000000 23 367.992533
1.228227 0.719462 2.674803 66.000000 21 367.992535
1.569134 0.919148 2.743490 77.000000 19 367.992538
1.982291 1.161155 2.826175 11.000000 17 367.992540
0.136894 0.067909 2.475267 96.000000 30 367.992548
0.240921 0.126396 2.490490 64.000000 29 367.992551
0.569275 0.323872 2.557425 86.000000 26 367.992553
0.810235 0.472542 2.604900 84.000000 24 367.992556
1.079135 0.629858 2.646243 82.000000 22 367.992558
1.393323 0.813555 2.709287 75.000000 20 367.992561
1.772183 1.034762 2.791171 15.000000 18 367.992564
2.100126 1.226240 2.714662 8.000000 16 367.992566
2.020669 1.186951 2.382739 15.000000 15 367.992524
1.764850 1.036680 1.732190 21.000000 13 367.992526
1.772331 1.040658 1.432106 20.000000 11 367.992529
1.930508 1.133531 1.257919 17.000000 9 367.992531
2.203680 1.293411 1.120692 10.000000 7 367.992534
2.209846 1.296512 0.842553 9.000000 5 367.992537
2.228594 1.307511 0.582030 10.000000 3 367.992539
2.237930 1.312464 0.325407 9.000000 1 367.992542
1.782084 1.043045 1.919612 16.000000 14 367.992549
1.767388 1.034440 1.574680 25.000000 12 367.992552
1.772824 1.037206 1.292108 22.000000 10 367.992555
2.202505 1.288591 1.267081 10.000000 8 367.992557
2.214032 1.294816 0.981320 10.000000 6 367.992560
2.219924 1.297741 0.710909 11.000000 4 367.992562
2.244630 1.311659 0.454354 10.000000 2 367.992565
2.251637 1.315226 0.198865 9.000000 0 367.992567
0.032671 0.012716 2.459180 92.000000 31 367.992578
0.345189 0.189744 2.504628 96.000000 28 367.992581
0.458475 0.251260 2.536988 81.000000 27 367.992583
0.689056 0.395227 2.585109 81.000000 25 367.992586
0.940181 0.546124 2.621056 85.000000 23 367.992588
1.230731 0.715171 2.674803 69.000000 21 367.992591
1.572333 0.913665 2.743490 75.000000 19 367.992593
1.986332 1.154229 2.826175 12.000000 17 367.992596
0.137391 0.067557 2.480259 96.000000 30 367.992604
0.241361 0.125554 2.490490 68.000000 29 367.992606
0.570402 0.321883 2.557425 86.000000 26 367.992609
0.811880 0.469711 2.604900 82.000000 24 367.992611
1.081327 0.626088 2.646243 82.000000 22 367.992614
1.398412 0.809994 2.713554 74.000000 20 367.992617
1.775784 1.028570 2.791171 15.000000 18 367.992619
2.098526 1.215504 2.707312 8.000000 16 367.992622
2.027882 1.181686 2.386243 15.000000 15 367.992579
1.775185 1.034433 1.738465 21.000000 13 367.992582
1.779566 1.036570 1.434847 20.000000 11 367.992584
1.934453 1.126786 1.257919 17.000000 9 367.992587
2.200169 1.281046 1.116946 10.000000 7 367.992590
2.206065 1.283964 0.839734 9.000000 5 367.992592
2.224654 1.294782 0.580165 10.000000 3 367.992595
2.233888 1.299635 0.324514 10.000000 1 367.992597
1.792173 1.040568 1.926261 16.000000 14 367.992605
1.777979 1.032323 1.580566 24.000000 12 367.992608
1.783891 1.035340 1.297173 22.000000 10 367.992610
2.199139 1.276338 1.262885 10.000000 8 367.992613
2.210369 1.282340 0.978034 10.000000 6 367.992615
2.216031 1.285108 0.708564 11.000000 4 367.992618
2.240626 1.298848 0.452974 10.000000 2 367.992620
2.247569 1.302349 0.198461 9.000000 0 367.992623
0.032715 0.012602 2.459180 92.000000 31 367.992634
0.345849 0.188538 2.504628 95.000000 28 367.992636
0.459350 0.249658 2.536988 83.000000 27 367.992639
0.690431 0.392819 2.585109 83.000000 25 367.992641
0.942082 0.542839 2.621056 85.000000 23 367.992644
1.233220 0.710870 2.674803 69.000000 21 367.992646
1.575512 0.908171 2.743490 75.000000 19 367.992649
1.990349 1.147288 2.826175 11.000000 17 367.992651
0.137626 0.067077 2.480259 96.000000 30 367.992659
0.241798 0.124711 2.490490 69.000000 29 367.992662
0.571522 0.319890 2.557425 86.000000 26 367.992664
0.813515 0.466874 2.604900 82.000000 24 367.992667
1.083505 0.622309 2.646243 82.000000 22 367.992669
1.401230 0.805107 2.713554 74.000000 20 367.992672
1.781977 1.023867 2.795160 15.000000 18 367.992675
2.096878 1.204793 2.699962 9.000000 16 367.992677
2.035081 1.176385 2.389748 13.000000 15 367.992635
1.785525 1.032126 1.744741 20.000000 13 367.992637
1.790415 1.034536 1.440330 19.000000 11 367.992640
1.942210 1.122243 1.260237 17.000000 9 367.992643
2.200613 1.271039 1.115073 10.000000 7 367.992645
2.202224 1.271458 0.836916 10.000000 5 367.992648
2.220651 1.282097 0.578300 10.000000 3 367.992650
2.234098 1.289340 0.324068 10.000000 1 367.992653
1.828155 1.052943 1.959510 14.000000 14 367.992661
1.785074 1.028128 1.583509 24.000000 12 367.992663
1.791231 1.031258 1.299705 22.000000 10 367.992666
2.191781 1.261861 1.256591 10.000000 8 367.992668
2.206645 1.269905 0.974749 11.000000 6 367.992671
2.212076 1.272517 0.706220 11.000000 4 367.992673
2.236560 1.286082 0.451595 10.000000 2 367.992676
2.243438 1.289516 0.198058 9.000000 0 367.992678
0.032759 0.012487 2.459180 91.000000 31 367.992689
0.346505 0.187330 2.504628 95.000000 28 367.992692
0.460218 0.248053 2.536988 83.000000 27 367.992694
0.691798 0.390407 2.585109 83.000000 25 367.992697
0.943971 0.539548 2.621056 83.000000 23 367.992699
1.235694 0.706561 2.674803 69.000000 21 367.992702
1.578673 0.902666 2.743490 77.000000 19 367.992704
1.994341 1.140334 2.826175 11.000000 17 367.992707
0.137859 0.066596 2.480259 96.000000 30 367.992715
0.242231 0.123866 2.490490 71.000000 29 367.992717
0.572635 0.317893 2.557425 86.000000 26 367.992720
0.815139 0.464032 2.604900 82.000000 24 367.992722
1.085671 0.618523 2.646243 82.000000 22 367.992725
1.404032 0.800211 2.713554 74.000000 20 367.992728
1.785540 1.017640 2.795160 16.000000 18 367.992730
2.095180 1.194109 2.692611 9.000000 16 367.992733
2.042269 1.171048 2.393252 13.000000 15 367.992690
1.792495 1.027824 1.747879 20.000000 13 367.992693
1.801270 1.032438 1.445813 19.000000 11 367.992695
1.946116 1.115456 1.260237 17.000000 9 367.992698
2.196991 1.258741 1.111327 10.000000 7 367.992701
2.198323 1.258995 0.834098 10.000000 5 367.992703
2.216588 1.269455 0.576435 10.000000 3 367.992706
2.229941 1.276585 0.323176 10.000000 1 367.992708
1.890184 1.079900 2.019357 13.000000 14 367.992716
1.795671 1.025901 1.589396 25.000000 12 367.992719
1.802307 1.029275 1.304770 21.000000 10 367.992721
2.188290 1.249701 1.252395 10.000000 8 367.992724
2.202862 1.257513 0.971464 11.000000 6 367.992726
2.208061 1.259970 0.703875 11.000000 4 367.992729
2.228131 1.270906 0.449525 10.000000 2 367.992731
2.239246 1.276728 0.197655 9.000000 0 367.992734
0.032802 0.012373 2.459180 91.000000 31 367.992745
0.347157 0.186119 2.504628 95.000000 28 367.992747
0.461081 0.246445 2.536988 81.000000 27 367.992750
0.693157 0.387990 2.585109 83.000000 25 367.992752
0.947548 0.537213 2.625658 83.000000 23 367.992755
1.238153 0.702244 2.674803 69.000000 21 367.992757
1.584262 0.898538 2.747623 77.000000 19 367.992760
1.998310 1.133365 2.826175 11.000000 17 367.992763
0.137828 0.065991 2.475267 96.000000 30 367.992770
0.242662 0.123020 2.490490 72.000000 29 367.992773
0.573741 0.315892 2.557425 86.000000 26 367.992775
0.816754 0.461183 2.604900 84.000000 24 367.992778
1.087824 0.614730 2.646243 81.000000 22 367.992781
1.406817 0.795305 2.713554 74.000000 20 367.992783
1.789081 1.011401 2.795160 16.000000 18 367.992786
2.093432 1.183452 2.685261 9.000000 16 367.992788
2.049444 1.165675 2.396757 13.000000 15 367.992746
1.802839 1.025410 1.754154 20.000000 13 367.992748
1.812133 1.030278 1.451296 18.000000 11 367.992751
1.953849 1.110846 1.262555 17.000000 9 367.992754
2.193310 1.246483 1.107581 10.000000 7 367.992756
2.194363 1.246574 0.831279 10.000000 5 367.992759
2.212463 1.256857 0.574569 11.000000 3 367.992761
2.225722 1.263875 0.322283 8.000000 1 367.992764
1.988161 1.126689 2.115778 12.000000 14 367.992772
1.802758 1.021619 1.592339 24.000000 12 367.992774
1.809640 1.025102 1.307302 21.000000 10 367.992777
2.184742 1.237581 1.248199 10.000000 8 367.992779
2.199019 1.245162 0.968178 11.000000 6 367.992782
2.208216 1.249860 0.702703 11.000000 4 367.992784
2.223933 1.258244 0.448146 10.000000 2 367.992787
2.234991 1.263985 0.197252 9.000000 0 367.992789
0.032845 0.012258 2.459180 84.000000 31 367.992800
0.347804 0.184906 2.504628 95.000000 28 367.992803
0.461939 0.244834 2.536988 81.000000 27 367.992805
0.694507 0.385568 2.585109 83.000000 25 367.992808
0.949418 0.533902 2.625658 85.000000 23 367.992810
1.240597 0.697917 2.674803 67.000000 21 367.992813
1.587389 0.893003 2.747623 75.000000 19 367.992815
2.002254 1.126383 2.826175 10.000000 17 367.992818
0.138058 0.065509 2.475267 96.000000 30 367.992826
0.243090 0.122172 2.490490 72.000000 29 367.992828
0.574841 0.313887 2.557425 84.000000 26 367.992831
0.818359 0.458330 2.604900 84.000000 24 367.992833
1.091862 0.611994 2.650744 81.000000 22 367.992836
1.409585 0.790390 2.713554 74.000000 20 367.992839
1.792601 1.005150 2.795160 16.000000 18 367.992841
2.091637 1.172821 2.677911 11.000000 16 367.992844
2.056607 1.160267 2.400261 13.000000 15 367.992801
1.813188 1.022936 1.760430 19.000000 13 367.992804
1.823003 1.028054 1.456779 18.000000 11 367.992807
1.961574 1.106195 1.264873 17.000000 9 367.992809
2.189571 1.234266 1.103835 10.000000 7 367.992812
2.190341 1.234197 0.828461 10.000000 5 367.992814
2.208278 1.244304 0.572704 11.000000 3 367.992817
2.221442 1.251210 0.321391 8.000000 1 367.992819
2.066954 1.161828 2.192249 11.000000 14 367.992827
1.813360 1.019281 1.598225 24.000000 12 367.992830
1.820725 1.023003 1.312367 21.000000 10 367.992832
2.181135 1.225501 1.244003 10.000000 8 367.992835
2.195117 1.232853 0.964893 11.000000 6 367.992837
2.204089 1.237386 0.700358 11.000000 4 367.992840
2.219675 1.245626 0.446766 10.000000 2 367.992842
2.230675 1.251288 0.196849 9.000000 0 367.992845
0.032888 0.012144 2.459180 84.000000 31 367.992856
0.349135 0.184053 2.509567 95.000000 28 367.992858
0.462790 0.243220 2.536988 81.000000 27 367.992861
0.695849 0.383141 2.585109 83.000000 25 367.992863
0.951275 0.530585 2.625658 85.000000 23 367.992866
1.243025 0.693582 2.674803 67.000000 21 367.992868
1.590496 0.887456 2.747623 75.000000 19 367.992871
2.008973 1.120949 2.830012 10.000000 17 367.992874
0.138286 0.065027 2.475267 96.000000 30 367.992881
0.243515 0.121323 2.490490 74.000000 29 367.992884
0.575933 0.311879 2.557425 86.000000 26 367.992886
0.819954 0.455470 2.604900 86.000000 24 367.992889
1.093992 0.608179 2.650744 81.000000 22 367.992892
1.412335 0.785465 2.713554 74.000000 20 367.992894
1.798733 1.000351 2.799150 15.000000 18 367.992897
2.089792 1.162217 2.670560 13.000000 16 367.992899
2.066869 1.156563 2.407270 13.000000 15 367.992857
1.823542 1.020403 1.766705 19.000000 13 367.992859
1.833879 1.025766 1.462262 18.000000 11 367.992862
1.969290 1.101504 1.267192 17.000000 9 367.992865
2.185773 1.222091 1.100089 10.000000 7 367.992867
2.186261 1.221863 0.825643 10.000000 5 367.992870
2.204032 1.231795 0.570839 11.000000 3 367.992872
2.217101 1.238591 0.320498 10.000000 1 367.992875
2.142755 1.194611 2.265396 11.000000 14 367.992883
1.820437 1.014914 1.601168 25.000000 12 367.992885
1.831816 1.020838 1.317432 21.000000 10 367.992888
2.181435 1.215670 1.241905 10.000000 8 367.992890
2.191156 1.220587 0.961608 11.000000 6 367.992893
2.199901 1.224955 0.698013 11.000000 4 367.992895
2.215355 1.233053 0.445386 10.000000 2 367.992898
2.221932 1.236207 0.196245 9.000000 0 367.992901
0.032930 0.012029 2.459180 92.000000 31 367.992911
0.349776 0.182833 2.509567 90.000000 28 367.992914
0.463637 0.241603 2.536988 81.000000 27 367.992916
0.697182 0.380710 2.585109 85.000000 25 367.992919
0.953122 0.527261 2.625658 85.000000 23 367.992921
1.245439 0.689239 2.674803 69.000000 21 367.992924
1.593584 0.881899 2.747623 75.000000 19 367.992927
2.012874 1.113929 2.830012 10.000000 17 367.992929
0.138512 0.064544 2.475267 95.000000 30 367.992937
0.243937 0.120472 2.490490 74.000000 29 367.992939
0.577018 0.309867 2.557425 87.000000 26 367.992942
0.823050 0.453438 2.609593 84.000000 24 367.992945
1.096108 0.604356 2.650744 81.000000 22 367.992947
1.415068 0.780530 2.713554 74.000000 20 367.992950
1.802214 0.994066 2.799150 15.000000 18 367.992952
2.087899 1.151640 2.663210 12.000000 16 367.992955
2.077130 1.152803 2.414280 13.000000 15 367.992912
1.833901 1.017809 1.772981 19.000000 13 367.992915
1.841105 1.021387 1.465003 18.000000 11 367.992918
1.973123 1.094623 1.267192 17.000000 9 367.992920
2.177863 1.207709 1.094470 11.000000 7 367.992923
2.186317 1.211898 0.824233 10.000000 5 367.992925
2.199725 1.219331 0.568974 11.000000 3 367.992928
2.212699 1.226017 0.319606 10.000000 1 367.992930
2.251489 1.244949 2.371791 10.000000 14 367.992938
1.831044 1.012465 1.607054 24.000000 12 367.992941
1.839142 1.016523 1.319964 21.000000 10 367.992943
2.177721 1.203658 1.237709 10.000000 8 367.992946
2.187136 1.208364 0.958322 11.000000 6 367.992948
2.195654 1.212569 0.695669 12.000000 4 367.992951
2.210974 1.220526 0.444007 10.000000 2 367.992953
2.217486 1.223616 0.195842 9.000000 0 367.992956
0.032972 0.011914 2.459180 92.000000 31 367.992967
0.350412 0.181611 2.509567 90.000000 28 367.992969
0.464477 0.239983 2.536988 83.000000 27 367.992972
0.699820 0.378985 2.589881 83.000000 25 367.992974
0.954956 0.523930 2.625658 86.000000 23 367.992977
1.249937 0.686041 2.679191 67.000000 21 367.992979
1.596653 0.876331 2.747623 75.000000 19 367.992982
2.019560 1.108439 2.833849 10.000000 17 367.992985
0.138736 0.064060 2.475267 95.000000 30 367.992992
0.244356 0.119620 2.490490 74.000000 29 367.992995
0.578096 0.307851 2.557425 86.000000 26 367.992997
0.824628 0.450562 2.609593 84.000000 24 367.993000
1.100122 0.601571 2.655245 82.000000 22 367.993003
1.417784 0.775586 2.713554 74.000000 20 367.993005
1.805672 0.987769 2.799150 15.000000 18 367.993008
2.088933 1.142718 2.659535 10.000000 16 367.993010
2.084265 1.147265 2.417784 14.000000 15 367.992968
1.844263 1.015156 1.779256 17.000000 13 367.992971
1.851986 1.018986 1.470486 18.000000 11 367.992973
1.980813 1.089865 1.269509 17.000000 9 367.992976
2.178003 1.197865 1.092597 11.000000 7 367.992978
2.182126 1.199637 0.821415 10.000000 5 367.992981
2.195359 1.206912 0.567108 11.000000 3 367.992983
2.208236 1.213489 0.318714 10.000000 1 367.992986
2.354050 1.290950 2.471536 10.000000 14 367.992994
1.841655 1.009954 1.612941 24.000000 12 367.992996
1.850240 1.014242 1.325029 20.000000 10 367.992999
2.173949 1.191685 1.233513 10.000000 8 367.993001
2.187200 1.198452 0.956680 11.000000 6 367.993004
2.191347 1.200227 0.693324 12.000000 4 367.993006
2.206534 1.208045 0.442627 10.000000 2 367.993009
2.212978 1.211071 0.195439 9.000000 0 367.993012
0.032971 0.011788 2.454180 94.000000 31 367.993022
0.351044 0.180386 2.509567 95.000000 28 367.993025
0.465312 0.238361 2.536988 81.000000 27 367.993027
0.701139 0.376540 2.589881 83.000000 25 367.993030
0.956780 0.520594 2.625658 85.000000 23 367.993032
1.252324 0.681673 2.679191 69.000000 21 367.993035
1.599702 0.870752 2.747623 75.000000 19 367.993038
2.026233 1.102915 2.837686 10.000000 17 367.993040
0.138959 0.063576 2.475267 96.000000 30 367.993048
0.244772 0.118766 2.490490 76.000000 29 367.993050
0.579167 0.305831 2.557425 84.000000 26 367.993053
0.826196 0.447681 2.609593 86.000000 24 367.993056
1.102215 0.597727 2.655245 82.000000 22 367.993058
1.422775 0.771876 2.717820 74.000000 20 367.993061
1.809109 0.981460 2.799150 15.000000 18 367.993063
2.086949 1.132187 2.652184 9.000000 16 367.993066
2.091388 1.141691 2.421289 12.000000 15 367.993023
1.854629 1.012443 1.785532 17.000000 13 367.993026
1.859202 1.014518 1.473227 18.000000 11 367.993029
1.984605 1.082944 1.269509 17.000000 9 367.993031
2.174031 1.185816 1.088850 11.000000 7 367.993034
2.177876 1.187420 0.818597 11.000000 5 367.993036
2.190933 1.194538 0.565243 11.000000 3 367.993039
2.203713 1.201007 0.317821 10.000000 1 367.993041
2.286370 1.243474 2.398390 8.000000 14 367.993049
1.852271 1.007382 1.618827 24.000000 12 367.993052
1.857557 1.009837 1.327562 20.000000 10 367.993054
2.170121 1.179754 1.229316 11.000000 8 367.993057
2.183071 1.186301 0.953394 11.000000 6 367.993059
2.186981 1.187931 0.690980 12.000000 4 367.993062
2.202033 1.195609 0.441247 10.000000 2 367.993065
2.208411 1.198573 0.195035 9.000000 0 367.993067
0.033054 0.011683 2.459180 94.000000 31 367.993078
0.350978 0.178808 2.504628 95.000000 28 367.993080
0.466141 0.236735 2.536988 81.000000 27 367.993083
0.702449 0.374090 2.589881 85.000000 25 367.993085
0.958591 0.517251 2.625658 85.000000 23 367.993088
1.254696 0.677298 2.679191 69.000000 21 367.993091
1.605208 0.866500 2.751756 75.000000 19 367.993093
2.030070 1.095836 2.837686 10.000000 17 367.993096
0.139180 0.063090 2.475267 96.000000 30 367.993103
0.245185 0.117911 2.490490 76.000000 29 367.993106
0.580231 0.303807 2.557425 84.000000 26 367.993109
0.827753 0.444794 2.609593 84.000000 24 367.993111
1.104295 0.593876 2.655245 81.000000 22 367.993114
1.425461 0.766905 2.717820 74.000000 20 367.993116
1.812524 0.975140 2.799150 14.000000 18 367.993119
2.087903 1.123289 2.648509 8.000000 16 367.993121
2.095360 1.134384 2.421289 10.000000 15 367.993079
1.864999 1.009669 1.791808 19.000000 13 367.993082
1.870087 1.012002 1.478710 18.000000 11 367.993084
1.988373 1.076009 1.269509 17.000000 9 367.993087
2.170002 1.173808 1.085104 11.000000 7 367.993089
2.173568 1.175247 0.815778 11.000000 5 367.993092
2.190768 1.184547 0.564311 11.000000 3 367.993094
2.199130 1.188572 0.316929 10.000000 1 367.993097
2.215100 1.194713 2.321918 6.000000 14 367.993105
1.862891 1.004747 1.624713 24.000000 12 367.993107
1.868660 1.007438 1.332626 21.000000 10 367.993110
2.166236 1.167864 1.225120 11.000000 8 367.993112
2.183041 1.176433 0.951751 11.000000 6 367.993115
2.182556 1.175679 0.688635 12.000000 4 367.993117
2.197473 1.183220 0.439868 10.000000 2 367.993120
2.208181 1.188489 0.194834 9.000000 0 367.993123
0.033095 0.011568 2.459180 92.000000 31 367.993133
0.351600 0.177582 2.504628 95.000000 28 367.993136
0.466965 0.235106 2.536988 81.000000 27 367.993138
0.703750 0.371636 2.589881 83.000000 25 367.993141
0.960391 0.513902 2.625658 85.000000 23 367.993143
1.257053 0.672914 2.679191 67.000000 21 367.993146
1.608223 0.860891 2.751756 76.000000 19 367.993148
2.036710 1.090256 2.841522 10.000000 17 367.993151
0.139400 0.062604 2.475267 95.000000 30 367.993159
0.245595 0.117054 2.490490 76.000000 29 367.993161
0.581288 0.301780 2.557425 84.000000 26 367.993164
0.829301 0.441902 2.609593 82.000000 24 367.993166
1.106361 0.590018 2.655245 81.000000 22 367.993169
1.428129 0.761924 2.717820 73.000000 20 367.993171
1.815917 0.968807 2.799150 14.000000 18 367.993174
2.085829 1.112802 2.641159 6.000000 16 367.993177
2.096165 1.125376 2.417784 7.000000 15 367.993134
1.871942 1.004994 1.794945 18.000000 13 367.993137
