# .PCD v.7 - Point Cloud Data file format
VERSION .7
FIELDS x y z intensity ring timestamp
SIZE 4 4 4 4 2 8
TYPE F F F F U D
COUNT 1 1 1 1 1 1
WIDTH 907
HEIGHT 1
VIEWPOINT 0 0 0 1 0 0 0
POINTS 907
DATA ascii
-0.358431 -0.894796 0.716583 43.000000 11 369.730347
-0.409086 -1.021243 0.662187 40.000000 9 369.730350
-0.455607 -1.136804 0.583132 46.000000 7 369.730353
-0.437559 -1.091220 0.435295 32.000000 5 369.730355
-0.413176 -1.030411 0.302244 10.000000 3 369.730358
-0.287331 -0.716211 0.162094 36.000000 1 369.730360
-0.331562 -0.824391 0.872284 77.000000 14 369.730368
-0.344853 -0.857431 0.756481 40.000000 12 369.730371
-0.383712 -0.953565 0.689390 49.000000 10 369.730373
-0.444316 -1.104163 0.637666 54.000000 8 369.730376
-0.451718 -1.121993 0.509869 40.000000 6 369.730378
-0.432285 -1.073184 0.369765 18.000000 4 369.730381
-0.294277 -0.730203 0.201881 31.000000 2 369.730383
-0.285748 -0.708681 0.124500 38.000000 0 369.730386
-0.011186 -0.021077 1.164229 67.000000 31 369.730397
-0.069366 -0.160434 1.111757 63.000000 28 369.730399
-0.088169 -0.203110 1.088001 75.000000 27 369.730402
-0.118306 -0.287024 1.039071 26.000000 25 369.730404
-0.153260 -0.377489 1.019377 38.000000 23 369.730407
-0.190221 -0.468733 0.993945 47.000000 21 369.730409
-0.227760 -0.561220 0.962189 60.000000 19 369.730412
-0.267150 -0.658268 0.926887 69.000000 17 369.730414
-0.033177 -0.069110 1.162474 66.000000 30 369.730422
-0.053008 -0.115818 1.143238 47.000000 29 369.730425
-0.102660 -0.244344 1.057272 73.000000 26 369.730427
-0.137254 -0.336392 1.042209 34.000000 24 369.730430
-0.171614 -0.420996 1.003438 43.000000 22 369.730432
-0.210251 -0.516010 0.981584 60.000000 20 369.730435
-0.247801 -0.608154 0.944033 67.000000 18 369.730438
-0.284438 -0.698059 0.895456 71.000000 16 369.730440
-0.310373 -0.767450 0.893307 70.000000 15 369.730398
-0.358729 -0.887008 0.853612 75.000000 13 369.730400
-0.361552 -0.893539 0.716583 43.000000 11 369.730403
-0.412648 -1.019809 0.662187 40.000000 9 369.730406
-0.459573 -1.135207 0.583132 46.000000 7 369.730408
-0.441366 -1.089686 0.435295 33.000000 5 369.730411
-0.416770 -1.028962 0.302244 9.000000 3 369.730413
-0.289830 -0.715203 0.162094 36.000000 1 369.730416
-0.334437 -0.823228 0.872284 77.000000 14 369.730424
-0.347844 -0.856222 0.756481 42.000000 12 369.730426
-0.387038 -0.952220 0.689390 49.000000 10 369.730429
-0.448167 -1.102605 0.637666 52.000000 8 369.730431
-0.455632 -1.120409 0.509869 40.000000 6 369.730434
-0.437860 -1.076171 0.370937 18.000000 4 369.730436
-0.296825 -0.729171 0.201881 30.000000 2 369.730439
-0.286335 -0.703052 0.124298 37.000000 0 369.730441
-0.011259 -0.021038 1.164229 65.000000 31 369.730452
-0.069925 -0.160191 1.111757 65.000000 28 369.730455
-0.088878 -0.202801 1.088001 74.000000 27 369.730457
-0.119307 -0.286610 1.039071 26.000000 25 369.730460
-0.154577 -0.376952 1.019377 38.000000 23 369.730462
-0.191856 -0.468066 0.993945 47.000000 21 369.730465
-0.229717 -0.560422 0.962189 61.000000 19 369.730467
-0.269446 -0.657331 0.926887 64.000000 17 369.730470
-0.033418 -0.068994 1.162474 65.000000 30 369.730478
-0.053412 -0.115632 1.143238 46.000000 29 369.730480
-0.104004 -0.245141 1.062111 73.000000 26 369.730483
-0.138427 -0.335911 1.042209 34.000000 24 369.730485
-0.173083 -0.420394 1.003438 43.000000 22 369.730488
-0.212051 -0.515273 0.981584 60.000000 20 369.730491
-0.249922 -0.607286 0.944033 67.000000 18 369.730493
-0.286873 -0.697061 0.895456 71.000000 16 369.730496
-0.313050 -0.766362 0.893307 70.000000 15 369.730453
-0.361823 -0.885750 0.853612 73.000000 13 369.730456
-0.364669 -0.892272 0.716583 43.000000 11 369.730458
-0.416205 -1.018362 0.662187 40.000000 9 369.730461
-0.463533 -1.133596 0.583132 46.000000 7 369.730464
-0.445167 -1.088139 0.435295 33.000000 5 369.730466
-0.420359 -1.027501 0.302244 9.000000 3 369.730469
-0.294211 -0.718796 0.162540 35.000000 1 369.730471
-0.337309 -0.822056 0.872284 77.000000 14 369.730479
-0.350831 -0.855002 0.756481 40.000000 12 369.730482
-0.390360 -0.950863 0.689390 49.000000 10 369.730484
-0.452013 -1.101034 0.637666 52.000000 8 369.730487
-0.459540 -1.118812 0.509869 42.000000 6 369.730489
-0.441614 -1.074636 0.370937 18.000000 4 369.730492
-0.299368 -0.728131 0.201881 30.000000 2 369.730494
-0.288787 -0.702048 0.124298 38.000000 0 369.730497
-0.011332 -0.020999 1.164229 64.000000 31 369.730508
-0.070484 -0.159946 1.111757 63.000000 28 369.730510
-0.089585 -0.202489 1.088001 73.000000 27 369.730513
-0.120307 -0.286191 1.039071 26.000000 25 369.730515
-0.155892 -0.376410 1.019377 38.000000 23 369.730518
-0.193489 -0.467394 0.993945 45.000000 21 369.730520
-0.231672 -0.559616 0.962189 61.000000 19 369.730523
-0.271739 -0.656387 0.926887 63.000000 17 369.730526
-0.033789 -0.069135 1.167466 64.000000 30 369.730533
-0.053815 -0.115445 1.143238 46.000000 29 369.730536
-0.104859 -0.244777 1.062111 74.000000 26 369.730538
-0.140262 -0.337019 1.046902 35.000000 24 369.730541
-0.174549 -0.419788 1.003438 43.000000 22 369.730544
-0.213848 -0.514529 0.981584 60.000000 20 369.730546
-0.250884 -0.603627 0.940044 67.000000 18 369.730549
-0.289304 -0.696056 0.895456 68.000000 16 369.730551
-0.315724 -0.765265 0.893307 68.000000 15 369.730509
-0.364913 -0.884482 0.853612 75.000000 13 369.730511
-0.367781 -0.890993 0.716583 43.000000 11 369.730514
-0.418067 -1.012808 0.659869 40.000000 9 369.730517
-0.467487 -1.131971 0.583132 48.000000 7 369.730519
-0.448962 -1.086578 0.435295 33.000000 5 369.730522
-0.422067 -1.021488 0.301312 10.000000 3 369.730524
-0.296718 -0.717765 0.162540 34.000000 1 369.730527
-0.340176 -0.820874 0.872284 77.000000 14 369.730535
-0.353813 -0.853772 0.756481 40.000000 12 369.730537
-0.392025 -0.945512 0.686858 49.000000 10 369.730540
-0.455854 -1.099450 0.637666 52.000000 8 369.730542
-0.463443 -1.117201 0.509869 40.000000 6 369.730545
-0.445363 -1.073088 0.370937 18.000000 4 369.730547
-0.301908 -0.727081 0.201881 32.000000 2 369.730550
-0.291236 -0.701036 0.124298 37.000000 0 369.730552
-0.011433 -0.020993 1.169229 56.000000 31 369.730563
-0.071042 -0.159699 1.111757 63.000000 28 369.730566
-0.090292 -0.202175 1.088001 73.000000 27 369.730568
-0.121305 -0.285770 1.039071 27.000000 25 369.730571
-0.157205 -0.375864 1.019377 38.000000 23 369.730573
-0.195119 -0.466715 0.993945 45.000000 21 369.730576
-0.233624 -0.558804 0.962189 61.000000 19 369.730578
-0.274029 -0.655434 0.926887 64.000000 17 369.730581
-0.034030 -0.069017 1.167466 66.000000 30 369.730589
-0.054218 -0.115256 1.143238 47.000000 29 369.730591
-0.105713 -0.244409 1.062111 77.000000 26 369.730594
-0.141438 -0.336527 1.046902 35.000000 24 369.730596
-0.176014 -0.419176 1.003438 43.000000 22 369.730599
-0.215643 -0.513780 0.981584 60.000000 20 369.730602
-0.252989 -0.602747 0.940044 69.000000 18 369.730604
-0.291732 -0.695042 0.895456 68.000000 16 369.730607
-0.318393 -0.764158 0.893307 68.000000 15 369.730564
-0.367998 -0.883203 0.853612 75.000000 13 369.730567
-0.370889 -0.889704 0.716583 43.000000 11 369.730570
-0.421600 -1.011343 0.659869 40.000000 9 369.730572
-0.471435 -1.130332 0.583132 46.000000 7 369.730575
-0.452752 -1.085005 0.435295 33.000000 5 369.730577
-0.425630 -1.020008 0.301312 10.000000 3 369.730580
-0.299222 -0.716725 0.162540 33.000000 1 369.730582
-0.343040 -0.819681 0.872284 77.000000 14 369.730590
-0.356791 -0.852532 0.756481 40.000000 12 369.730593
-0.395323 -0.944138 0.686858 49.000000 10 369.730595
-0.459689 -1.097852 0.637666 54.000000 8 369.730598
-0.467339 -1.115577 0.509869 40.000000 6 369.730600
-0.449106 -1.071527 0.370937 18.000000 4 369.730603
-0.304444 -0.726023 0.201881 31.000000 2 369.730605
-0.293682 -0.700015 0.124298 35.000000 0 369.730608
-0.011506 -0.020953 1.169229 50.000000 31 369.730619
-0.071919 -0.160158 1.116696 64.000000 28 369.730621
-0.090997 -0.201859 1.088001 73.000000 27 369.730624
-0.122302 -0.285345 1.039071 24.000000 25 369.730626
-0.158516 -0.375313 1.019377 38.000000 23 369.730629
-0.196747 -0.466031 0.993945 45.000000 21 369.730631
-0.235574 -0.557985 0.962189 61.000000 19 369.730634
-0.276315 -0.654474 0.926887 64.000000 17 369.730637
-0.034404 -0.069155 1.172457 67.000000 30 369.730644
-0.054852 -0.115547 1.148209 45.000000 29 369.730647
-0.106565 -0.244039 1.062111 76.000000 26 369.730649
-0.142612 -0.336031 1.046902 35.000000 24 369.730652
-0.177549 -0.418528 1.003438 45.000000 22 369.730655
-0.216506 -0.510585 0.977318 62.000000 20 369.730657
-0.255197 -0.601816 0.940044 67.000000 18 369.730660
-0.294278 -0.693968 0.895456 68.000000 16 369.730662
-0.321058 -0.763042 0.893307 68.000000 15 369.730620
-0.371079 -0.881913 0.853612 73.000000 13 369.730622
-0.373993 -0.888404 0.716583 43.000000 11 369.730625
-0.425128 -1.009865 0.659869 40.000000 9 369.730628
-0.475378 -1.128680 0.583132 48.000000 7 369.730630
-0.456537 -1.083418 0.435295 33.000000 5 369.730633
-0.429366 -1.018441 0.301312 10.000000 3 369.730635
-0.299911 -0.711035 0.162094 35.000000 1 369.730638
-0.346042 -0.818418 0.872284 77.000000 14 369.730646
-0.359913 -0.851219 0.756481 40.000000 12 369.730648
-0.398781 -0.942683 0.686858 49.000000 10 369.730651
-0.463710 -1.096160 0.637666 54.000000 8 369.730653
-0.471425 -1.113856 0.509869 40.000000 6 369.730656
-0.453030 -1.069874 0.370937 18.000000 4 369.730658
-0.307103 -0.724902 0.201881 30.000000 2 369.730661
-0.296123 -0.698986 0.124298 37.000000 0 369.730664
-0.011582 -0.020911 1.169229 68.000000 31 369.730674
-0.072505 -0.159893 1.116696 50.000000 28 369.730677
-0.091736 -0.201524 1.088001 74.000000 27 369.730679
-0.123941 -0.286265 1.043843 24.000000 25 369.730682
-0.159890 -0.374729 1.019377 38.000000 23 369.730684
-0.198454 -0.465307 0.993945 47.000000 21 369.730687
-0.236513 -0.554530 0.958056 61.000000 19 369.730690
-0.278712 -0.653457 0.926887 64.000000 17 369.730692
-0.034645 -0.069035 1.172457 64.000000 30 369.730700
-0.055255 -0.115355 1.148209 44.000000 29 369.730702
-0.107417 -0.243665 1.062111 75.000000 26 369.730705
-0.143784 -0.335532 1.046902 35.000000 24 369.730708
-0.179009 -0.417906 1.003438 45.000000 22 369.730710
-0.218287 -0.509826 0.977318 62.000000 20 369.730713
-0.257296 -0.600921 0.940044 67.000000 18 369.730715
-0.296577 -0.692988 0.895456 68.000000 16 369.730718
-0.323853 -0.761860 0.893307 68.000000 15 369.730675
-0.374309 -0.880547 0.853612 73.000000 13 369.730678
-0.377246 -0.887027 0.716583 43.000000 11 369.730681
-0.428826 -1.008300 0.659869 42.000000 9 369.730683
-0.479315 -1.127013 0.583132 48.000000 7 369.730686
-0.460316 -1.081818 0.435295 33.000000 5 369.730688
-0.430994 -1.012416 0.300379 10.000000 3 369.730691
-0.302392 -0.709983 0.162094 35.000000 1 369.730693
-0.348897 -0.817205 0.872284 77.000000 14 369.730701
-0.362883 -0.849957 0.756481 40.000000 12 369.730704
-0.401905 -0.941355 0.686858 49.000000 10 369.730706
-0.467342 -1.094616 0.637666 52.000000 8 369.730709
-0.475116 -1.112287 0.509869 40.000000 6 369.730711
-0.454665 -1.063896 0.369765 18.000000 4 369.730714
-0.309505 -0.723880 0.201881 31.000000 2 369.730716
-0.298561 -0.697948 0.124298 37.000000 0 369.730719
-0.011652 -0.020872 1.169229 70.000000 31 369.730730
-0.073035 -0.159652 1.116696 50.000000 28 369.730732
-0.092404 -0.201219 1.088001 74.000000 27 369.730735
-0.124890 -0.285852 1.043843 25.000000 25 369.730737
-0.161132 -0.374197 1.019377 38.000000 23 369.730740
-0.199996 -0.464647 0.993945 47.000000 21 369.730742
-0.238351 -0.553742 0.958056 61.000000 19 369.730745
-0.280877 -0.652529 0.926887 64.000000 17 369.730748
-0.034751 -0.068657 1.167466 62.000000 30 369.730755
-0.055657 -0.115162 1.148209 44.000000 29 369.730758
-0.108266 -0.243289 1.062111 73.000000 26 369.730760
-0.144269 -0.333444 1.042209 35.000000 24 369.730763
-0.180394 -0.417310 1.003438 42.000000 22 369.730766
-0.219977 -0.509099 0.977318 58.000000 20 369.730768
-0.259287 -0.600065 0.940044 67.000000 18 369.730771
-0.298994 -0.691949 0.895456 68.000000 16 369.730773
-0.324972 -0.757505 0.889802 68.000000 15 369.730731
-0.377227 -0.879301 0.853612 71.000000 13 369.730734
-0.380186 -0.885771 0.716583 43.000000 11 369.730736
-0.432167 -1.006872 0.659869 40.000000 9 369.730739
-0.483246 -1.125333 0.583132 48.000000 7 369.730741
-0.462196 -1.075796 0.433886 33.000000 5 369.730744
-0.434349 -1.010982 0.300379 10.000000 3 369.730746
-0.304744 -0.708977 0.162094 35.000000 1 369.730749
-0.350127 -0.812614 0.868960 77.000000 14 369.730757
-0.365699 -0.848749 0.756481 40.000000 12 369.730759
-0.405188 -0.939946 0.686858 51.000000 10 369.730762
-0.471160 -1.092978 0.637666 52.000000 8 369.730764
-0.478996 -1.110622 0.509869 40.000000 6 369.730767
-0.458376 -1.062302 0.369765 18.000000 4 369.730769
-0.312030 -0.722795 0.201881 31.000000 2 369.730772
-0.300996 -0.696902 0.124298 37.000000 0 369.730775
-0.011725 -0.020832 1.169229 72.000000 31 369.730785
-0.073592 -0.159396 1.116696 64.000000 28 369.730788
-0.093106 -0.200895 1.088001 71.000000 27 369.730790
-0.125887 -0.285415 1.043843 25.000000 25 369.730793
-0.162437 -0.373632 1.019377 38.000000 23 369.730795
-0.201616 -0.463946 0.993945 45.000000 21 369.730798
-0.240282 -0.552907 0.958056 61.000000 19 369.730801
-0.283153 -0.651544 0.926887 64.000000 17 369.730803
-0.034991 -0.068535 1.167466 67.000000 30 369.730811
-0.056059 -0.114967 1.148209 44.000000 29 369.730813
-0.109115 -0.242910 1.062111 73.000000 26 369.730816
-0.145432 -0.332938 1.042209 35.000000 24 369.730819
-0.181849 -0.416677 1.003438 43.000000 22 369.730821
-0.221752 -0.508328 0.977318 58.000000 20 369.730824
-0.261380 -0.599156 0.940044 67.000000 18 369.730826
-0.301408 -0.690901 0.895456 68.000000 16 369.730829
-0.327614 -0.756366 0.889802 68.000000 15 369.730786
-0.380294 -0.877979 0.853612 71.000000 13 369.730789
-0.383275 -0.884439 0.716583 43.000000 11 369.730792
-0.435679 -1.005358 0.659869 40.000000 9 369.730794
-0.487171 -1.123640 0.583132 48.000000 7 369.730797
-0.465948 -1.074176 0.433886 33.000000 5 369.730799
-0.437876 -1.009459 0.300379 10.000000 3 369.730802
-0.305235 -0.703340 0.161648 34.000000 1 369.730804
-0.352961 -0.811387 0.868960 75.000000 14 369.730812
-0.368660 -0.847467 0.756481 40.000000 12 369.730815
-0.408467 -0.938526 0.686858 49.000000 10 369.730817
-0.474973 -1.091326 0.637666 52.000000 8 369.730820
-0.482870 -1.108943 0.509869 40.000000 6 369.730822
-0.462082 -1.060696 0.369765 18.000000 4 369.730825
-0.314551 -0.721702 0.201881 30.000000 2 369.730828
-0.303427 -0.695847 0.124298 37.000000 0 369.730830
-0.011797 -0.020791 1.169229 73.000000 31 369.730841
-0.074148 -0.159138 1.116696 59.000000 28 369.730843
-0.093806 -0.200569 1.088001 71.000000 27 369.730846
-0.126274 -0.283609 1.039071 26.000000 25 369.730848
-0.163741 -0.373063 1.019377 38.000000 23 369.730851
-0.203234 -0.463239 0.993945 45.000000 21 369.730854
-0.242211 -0.552065 0.958056 61.000000 19 369.730856
-0.285426 -0.650552 0.926887 67.000000 17 369.730859
-0.035093 -0.068157 1.162474 71.000000 30 369.730866
-0.056460 -0.114770 1.148209 45.000000 29 369.730869
-0.109962 -0.242527 1.062111 73.000000 26 369.730872
-0.146593 -0.332429 1.042209 34.000000 24 369.730874
-0.183302 -0.416040 1.003438 43.000000 22 369.730877
-0.223525 -0.507551 0.977318 60.000000 20 369.730879
-0.263470 -0.598240 0.940044 67.000000 18 369.730882
-0.303818 -0.689844 0.895456 66.000000 16 369.730884
-0.330252 -0.755217 0.889802 68.000000 15 369.730842
-0.383356 -0.876646 0.853612 73.000000 13 369.730845
-0.386360 -0.883095 0.716583 43.000000 11 369.730847
-0.439186 -1.003831 0.659869 40.000000 9 369.730850
-0.491090 -1.121932 0.583132 48.000000 7 369.730852
-0.469695 -1.072544 0.433886 33.000000 5 369.730855
-0.441397 -1.007925 0.300379 10.000000 3 369.730857
-0.307688 -0.702271 0.161648 33.000000 1 369.730860
-0.355791 -0.810150 0.868960 75.000000 14 369.730868
-0.371616 -0.846175 0.756481 40.000000 12 369.730870
-0.411740 -0.937095 0.686858 49.000000 10 369.730873
-0.478779 -1.089662 0.637666 52.000000 8 369.730875
-0.486738 -1.107250 0.509869 40.000000 6 369.730878
-0.465781 -1.059076 0.369765 18.000000 4 369.730880
-0.317068 -0.720599 0.201881 31.000000 2 369.730883
-0.307867 -0.699356 0.124500 38.000000 0 369.730886
-0.011870 -0.020749 1.169229 69.000000 31 369.730896
-0.074703 -0.158878 1.116696 59.000000 28 369.730899
-0.094506 -0.200240 1.088001 73.000000 27 369.730901
-0.127263 -0.283167 1.039071 26.000000 25 369.730904
-0.165042 -0.372489 1.019377 38.000000 23 369.730906
-0.204850 -0.462527 0.993945 47.000000 21 369.730909
-0.245276 -0.553789 0.962189 60.000000 19 369.730911
-0.287695 -0.649552 0.926887 64.000000 17 369.730914
-0.035331 -0.068034 1.162474 73.000000 30 369.730922
-0.056860 -0.114573 1.148209 45.000000 29 369.730924
-0.110808 -0.242142 1.062111 73.000000 26 369.730927
-0.147753 -0.331915 1.042209 35.000000 24 369.730929
-0.184754 -0.415398 1.003438 43.000000 22 369.730932
-0.225296 -0.506768 0.977318 60.000000 20 369.730934
-0.266781 -0.600071 0.944033 66.000000 18 369.730937
-0.306224 -0.688780 0.895456 69.000000 16 369.730940
-0.332886 -0.754060 0.889802 68.000000 15 369.730897
-0.386414 -0.875302 0.853612 73.000000 13 369.730900
-0.389440 -0.881741 0.716583 45.000000 11 369.730902
-0.442687 -1.002292 0.659869 40.000000 9 369.730905
-0.495004 -1.120211 0.583132 48.000000 7 369.730908
-0.473436 -1.070897 0.433886 33.000000 5 369.730910
-0.446898 -1.010871 0.301312 10.000000 3 369.730913
-0.310137 -0.701192 0.161648 35.000000 1 369.730915
-0.358617 -0.808903 0.868960 75.000000 14 369.730923
-0.374567 -0.844873 0.756481 40.000000 12 369.730926
-0.415009 -0.935652 0.686858 49.000000 10 369.730928
-0.482580 -1.087984 0.637666 52.000000 8 369.730931
-0.490600 -1.105545 0.509869 40.000000 6 369.730933
-0.469475 -1.057444 0.369765 18.000000 4 369.730936
-0.317572 -0.714962 0.201191 31.000000 2 369.730938
-0.308277 -0.693711 0.124298 38.000000 0 369.730941
-0.011942 -0.020708 1.169229 69.000000 31 369.730952
-0.075257 -0.158616 1.116696 63.000000 28 369.730954
-0.095204 -0.199909 1.088001 73.000000 27 369.730957
-0.128251 -0.282721 1.039071 26.000000 25 369.730959
-0.166341 -0.371911 1.019377 38.000000 23 369.730962
-0.206463 -0.461809 0.993945 47.000000 21 369.730964
-0.247207 -0.552929 0.962189 61.000000 19 369.730967
-0.289960 -0.648543 0.926887 63.000000 17 369.730969
-0.035430 -0.067656 1.157483 79.000000 30 369.730977
-0.057259 -0.114373 1.148209 45.000000 29 369.730980
-0.111653 -0.241754 1.062111 73.000000 26 369.730982
-0.148910 -0.331397 1.042209 35.000000 24 369.730985
-0.186202 -0.414750 1.003438 42.000000 22 369.730987
-0.227063 -0.505978 0.977318 58.000000 20 369.730990
-0.268874 -0.599136 0.944033 67.000000 18 369.730993
-0.308626 -0.687707 0.895456 69.000000 16 369.730995
-0.336968 -0.756151 0.893307 68.000000 15 369.730953
-0.389467 -0.873948 0.853612 73.000000 13 369.730955
-0.392516 -0.880377 0.716583 45.000000 11 369.730958
-0.446183 -1.000740 0.659869 40.000000 9 369.730960
-0.498911 -1.118477 0.583132 48.000000 7 369.730963
-0.477171 -1.069238 0.433886 33.000000 5 369.730966
-0.450424 -1.009305 0.301312 10.000000 3 369.730968
-0.312583 -0.700105 0.161648 36.000000 1 369.730971
-0.361439 -0.807647 0.868960 75.000000 14 369.730978
-0.377514 -0.843560 0.756481 40.000000 12 369.730981
-0.418272 -0.934197 0.686858 49.000000 10 369.730984
-0.486375 -1.086293 0.637666 52.000000 8 369.730986
-0.494456 -1.103825 0.509869 40.000000 6 369.730989
-0.473164 -1.055799 0.369765 18.000000 4 369.730991
-0.320065 -0.713850 0.201191 30.000000 2 369.730994
-0.312742 -0.697189 0.124500 38.000000 0 369.730996
-0.012014 -0.020666 1.169229 69.000000 31 369.731007
-0.075810 -0.158353 1.116696 63.000000 28 369.731010
-0.095901 -0.199575 1.088001 73.000000 27 369.731012
-0.129237 -0.282271 1.039071 24.000000 25 369.731015
-0.167638 -0.371328 1.019377 37.000000 23 369.731017
-0.208074 -0.461085 0.993945 45.000000 21 369.731020
-0.249136 -0.552063 0.962189 61.000000 19 369.731022
-0.292222 -0.647527 0.926887 64.000000 17 369.731025
-0.035666 -0.067532 1.157483 75.000000 30 369.731033
-0.057658 -0.114173 1.148209 45.000000 29 369.731035
-0.112496 -0.241362 1.062111 75.000000 26 369.731038
-0.150066 -0.330875 1.042209 35.000000 24 369.731040
-0.187649 -0.414098 1.003438 42.000000 22 369.731043
-0.228828 -0.505183 0.977318 58.000000 20 369.731046
-0.270964 -0.598194 0.944033 67.000000 18 369.731048
-0.312424 -0.689713 0.899131 68.000000 16 369.731051
-0.339605 -0.754970 0.893307 68.000000 15 369.731008
-0.392515 -0.872583 0.853612 73.000000 13 369.731011
-0.395586 -0.879001 0.716583 45.000000 11 369.731013
-0.449674 -0.999177 0.659869 40.000000 9 369.731016
-0.502812 -1.116728 0.583132 48.000000 7 369.731019
-0.480901 -1.067566 0.433886 33.000000 5 369.731021
-0.453945 -1.007726 0.301312 10.000000 3 369.731024
-0.315025 -0.699010 0.161648 36.000000 1 369.731026
-0.364256 -0.806380 0.868960 75.000000 14 369.731034
-0.380456 -0.842237 0.756481 40.000000 12 369.731037
-0.421531 -0.932732 0.686858 49.000000 10 369.731039
-0.490164 -1.084589 0.637666 52.000000 8 369.731042
-0.498306 -1.102093 0.509869 40.000000 6 369.731044
-0.476846 -1.054141 0.369765 18.000000 4 369.731047
-0.322555 -0.712728 0.201191 29.000000 2 369.731049
-0.315173 -0.696093 0.124500 38.000000 0 369.731052
-0.012086 -0.020624 1.169229 72.000000 31 369.731063
-0.076363 -0.158087 1.116696 62.000000 28 369.731065
-0.096597 -0.199239 1.088001 73.000000 27 369.731068
-0.130222 -0.281819 1.039071 26.000000 25 369.731070
-0.168933 -0.370740 1.019377 37.000000 23 369.731073
-0.209682 -0.460356 0.993945 45.000000 21 369.731075
-0.249895 -0.548629 0.958056 61.000000 19 369.731078
-0.294481 -0.646503 0.926887 67.000000 17 369.731080
-0.035902 -0.067407 1.157483 73.000000 30 369.731088
-0.058057 -0.113971 1.148209 46.000000 29 369.731091
-0.113338 -0.240968 1.062111 75.000000 26 369.731093
-0.151220 -0.330349 1.042209 35.000000 24 369.731096
-0.189093 -0.413440 1.003438 42.000000 22 369.731098
-0.230590 -0.504381 0.977318 56.000000 20 369.731101
-0.273050 -0.597244 0.944033 67.000000 18 369.731104
-0.314830 -0.688618 0.899131 68.000000 16 369.731106
-0.342239 -0.753780 0.893307 68.000000 15 369.731064
-0.395559 -0.871208 0.853612 75.000000 13 369.731066
-0.398652 -0.877615 0.716583 43.000000 11 369.731069
-0.453159 -0.997601 0.659869 40.000000 9 369.731072
-0.506707 -1.114966 0.583132 48.000000 7 369.731074
-0.484624 -1.065881 0.433886 33.000000 5 369.731077
-0.459493 -1.010607 0.302244 10.000000 3 369.731079
-0.317463 -0.697906 0.161648 36.000000 1 369.731082
-0.367068 -0.805104 0.868960 77.000000 14 369.731090
-0.383394 -0.840904 0.756481 42.000000 12 369.731092
-0.424784 -0.931255 0.686858 49.000000 10 369.731095
-0.493946 -1.082871 0.637666 52.000000 8 369.731097
-0.502150 -1.100347 0.509869 40.000000 6 369.731100
-0.480523 -1.052470 0.369765 18.000000 4 369.731102
-0.325041 -0.711598 0.201191 28.000000 2 369.731105
-0.317601 -0.694989 0.124500 38.000000 0 369.731107
-0.012158 -0.020581 1.169229 68.000000 31 369.731118
-0.076914 -0.157820 1.116696 62.000000 28 369.731121
-0.097292 -0.198901 1.088001 73.000000 27 369.731123
-0.131836 -0.282716 1.043843 26.000000 25 369.731126
-0.170227 -0.370148 1.019377 38.000000 23 369.731128
-0.211288 -0.459622 0.993945 44.000000 21 369.731131
-0.251809 -0.547754 0.958056 60.000000 19 369.731133
-0.296736 -0.645471 0.926887 64.000000 17 369.731136
-0.036137 -0.067281 1.157483 78.000000 30 369.731144
-0.058454 -0.113767 1.148209 46.000000 29 369.731146
-0.114178 -0.240571 1.062111 76.000000 26 369.731149
-0.152373 -0.329820 1.042209 35.000000 24 369.731151
-0.190535 -0.412778 1.003438 43.000000 22 369.731154
-0.233442 -0.505941 0.981584 58.000000 20 369.731157
-0.275133 -0.596287 0.944033 67.000000 18 369.731159
-0.317231 -0.687515 0.899131 71.000000 16 369.731162
-0.344868 -0.752581 0.893307 68.000000 15 369.731119
-0.396975 -0.866283 0.850474 73.000000 13 369.731122
-0.401713 -0.876218 0.716583 43.000000 11 369.731124
-0.456639 -0.996013 0.659869 40.000000 9 369.731127
-0.508663 -1.108977 0.581259 48.000000 7 369.731130
-0.488342 -1.064183 0.433886 33.000000 5 369.731132
-0.463018 -1.008997 0.302244 10.000000 3 369.731135
-0.319897 -0.696794 0.161648 35.000000 1 369.731137
-0.369876 -0.803818 0.868960 77.000000 14 369.731145
-0.386327 -0.839561 0.756481 42.000000 12 369.731148
-0.428032 -0.929766 0.686858 49.000000 10 369.731150
-0.497723 -1.081140 0.637666 54.000000 8 369.731153
-0.505988 -1.098587 0.509869 40.000000 6 369.731155
-0.484194 -1.050786 0.369765 18.000000 4 369.731158
-0.329596 -0.714956 0.201881 31.000000 2 369.731160
-0.320025 -0.693876 0.124500 38.000000 0 369.731163
-0.012258 -0.020572 1.174229 67.000000 31 369.731174
-0.077120 -0.156854 1.111757 64.000000 28 369.731176
-0.097986 -0.198560 1.088001 73.000000 27 369.731179
-0.132822 -0.282254 1.043843 25.000000 25 369.731181
-0.171518 -0.369552 1.019377 38.000000 23 369.731184
-0.212891 -0.458881 0.993945 44.000000 21 369.731186
-0.253719 -0.546871 0.958056 60.000000 19 369.731189
-0.298987 -0.644432 0.926887 64.000000 17 369.731192
-0.036371 -0.067155 1.157483 78.000000 30 369.731199
-0.058851 -0.113563 1.148209 45.000000 29 369.731202
-0.115017 -0.240171 1.062111 76.000000 26 369.731204
-0.153523 -0.329286 1.042209 35.000000 24 369.731207
-0.191975 -0.412110 1.003438 43.000000 22 369.731210
-0.235207 -0.505123 0.981584 58.000000 20 369.731212
-0.277213 -0.595323 0.944033 67.000000 18 369.731215
-0.319629 -0.686404 0.899131 71.000000 16 369.731217
-0.347493 -0.751372 0.893307 68.000000 15 369.731175
-0.399997 -0.864892 0.850474 73.000000 13 369.731177
-0.404769 -0.874810 0.716583 43.000000 11 369.731180
-0.460112 -0.994413 0.659869 40.000000 9 369.731183
-0.512531 -1.107195 0.581259 48.000000 7 369.731185
-0.492054 -1.062472 0.433886 32.000000 5 369.731188
-0.466537 -1.007375 0.302244 10.000000 3 369.731190
-0.322328 -0.695673 0.161648 34.000000 1 369.731193
-0.372680 -0.802522 0.868960 75.000000 14 369.731201
-0.390957 -0.841873 0.759424 40.000000 12 369.731203
-0.431275 -0.928266 0.686858 49.000000 10 369.731206
-0.501494 -1.079396 0.637666 52.000000 8 369.731208
-0.509820 -1.096814 0.509869 40.000000 6 369.731211
-0.487859 -1.049090 0.369765 18.000000 4 369.731213
-0.332090 -0.713801 0.201881 31.000000 2 369.731216
-0.322445 -0.692755 0.124500 38.000000 0 369.731218
-0.012330 -0.020529 1.174229 70.000000 31 369.731229
-0.077667 -0.156584 1.111757 64.000000 28 369.731232
-0.098679 -0.198217 1.088001 73.000000 27 369.731234
-0.133807 -0.281788 1.043843 25.000000 25 369.731237
-0.172807 -0.368951 1.019377 38.000000 23 369.731239
-0.214492 -0.458135 0.993945 45.000000 21 369.731242
-0.255626 -0.545982 0.958056 60.000000 19 369.731244
-0.301235 -0.643384 0.926887 64.000000 17 369.731247
-0.036748 -0.067279 1.162474 73.000000 30 369.731255
-0.059247 -0.113357 1.148209 43.000000 29 369.731257
-0.115855 -0.239768 1.062111 76.000000 26 369.731260
-0.154671 -0.328748 1.042209 34.000000 24 369.731262
-0.193412 -0.411437 1.003438 43.000000 22 369.731265
-0.236968 -0.504299 0.981584 60.000000 20 369.731268
-0.278008 -0.591624 0.940044 67.000000 18 369.731270
-0.322023 -0.685284 0.899131 69.000000 16 369.731273
-0.350113 -0.750155 0.893307 68.000000 15 369.731230
-0.404660 -0.867018 0.853612 75.000000 13 369.731233
-0.407821 -0.873392 0.716583 43.000000 11 369.731236
-0.463581 -0.992801 0.659869 42.000000 9 369.731238
-0.516393 -1.105399 0.581259 48.000000 7 369.731241
-0.495759 -1.060748 0.433886 32.000000 5 369.731243
-0.470050 -1.005740 0.302244 10.000000 3 369.731246
-0.324754 -0.694543 0.161648 35.000000 1 369.731248
-0.375479 -0.801216 0.868960 77.000000 14 369.731256
-0.393894 -0.840503 0.759424 42.000000 12 369.731259
-0.434513 -0.926755 0.686858 49.000000 10 369.731261
-0.505259 -1.077639 0.637666 52.000000 8 369.731264
-0.513645 -1.095028 0.509869 40.000000 6 369.731266
-0.491518 -1.047380 0.369765 18.000000 4 369.731269
-0.334580 -0.712638 0.201881 30.000000 2 369.731271
-0.322738 -0.687103 0.124298 38.000000 0 369.731274
-0.012430 -0.020519 1.179229 72.000000 31 369.731285
-0.078213 -0.156312 1.111757 64.000000 28 369.731287
-0.099370 -0.197871 1.088001 74.000000 27 369.731290
-0.134790 -0.281320 1.043843 25.000000 25 369.731292
-0.174093 -0.368345 1.019377 38.000000 23 369.731295
-0.216090 -0.457384 0.993945 45.000000 21 369.731297
-0.257531 -0.545087 0.958056 60.000000 19 369.731300
-0.303479 -0.642329 0.926887 67.000000 17 369.731303
-0.036983 -0.067151 1.162474 69.000000 30 369.731310
-0.059642 -0.113149 1.148209 44.000000 29 369.731313
-0.116691 -0.239362 1.062111 75.000000 26 369.731315
-0.155818 -0.328206 1.042209 34.000000 24 369.731318
-0.194847 -0.410760 1.003438 43.000000 22 369.731321
-0.238727 -0.503469 0.981584 58.000000 20 369.731323
-0.280071 -0.590650 0.940044 67.000000 18 369.731326
-0.324414 -0.684156 0.899131 69.000000 16 369.731328
-0.351210 -0.745702 0.889802 68.000000 15 369.731286
-0.407684 -0.865600 0.853612 73.000000 13 369.731288
-0.410867 -0.871963 0.716583 43.000000 11 369.731291
-0.468932 -0.995184 0.662187 40.000000 9 369.731294
-0.520248 -1.103590 0.581259 48.000000 7 369.731296
-0.499459 -1.059011 0.433886 33.000000 5 369.731299
-0.473558 -1.004093 0.302244 10.000000 3 369.731301
-0.327176 -0.693406 0.161648 35.000000 1 369.731304
-0.378273 -0.799900 0.868960 77.000000 14 369.731312
-0.396825 -0.839123 0.759424 42.000000 12 369.731314
-0.437745 -0.925233 0.686858 49.000000 10 369.731317
-0.509018 -1.075869 0.637666 52.000000 8 369.731319
-0.517464 -1.093228 0.509869 40.000000 6 369.731322
-0.495171 -1.045658 0.369765 18.000000 4 369.731324
-0.339185 -0.715941 0.202571 31.000000 2 369.731327
-0.325134 -0.685972 0.124298 37.000000 0 369.731330
-0.012530 -0.020509 1.184229 72.000000 31 369.731340
-0.078758 -0.156038 1.111757 64.000000 28 369.731343
-0.100060 -0.197523 1.088001 74.000000 27 369.731345
-0.135771 -0.280847 1.043843 25.000000 25 369.731348
-0.175378 -0.367735 1.019377 38.000000 23 369.731350
-0.217685 -0.456627 0.993945 45.000000 21 369.731353
-0.259432 -0.544184 0.958056 60.000000 19 369.731356
-0.307099 -0.644159 0.930724 66.000000 17 369.731358
-0.037361 -0.067272 1.167466 70.000000 30 369.731366
-0.060037 -0.112940 1.148209 46.000000 29 369.731368
-0.117526 -0.238954 1.062111 76.000000 26 369.731371
-0.156963 -0.327660 1.042209 34.000000 24 369.731374
-0.196280 -0.410077 1.003438 43.000000 22 369.731376
-0.240483 -0.502632 0.981584 58.000000 20 369.731379
-0.282131 -0.589669 0.940044 67.000000 18 369.731381
-0.326800 -0.683019 0.899131 71.000000 16 369.731384
-0.353811 -0.744471 0.889802 68.000000 15 369.731341
-0.410703 -0.864172 0.853612 73.000000 13 369.731344
-0.413908 -0.870524 0.716583 45.000000 11 369.731347
-0.472403 -0.993541 0.662187 40.000000 9 369.731349
-0.524097 -1.101767 0.581259 48.000000 7 369.731352
-0.503153 -1.057261 0.433886 33.000000 5 369.731354
-0.477060 -1.002434 0.302244 10.000000 3 369.731357
-0.329595 -0.692259 0.161648 35.000000 1 369.731359
-0.382672 -0.801945 0.872284 77.000000 14 369.731367
-0.398011 -0.834085 0.756481 42.000000 12 369.731370
-0.440972 -0.923699 0.686858 49.000000 10 369.731372
-0.512770 -1.074085 0.637666 52.000000 8 369.731375
-0.521277 -1.091415 0.509869 40.000000 6 369.731377
-0.498818 -1.043923 0.369765 18.000000 4 369.731380
-0.341682 -0.714752 0.202571 30.000000 2 369.731382
-0.327527 -0.684833 0.124298 37.000000 0 369.731385
-0.012601 -0.020465 1.184229 68.000000 31 369.731396
-0.079303 -0.155762 1.111757 62.000000 28 369.731398
-0.100749 -0.197173 1.088001 73.000000 27 369.731401
-0.136750 -0.280372 1.043843 24.000000 25 369.731403
-0.176661 -0.367121 1.019377 38.000000 23 369.731406
-0.219277 -0.455864 0.993945 47.000000 21 369.731408
-0.261330 -0.543275 0.958056 60.000000 19 369.731411
-0.309346 -0.643083 0.930724 67.000000 17 369.731414
-0.037596 -0.067141 1.167466 69.000000 30 369.731421
-0.060431 -0.112730 1.148209 46.000000 29 369.731424
-0.118359 -0.238542 1.062111 76.000000 26 369.731426
-0.158105 -0.327110 1.042209 35.000000 24 369.731429
-0.197710 -0.409389 1.003438 43.000000 22 369.731432
-0.242236 -0.501790 0.981584 58.000000 20 369.731434
-0.284188 -0.588681 0.940044 67.000000 18 369.731437
-0.329182 -0.681874 0.899131 71.000000 16 369.731439
-0.356408 -0.743232 0.889802 68.000000 15 369.731397
-0.413717 -0.862733 0.853612 73.000000 13 369.731400
-0.416944 -0.869074 0.716583 45.000000 11 369.731402
-0.475868 -0.991886 0.662187 40.000000 9 369.731405
-0.527940 -1.099931 0.581259 48.000000 7 369.731407
-0.506840 -1.055498 0.433886 33.000000 5 369.731410
-0.478430 -0.996334 0.301312 10.000000 3 369.731412
-0.332009 -0.691105 0.161648 34.000000 1 369.731415
-0.385468 -0.800605 0.872284 77.000000 14 369.731423
-0.400920 -0.832691 0.756481 40.000000 12 369.731425
-0.444194 -0.922154 0.686858 51.000000 10 369.731428
-0.516516 -1.072289 0.637666 54.000000 8 369.731430
-0.525084 -1.089589 0.509869 40.000000 6 369.731433
-0.500348 -1.037797 0.368592 18.000000 4 369.731435
-0.344175 -0.713555 0.202571 30.000000 2 369.731438
-0.329915 -0.683686 0.124298 38.000000 0 369.731441
-0.012673 -0.020421 1.184229 55.000000 31 369.731451
-0.080202 -0.156174 1.116696 67.000000 28 369.731454
-0.101436 -0.196820 1.088001 73.000000 27 369.731456
-0.137728 -0.279893 1.043843 26.000000 25 369.731459
-0.177941 -0.366502 1.019377 38.000000 23 369.731461
-0.220867 -0.455096 0.993945 45.000000 21 369.731464
-0.263225 -0.542360 0.958056 60.000000 19 369.731467
-0.311588 -0.642000 0.930724 66.000000 17 369.731469
-0.037976 -0.067260 1.172457 69.000000 30 369.731477
-0.060824 -0.112518 1.148209 46.000000 29 369.731479
-0.118628 -0.237003 1.057272 75.000000 26 369.731482
-0.159246 -0.326556 1.042209 34.000000 24 369.731485
-0.199138 -0.408697 1.003438 43.000000 22 369.731487
-0.243986 -0.500941 0.981584 58.000000 20 369.731490
-0.287561 -0.590395 0.944033 66.000000 18 369.731492
-0.331560 -0.680721 0.899131 71.000000 16 369.731495
-0.359000 -0.741983 0.889802 68.000000 15 369.731452
-0.416726 -0.861283 0.853612 73.000000 13 369.731455
-0.419975 -0.867613 0.716583 43.000000 11 369.731458
-0.479328 -0.990219 0.662187 40.000000 9 369.731460
-0.531776 -1.098081 0.581259 48.000000 7 369.731463
-0.510521 -1.053723 0.433886 33.000000 5 369.731465
-0.481905 -0.994658 0.301312 10.000000 3 369.731468
-0.336592 -0.694423 0.162094 33.000000 1 369.731470
-0.388261 -0.799254 0.872284 77.000000 14 369.731478
-0.403824 -0.831286 0.756481 40.000000 12 369.731481
-0.447410 -0.920598 0.686858 49.000000 10 369.731483
-0.520256 -1.070480 0.637666 54.000000 8 369.731486
-0.528884 -1.087749 0.509869 40.000000 6 369.731488
-0.503967 -1.036044 0.368592 18.000000 4 369.731491
-0.344497 -0.707897 0.201881 30.000000 2 369.731494
-0.332300 -0.682530 0.124298 39.000000 0 369.731496
-0.012744 -0.020376 1.184229 49.000000 31 369.731507
-0.080747 -0.155893 1.116696 64.000000 28 369.731509
-0.102123 -0.196464 1.088001 74.000000 27 369.731512
-0.138704 -0.279410 1.043843 25.000000 25 369.731514
-0.179219 -0.365879 1.019377 38.000000 23 369.731517
-0.222455 -0.454322 0.993945 45.000000 21 369.731520
-0.265116 -0.541438 0.958056 60.000000 19 369.731522
-0.313828 -0.640908 0.930724 67.000000 17 369.731525
-0.038211 -0.067127 1.172457 70.000000 30 369.731532
-0.061216 -0.112305 1.148209 47.000000 29 369.731535
-0.119454 -0.236587 1.057272 76.000000 26 369.731538
-0.160385 -0.325998 1.042209 35.000000 24 369.731540
-0.200564 -0.407999 1.003438 43.000000 22 369.731543
-0.245734 -0.500086 0.981584 58.000000 20 369.731545
-0.289620 -0.589387 0.944033 66.000000 18 369.731548
-0.333934 -0.679559 0.899131 71.000000 16 369.731550
-0.361587 -0.740726 0.889802 65.000000 15 369.731508
-0.419730 -0.859824 0.853612 73.000000 13 369.731511
-0.423001 -0.866142 0.716583 43.000000 11 369.731513
-0.482781 -0.988540 0.662187 40.000000 9 369.731516
-0.535606 -1.096218 0.581259 48.000000 7 369.731518
-0.514196 -1.051934 0.433886 33.000000 5 369.731521
-0.485374 -0.992970 0.301312 10.000000 3 369.731523
-0.339014 -0.693244 0.162094 35.000000 1 369.731526
-0.391048 -0.797894 0.872284 77.000000 14 369.731534
-0.406724 -0.829871 0.756481 40.000000 12 369.731536
-0.450621 -0.919031 0.686858 49.000000 10 369.731539
-0.523989 -1.068657 0.637666 52.000000 8 369.731541
-0.532678 -1.085897 0.509869 40.000000 6 369.731544
-0.507581 -1.034279 0.368592 18.000000 4 369.731546
-0.349148 -0.711135 0.202571 30.000000 2 369.731549
-0.334680 -0.681366 0.124298 38.000000 0 369.731552
-0.012786 -0.020299 1.179229 72.000000 31 369.731563
-0.081291 -0.155611 1.116696 56.000000 28 369.731566
-0.102808 -0.196107 1.088001 74.000000 27 369.731568
-0.139679 -0.278924 1.043843 26.000000 25 369.731571
-0.180495 -0.365251 1.019377 38.000000 23 369.731573
-0.224039 -0.453543 0.993945 47.000000 21 369.731576
-0.267005 -0.540509 0.958056 60.000000 19 369.731578
-0.316063 -0.639809 0.930724 67.000000 17 369.731581
-0.038445 -0.066993 1.172457 69.000000 30 369.731589
-0.061608 -0.112091 1.148209 46.000000 29 369.731591
-0.119708 -0.235049 1.052433 75.000000 26 369.731594
-0.160755 -0.323891 1.037516 34.000000 24 369.731596
-0.201987 -0.407297 1.003438 43.000000 22 369.731599
-0.247478 -0.499226 0.981584 60.000000 20 369.731601
-0.291675 -0.588373 0.944033 66.000000 18 369.731604
-0.336304 -0.678390 0.899131 71.000000 16 369.731607
-0.364171 -0.739459 0.889802 67.000000 15 369.731564
-0.422729 -0.858353 0.853612 73.000000 13 369.731567
-0.426022 -0.864660 0.716583 43.000000 11 369.731569
-0.486229 -0.986849 0.662187 40.000000 9 369.731572
-0.539429 -1.094342 0.581259 48.000000 7 369.731575
-0.517865 -1.050133 0.433886 33.000000 5 369.731577
-0.486665 -0.986864 0.300379 10.000000 3 369.731580
-0.341432 -0.692056 0.162094 35.000000 1 369.731582
-0.393831 -0.796524 0.872284 77.000000 14 369.731590
-0.409618 -0.828447 0.756481 40.000000 12 369.731593
-0.453826 -0.917452 0.686858 49.000000 10 369.731595
-0.527717 -1.066821 0.637666 50.000000 8 369.731598
-0.536465 -1.084031 0.509869 40.000000 6 369.731600
-0.513345 -1.036857 0.369765 18.000000 4 369.731603
-0.351629 -0.709912 0.202571 30.000000 2 369.731605
-0.337056 -0.680193 0.124298 38.000000 0 369.731608
-0.012857 -0.020254 1.179229 76.000000 31 369.731619
-0.081833 -0.155326 1.116696 56.000000 28 369.731621
-0.103492 -0.195747 1.088001 71.000000 27 369.731624
-0.140652 -0.278435 1.043843 26.000000 25 369.731626
-0.181769 -0.364619 1.019377 38.000000 23 369.731629
-0.225621 -0.452758 0.993945 45.000000 21 369.731631
-0.268890 -0.539574 0.958056 60.000000 19 369.731634
-0.318294 -0.638702 0.930724 67.000000 17 369.731636
-0.038678 -0.066858 1.172457 69.000000 30 369.731644
-0.062260 -0.112341 1.153180 46.000000 29 369.731647
-0.120527 -0.234629 1.052433 75.000000 26 369.731649
-0.161885 -0.323328 1.037516 34.000000 24 369.731652
-0.203478 -0.406554 1.003438 43.000000 22 369.731654
-0.249306 -0.498315 0.981584 60.000000 20 369.731657
-0.293830 -0.587300 0.944033 66.000000 18 369.731660
-0.338788 -0.677152 0.899131 71.000000 16 369.731662
-0.366750 -0.738183 0.889802 70.000000 15 369.731620
-0.425722 -0.856872 0.853612 69.000000 13 369.731622
-0.429038 -0.863168 0.716583 45.000000 11 369.731625
-0.489671 -0.985145 0.662187 40.000000 9 369.731627
-0.543246 -1.092452 0.581259 48.000000 7 369.731630
-0.523664 -1.052614 0.435295 33.000000 5 369.731633
-0.490278 -0.985074 0.300379 10.000000 3 369.731635
-0.343966 -0.690800 0.162094 34.000000 1 369.731638
-0.396748 -0.795075 0.872284 77.000000 14 369.731645
-0.412652 -0.826940 0.756481 40.000000 12 369.731648
-0.459111 -0.919640 0.689390 49.000000 10 369.731651
-0.533650 -1.068941 0.639764 50.000000 8 369.731653
-0.540434 -1.082057 0.509869 40.000000 6 369.731656
-0.517142 -1.034968 0.369765 18.000000 4 369.731658
-0.354228 -0.708618 0.202571 31.000000 2 369.731661
-0.339429 -0.679013 0.124298 37.000000 0 369.731663
-0.012902 -0.020175 1.174229 71.000000 31 369.731674
-0.082036 -0.154340 1.111757 65.000000 28 369.731677
-0.104209 -0.195366 1.088001 67.000000 27 369.731679
-0.141671 -0.277918 1.043843 26.000000 25 369.731682
-0.183104 -0.363950 1.019377 38.000000 23 369.731684
-0.227279 -0.451928 0.993945 45.000000 21 369.731687
-0.270865 -0.538585 0.958056 61.000000 19 369.731689
-0.320633 -0.637531 0.930724 64.000000 17 369.731692
-0.038773 -0.066468 1.167466 72.000000 30 369.731700
-0.062671 -0.112112 1.153180 46.000000 29 369.731702
-0.120807 -0.233070 1.047593 75.000000 26 369.731705
-0.163069 -0.322732 1.037516 34.000000 24 369.731707
-0.204896 -0.405841 1.003438 43.000000 22 369.731710
-0.251044 -0.497442 0.981584 60.000000 20 369.731713
-0.295878 -0.586271 0.944033 66.000000 18 369.731715
-0.341150 -0.675966 0.899131 71.000000 16 369.731718
-0.369453 -0.736834 0.889802 68.000000 15 369.731675
-0.428860 -0.855306 0.853612 69.000000 13 369.731678
-0.432199 -0.861589 0.716583 43.000000 11 369.731680
-0.493278 -0.983344 0.662187 40.000000 9 369.731683
-0.547246 -1.090454 0.581259 48.000000 7 369.731686
-0.527519 -1.050687 0.435295 33.000000 5 369.731688
-0.495918 -0.987746 0.301312 10.000000 3 369.731691
-0.346375 -0.689595 0.162094 34.000000 1 369.731693
-0.399521 -0.793685 0.872284 77.000000 14 369.731701
-0.415536 -0.825494 0.756481 40.000000 12 369.731704
-0.462319 -0.918032 0.689390 49.000000 10 369.731706
-0.537378 -1.067071 0.639764 52.000000 8 369.731709
-0.544208 -1.080164 0.509869 40.000000 6 369.731711
-0.520751 -1.033157 0.369765 18.000000 4 369.731714
-0.358929 -0.711799 0.203261 30.000000 2 369.731716
-0.341915 -0.677764 0.124298 38.000000 0 369.731719
-0.012972 -0.020130 1.174229 73.000000 31 369.731730
-0.082574 -0.154052 1.111757 67.000000 28 369.731732
-0.104890 -0.195001 1.088001 66.000000 27 369.731735
-0.142640 -0.277421 1.043843 26.000000 25 369.731737
-0.184374 -0.363309 1.019377 38.000000 23 369.731740
-0.228855 -0.451132 0.993945 45.000000 21 369.731742
-0.272744 -0.537636 0.958056 61.000000 19 369.731745
-0.321406 -0.633548 0.926887 64.000000 17 369.731747
-0.039005 -0.066332 1.167466 67.000000 30 369.731755
-0.063062 -0.111892 1.153180 47.000000 29 369.731758
-0.121620 -0.232646 1.047593 75.000000 26 369.731760
-0.164194 -0.322161 1.037516 34.000000 24 369.731763
-0.206311 -0.405123 1.003438 42.000000 22 369.731765
-0.252779 -0.496563 0.981584 58.000000 20 369.731768
-0.297923 -0.585234 0.944033 66.000000 18 369.731771
-0.343508 -0.674771 0.899131 69.000000 16 369.731773
-0.372023 -0.735540 0.889802 68.000000 15 369.731731
-0.431843 -0.853804 0.853612 73.000000 13 369.731733
-0.435203 -0.860075 0.716583 43.000000 11 369.731736
-0.496708 -0.981616 0.662187 40.000000 9 369.731739
-0.551050 -1.088537 0.581259 48.000000 7 369.731741
-0.531183 -1.048839 0.435295 33.000000 5 369.731744
-0.499363 -0.986009 0.301312 10.000000 3 369.731746
-0.346529 -0.683939 0.161648 36.000000 1 369.731749
-0.402289 -0.792286 0.872284 75.000000 14 369.731757
-0.418415 -0.824039 0.756481 40.000000 12 369.731759
-0.465520 -0.916412 0.689390 49.000000 10 369.731762
-0.541100 -1.065189 0.639764 52.000000 8 369.731764
-0.547975 -1.078258 0.509869 42.000000 6 369.731767
-0.526557 -1.035666 0.370937 18.000000 4 369.731769
-0.363657 -0.714956 0.203951 30.000000 2 369.731772
-0.344279 -0.676566 0.124298 38.000000 0 369.731774
-0.013042 -0.020084 1.174229 71.000000 31 369.731785
-0.083111 -0.153763 1.111757 67.000000 28 369.731788
-0.105570 -0.194634 1.088001 72.000000 27 369.731790
-0.143608 -0.276922 1.043843 26.000000 25 369.731793
-0.185641 -0.362663 1.019377 38.000000 23 369.731795
-0.230428 -0.450330 0.993945 45.000000 21 369.731798
-0.274619 -0.536681 0.958056 61.000000 19 369.731800
-0.323616 -0.632423 0.926887 67.000000 17 369.731803
-0.039085 -0.065949 1.162474 68.000000 30 369.731811
-0.063453 -0.111672 1.153180 44.000000 29 369.731813
-0.122431 -0.232221 1.047593 74.000000 26 369.731816
-0.165318 -0.321586 1.037516 34.000000 24 369.731818
-0.207724 -0.404401 1.003438 43.000000 22 369.731821
-0.254510 -0.495677 0.981584 60.000000 20 369.731824
-0.298587 -0.581509 0.940044 66.000000 18 369.731826
-0.345861 -0.673568 0.899131 71.000000 16 369.731829
-0.374588 -0.734237 0.889802 68.000000 15 369.731786
-0.434821 -0.852291 0.853612 73.000000 13 369.731789
-0.438203 -0.858551 0.716583 43.000000 11 369.731791
-0.500131 -0.979876 0.662187 40.000000 9 369.731794
-0.554846 -1.086607 0.581259 48.000000 7 369.731797
-0.534841 -1.046979 0.435295 33.000000 5 369.731799
-0.502802 -0.984260 0.301312 10.000000 3 369.731802
-0.348915 -0.682726 0.161648 35.000000 1 369.731804
-0.405052 -0.790877 0.872284 77.000000 14 369.731812
-0.421289 -0.822573 0.756481 40.000000 12 369.731815
-0.468716 -0.914782 0.689390 49.000000 10 369.731817
-0.544815 -1.063294 0.639764 50.000000 8 369.731820
-0.551736 -1.076339 0.509869 40.000000 6 369.731822
-0.530169 -1.033821 0.370937 18.000000 4 369.731825
-0.370672 -0.722495 0.205330 29.000000 2 369.731827
-0.346638 -0.675361 0.124298 38.000000 0 369.731830
-0.013112 -0.020039 1.174229 72.000000 31 369.731841
-0.083648 -0.153472 1.111757 64.000000 28 369.731843
-0.106249 -0.194264 1.088001 73.000000 27 369.731846
-0.144574 -0.276419 1.043843 26.000000 25 369.731848
-0.186906 -0.362013 1.019377 38.000000 23 369.731851
-0.231999 -0.449523 0.993945 45.000000 21 369.731853
-0.276491 -0.535719 0.958056 61.000000 19 369.731856
-0.325821 -0.631289 0.926887 66.000000 17 369.731859
-0.039315 -0.065812 1.162474 67.000000 30 369.731866
-0.063842 -0.111449 1.153180 44.000000 29 369.731869
-0.123241 -0.231792 1.047593 74.000000 26 369.731871
-0.166439 -0.321007 1.037516 34.000000 24 369.731874
-0.209135 -0.403673 1.003438 43.000000 22 369.731877
-0.255040 -0.492470 0.977318 58.000000 20 369.731879
-0.300615 -0.580464 0.940044 64.000000 18 369.731882
-0.348210 -0.672356 0.899131 69.000000 16 369.731884
-0.377149 -0.732925 0.889802 68.000000 15 369.731842
-0.437793 -0.850768 0.853612 73.000000 13 369.731844
-0.441197 -0.857016 0.716583 43.000000 11 369.731847
-0.503548 -0.978125 0.662187 40.000000 9 369.731850
-0.558635 -1.084664 0.581259 48.000000 7 369.731852
-0.538493 -1.045106 0.435295 33.000000 5 369.731855
-0.506234 -0.982499 0.301312 10.000000 3 369.731857
-0.351296 -0.681504 0.161648 36.000000 1 369.731860
-0.406096 -0.786140 0.868960 77.000000 14 369.731868
-0.424157 -0.821098 0.756481 42.000000 12 369.731870
-0.471907 -0.913140 0.689390 53.000000 10 369.731873
-0.546439 -1.057353 0.637666 50.000000 8 369.731875
-0.555490 -1.074406 0.509869 40.000000 6 369.731878
-0.533775 -1.031965 0.370937 18.000000 4 369.731880
-0.380019 -0.734391 0.207400 29.000000 2 369.731883
-0.348994 -0.674147 0.124298 36.000000 0 369.731885
-0.013182 -0.019993 1.174229 71.000000 31 369.731896
-0.084183 -0.153179 1.111757 67.000000 28 369.731899
-0.106926 -0.193892 1.088001 73.000000 27 369.731901
-0.145538 -0.275913 1.043843 25.000000 25 369.731904
-0.189070 -0.363091 1.023980 37.000000 23 369.731906
-0.233567 -0.448711 0.993945 44.000000 21 369.731909
-0.278359 -0.534750 0.958056 61.000000 19 369.731911
-0.328023 -0.630148 0.926887 67.000000 17 369.731914
-0.039545 -0.065675 1.162474 66.000000 30 369.731922
-0.063961 -0.110765 1.148209 47.000000 29 369.731924
-0.124049 -0.231360 1.047593 73.000000 26 369.731927
-0.168358 -0.321953 1.042209 35.000000 24 369.731929
-0.210542 -0.402941 1.003438 42.000000 22 369.731932
-0.256757 -0.491577 0.977318 58.000000 20 369.731935
-0.302640 -0.579411 0.940044 64.000000 18 369.731937
-0.350555 -0.671137 0.899131 69.000000 16 369.731940
-0.379705 -0.731604 0.889802 68.000000 15 369.731897
-0.440760 -0.849235 0.853612 75.000000 13 369.731900
-0.444186 -0.855471 0.716583 43.000000 11 369.731903
-0.506960 -0.976361 0.662187 40.000000 9 369.731905
-0.562418 -1.082707 0.581259 48.000000 7 369.731908
-0.542138 -1.043220 0.435295 33.000000 5 369.731910
-0.509661 -0.980726 0.301312 10.000000 3 369.731913
-0.353672 -0.680273 0.161648 36.000000 1 369.731915
-0.408838 -0.784718 0.868960 75.000000 14 369.731923
-0.427021 -0.819612 0.756481 42.000000 12 369.731926
-0.475091 -0.911487 0.689390 49.000000 10 369.731928
-0.550127 -1.055440 0.637666 50.000000 8 369.731931
-0.559237 -1.072461 0.509869 42.000000 6 369.731933
